# .PCD v0.7 - Point Cloud Data file format
VERSION 0.7
FIELDS x y z rgb
SIZE 4 4 4 4
TYPE F F F U
COUNT 1 1 1 1
WIDTH 1102
HEIGHT 1
VIEWPOINT 0 0 0 1 0 0 0
POINTS 1102
DATA ascii
0.089680761 0.033993192 0.85008925 4283253821
0.3543129 0.41976646 1.1729455 4288582518
0.35645986 0.4176122 1.1732023 4281081865
0.35214454 0.41764706 1.1732953 4287332702
0.35860682 0.41545799 1.1734589 4280029698
0.35429144 0.41549283 1.1735519 4284766520
0.34997612 0.41552767 1.1736449 4285950279
0.3564384 0.41333857 1.1738087 4279963648
0.35426998 0.41121921 1.1741583 4283845162
-0.11557931 0.041166022 0.84668541 4279700224
-0.11411992 0.03970167 0.84685993 4279502849
-0.11705329 0.039725363 0.84692311 4287003472
-0.11266053 0.038237318 0.84703445 4279832065
-0.1155939 0.038261011 0.84709764 4287858521
-0.11852728 0.038284704 0.84716082 4294967233
-0.11413451 0.0367966 0.84727216 4282858260
-0.11560848 0.035355948 0.84750986 4293187477
0.29859847 0.4101145 1.1524938 4285292084
0.30070472 0.40800104 1.1527457 4283384091
0.29647109 0.40803522 1.1528369 4286147643
0.30281103 0.40588757 1.1529975 4282923541
0.2985774 0.40592179 1.1530887 4285555513
0.29434371 0.40595597 1.1531799 4288186967
0.30068368 0.40380827 1.1533406 4284502058
0.29855633 0.40172902 1.1536837 4285357621
-0.27994895 0.26628473 0.98912889 4281282339
-0.27818912 0.26451895 0.98933929 4279440135
-0.28172624 0.2645475 0.98941553 4279900686
-0.27642936 0.26275322 0.9895497 4286808951
-0.27996653 0.2627818 0.98962593 4287401088
-0.28350353 0.26281038 0.98970211 4289177499
-0.27820671 0.26101607 0.98983634 4293454044
-0.27998412 0.25927892 0.99012297 4287927432
0.16451481 0.41762048 1.1792883 4291609007
0.16666482 0.41546318 1.1795454 4292069043
0.16234335 0.41549811 1.1796385 4293648332
0.16881481 0.41330585 1.1798025 4291804844
0.16449332 0.41334078 1.1798956 4291674285
0.16017188 0.41337568 1.1799886 4292661180
0.16664334 0.41118351 1.1801527 4291279013
0.16447183 0.4090611 1.1805029 4291542442
0.56672442 0.41815111 1.1938066 4281874230
0.56891614 0.41595194 1.1940688 4280163616
0.56451076 0.41598752 1.1941637 4282466365
0.57110792 0.41375276 1.1943308 4279308310
0.56670249 0.41378835 1.1944258 4281873976
0.56229717 0.41382393 1.1945207 4284045396
0.56889421 0.41158912 1.1946878 4279176466
0.56668061 0.40942553 1.1950449 4280360737
0.4993068 0.42193457 1.2043321 4279899665
0.50151533 0.41971856 1.2045962 4281742126
0.49707621 0.41975442 1.2046918 4279899667
0.50372386 0.41750255 1.2048602 4282203191
0.49928474 0.41753843 1.2049558 4280360731
0.49484563 0.41757426 1.2050515 4279834387
0.50149328 0.41532236 1.20522 4281215527
0.49926269 0.41314223 1.2055796 4280097046
0.3573153 0.412604 1.178041 4280161024
0.35946959 0.41044244 1.1782985 4280358144
0.35513955 0.41047743 1.1783918 4285950538
0.36162382 0.40828091 1.1785561 4280292608
0.35729378 0.40831587 1.1786494 4281081345
0.35296381 0.40835086 1.1787426 4290160517
0.35944808 0.4061543 1.178907 4281673224
0.35727227 0.40402773 1.1792579 4280423424
0.35952038 0.41742 1.1979507 4285950538
0.36171097 0.41522202 1.1982126 4281081345
0.35730791 0.41525757 1.1983075 4290160517
0.36390156 0.41302395 1.1984746 4281673224
0.3594985 0.4130595 1.1985694 4284963127
0.35509545 0.41309509 1.1986643 4288976497
0.36168903 0.41086152 1.1988314 4280423424
0.35947663 0.40869907 1.1991882 4284699439
0.55681902 0.41091672 1.1862805 4285097569
0.55899531 0.40873298 1.1865407 4283979604
0.55462098 0.40876833 1.1866349 4284768861
0.56117159 0.40654933 1.186801 4281808436
0.55679727 0.40658465 1.1868951 4285558634
0.55242288 0.40662 1.1869894 4284834395
0.55897355 0.40440097 1.1871554 4282597950
0.55677551 0.40225258 1.1875099 4283124293
0.50866568 0.41348153 1.1934797 4282926912
0.51085335 0.41128641 1.1937413 4282399801
0.50645608 0.41132191 1.193836 4282399800
0.51304108 0.40909129 1.1940029 4287202691
0.50864381 0.40912679 1.1940976 4285426280
0.50424659 0.40916231 1.1941923 4281083941
0.51083148 0.40693173 1.1943592 4289110689
0.50862193 0.40477207 1.1947155 4288189587
0.54534751 0.41434777 1.2091044 4283123518
0.54756445 0.41212338 1.2093695 4283716167
0.54310852 0.41215935 1.2094655 4281939503
0.54978126 0.40989897 1.2096347 4284110924
0.5453254 0.40993497 1.2097306 4282400052
0.54086947 0.40997094 1.2098266 4281412906
0.54754227 0.40771058 1.2099956 4282334514
0.54530323 0.4055222 1.2103567 4281215778
0.51421636 0.401658 1.1791813 4282004786
0.51637614 0.39949086 1.1794397 4282267958
0.51203501 0.39952591 1.1795331 4288188302
0.51853591 0.39732376 1.1796979 4281412648
0.51419479 0.3973588 1.1797915 4284438357
0.50985366 0.39739388 1.1798849 4287595910
0.51635456 0.3951917 1.1800497 4281478184
0.51417321 0.39305964 1.1804014 4282135088
0.57694906 0.38820079 1.1468645 4280230441
0.57905108 0.38609162 1.1471159 4281349435
0.574826 0.38612577 1.1472069 4281085750
0.58115315 0.38398245 1.1473672 4282862672
0.57692802 0.3840166 1.1474583 4280822834
0.57270294 0.3840507 1.1475493 4281414715
0.5790301 0.38190743 1.1477096 4283060051
0.57690704 0.37983233 1.148052 4281677885
0.54967785 0.40379491 1.191962 4284308049
0.55186206 0.40160325 1.1922232 4284308049
0.54747176 0.40163872 1.1923178 4282465844
0.55404627 0.39941165 1.1924844 4284769372
0.54965603 0.39944711 1.192579 4281742122
0.54526573 0.39948258 1.1926736 4283058236
0.55184025 0.39725545 1.1928402 4284374355
0.54963416 0.39509925 1.1931959 4282400822
0.50056416 0.40336576 1.190629 4284636508
0.50274396 0.40117854 1.1908897 4287202434
0.49836254 0.40121391 1.190984 4280952098
0.50492376 0.39899135 1.1911503 4283781710
0.50054234 0.39902672 1.1912447 4285162850
0.49616098 0.39906213 1.1913391 4279438859
0.50272214 0.39683953 1.1915053 4284373333
0.50052059 0.39468765 1.1918604 4281806379
0.48924345 0.40307745 1.1897734 4280096789
0.49142122 0.40089226 1.1900339 4279833616
0.48704392 0.40092763 1.1901282 4280557339
0.493599 0.39870709 1.1902943 4279899409
0.48922169 0.39874247 1.1903886 4280754717
0.48484439 0.39877781 1.1904829 4280294419
0.49139947 0.39655724 1.190649 4280359443
0.48919994 0.39440742 1.1910037 4282530609
0.41263252 0.39542547 1.1674783 4281677861
0.41476607 0.39328465 1.1677334 4281217565
0.41047764 0.39331931 1.1678258 4282467378
0.41689968 0.39114386 1.1679885 4279309825
0.41261119 0.39117849 1.1680809 4281743652
0.40832275 0.39121315 1.1681733 4281941035
0.41474479 0.3890377 1.168336 4280164873
0.41258985 0.38693148 1.1686836 4280954391
0.3810299 0.39053896 1.1532725 4283846711
0.38313597 0.38842574 1.1535244 4281346585
0.37890279 0.38845992 1.1536156 4286280786
0.38524204 0.38631248 1.1537763 4280228367
0.38100886 0.38634667 1.1538675 4284833605
0.37677562 0.38638088 1.1539587 4284964152
0.38311493 0.38423344 1.1541193 4280688397
0.38098782 0.38215438 1.1544623 4282398751
0.35490942 0.39615509 1.1694844 4282396939
0.3570444 0.3940129 1.1697396 4283647005
0.3527531 0.39404753 1.1698321 4283449626
0.35917938 0.39187065 1.169995 4288449894
0.35488808 0.39190534 1.1700873 4283449626
0.35059679 0.39193997 1.1701798 4287989343
0.35702306 0.38976309 1.1703427 4283910179
0.35486674 0.3876555 1.1706904 4287068500
0.22363237 0.36534116 1.0800303 4293054889
0.22559698 0.36336991 1.0802652 4294436302
0.22164816 0.3634018 1.0803503 4292857230
0.22756156 0.36139867 1.0805001 4294304472
0.22361274 0.36143056 1.0805851 4294108349
0.21966396 0.36146244 1.0806702 4293053831
0.22557735 0.35945931 1.0808201 4294965479
0.2235931 0.35751989 1.08114 4294900714
0.5600642 0.4048987 1.2018338 4284176980
0.56226647 0.40268892 1.2020972 4283321672
0.55783981 0.40272468 1.2021925 4284769372
0.56446874 0.40047917 1.2023605 4281742898
0.56004214 0.40051493 1.2024559 4281479980
0.55561554 0.40055069 1.2025512 4284374355
0.56224447 0.39830512 1.2027192 4281282602
0.56002015 0.3961311 1.2030779 4280624671
0.3579613 0.39539766 1.1737731 4283647005
0.36010379 0.39324793 1.1740292 4288449894
0.35579741 0.39328271 1.174122 4283449626
0.36224622 0.3910982 1.1742854 4290029183
0.3579399 0.39113298 1.1743782 4283910179
0.35363352 0.39116779 1.1744709 4293122740
0.36008233 0.38898322 1.1746343 4290292355
0.3579185 0.38686827 1.1749834 4288318566
0.20111257 0.3677046 1.092837 4287327354
0.2030994 0.36571106 1.0930746 4281800746
0.19910589 0.36574331 1.0931606 4291012259
0.2050862 0.3637175 1.0933121 4281866539
0.20109272 0.36374974 1.0933981 4285156936
0.19709921 0.36378202 1.0934842 4286866781
0.20307954 0.36175618 1.0936357 4283907895
0.20107287 0.35979483 1.0939593 4285025589
0.052477889 0.038915999 0.85505474 4294505456
0.05395817 0.037430689 0.85523176 4293979883
0.050982773 0.037454717 0.85529584 4293452768
0.055438451 0.035945334 0.85540873 4291807943
0.052463099 0.035969369 0.85547286 4289965739
0.049487703 0.035993397 0.85553694 4290821048
0.053943373 0.034484059 0.85564983 4289834153
0.052448303 0.033022776 0.85589093 4288912794
0.47513163 0.386796 1.1684309 4282070056
0.47726721 0.38465312 1.1686863 4283254072
0.47297466 0.38468781 1.1687788 4283122484
0.47940278 0.38251033 1.1689417 4282990900
0.47511029 0.38254499 1.1690341 4281346329
0.47081774 0.38257965 1.1691266 4284569671
0.47724587 0.38040212 1.1692896 4281148949
0.47508895 0.37829396 1.1696373 4280293891
0.43007582 0.39225891 1.1845009 4281218577
0.43223929 0.39008811 1.1847596 4288258428
0.42789078 0.39012325 1.1848533 4281678874
0.4344027 0.38791737 1.1850183 4292798144
0.43005419 0.38795248 1.185112 4286679397
0.42570573 0.38798761 1.1852057 4283915837
0.43221766 0.38578168 1.1853707 4288982148
0.43003261 0.38364598 1.1857231 4284376636
0.36748868 0.38413915 1.1603076 4294239931
0.369605 0.38201565 1.1605607 4289963128
0.36535126 0.38205001 1.1606524 4293187243
0.37172133 0.37989214 1.1608138 4289173617
0.36746752 0.3799265 1.1609055 4292529314
0.36321372 0.37996086 1.1609972 4290818953
0.36958385 0.37780294 1.1611586 4286541130
0.36744642 0.3757138 1.1615032 4287462743
0.013187364 0.038814403 0.84708577 4292795095
0.014652073 0.037344776 0.84726095 4292729559
0.011708066 0.037368551 0.84732437 4293716197
0.016116716 0.035875089 0.84743607 4289176480
0.013172723 0.035898864 0.84749949 4289965996
0.010228775 0.035922647 0.84756291 4292400080
0.014637433 0.034429237 0.84767461 4288189328
0.01315809 0.032983378 0.84791321 4288518293
0.43581277 0.38916442 1.1820176 4291811249
0.43797129 0.38699856 1.1822757 4288455806
0.43363267 0.38703361 1.1823691 4292798144
0.44012982 0.38483265 1.1825337 4278521088
0.43579119 0.3848677 1.1826272 4284837188
0.43145257 0.38490275 1.1827207 4288982148
0.43794972 0.38270184 1.1828853 4279113472
0.43576962 0.38057104 1.1832368 4279837188
-0.004982993 0.039160408 0.85166925 4294045419
-0.0035109073 0.037683323 0.85184526 4293584611
-0.0064698383 0.037707224 0.85190904 4294308334
-0.0020388216 0.036206186 0.85202128 4291676357
-0.0049977079 0.036230087 0.85208505 4290821048
-0.0079566389 0.036253989 0.85214877 4292400337
-0.0035256222 0.034752995 0.85226107 4291347392
-0.0050124228 0.033299811 0.85250086 4290163118
0.21507716 0.35976359 1.0939013 4281602567
0.21706441 0.35776955 1.094139 4282194966
0.21307003 0.35780182 1.0942249 4285022522
0.21905167 0.35577551 1.0943766 4293118147
0.2150573 0.35580778 1.0944626 4288704882
0.21106288 0.35584006 1.0945487 4290547341
0.21704456 0.35381377 1.0947002 4293967552
0.21503744 0.35185203 1.0950239 4289226860
0.18953395 0.36159334 1.0992864 4289033587
0.19153012 0.35959038 1.0995251 4294362050
0.18751782 0.35962278 1.0996115 4294032313
0.1935263 0.35758737 1.0997638 4293375411
0.18951401 0.35761979 1.0998502 4292781991
0.18550166 0.35765219 1.0999366 4291531152
0.19151017 0.35561684 1.100089 4290939785
0.18949404 0.35364625 1.100414 4292781733
-0.30840558 0.37337151 1.1331122 4281217839
-0.30636674 0.37132582 1.133356 4282599492
-0.31046468 0.37135896 1.1334443 4282665542
-0.30432796 0.3692801 1.1335998 4280823081
-0.3084259 0.36931321 1.1336881 4281415218
-0.3125239 0.36934629 1.1337763 4281546804
-0.30638713 0.36726752 1.1339319 4280691493
-0.30844629 0.36525491 1.1342639 4281415216
0.34150386 0.39312473 1.2003698 4282857240
0.34369189 0.39092925 1.2006314 4282791957
0.33929393 0.39096478 1.2007262 4282528532
0.34587991 0.38873377 1.200893 4283910436
0.34148198 0.3887693 1.2009878 4283975976
0.337084 0.38880482 1.2010826 4282396947
0.34367001 0.38657382 1.2012495 4284831539
0.34146014 0.38441381 1.2016058 4283844390
0.47119397 0.38530079 1.1840308 4283319853
0.47335643 0.38313094 1.1842895 4284109877
0.46900982 0.38316604 1.184383 4285557319
0.475519 0.38096109 1.184548 4285162564
0.47117233 0.3809962 1.1846416 4285820492
0.46682572 0.3810313 1.1847353 4291544737
0.47333485 0.37882629 1.1849003 4286741596
0.4711507 0.37669155 1.1852524 4287267938
0.36915058 0.38017926 1.1683162 4287725403
0.37128007 0.37804252 1.1685709 4287725148
0.3669998 0.37807709 1.1686631 4287265363
0.37340951 0.37590578 1.1688255 4289699964
0.3691293 0.37594035 1.1689178 4293252781
0.36484897 0.37597492 1.1690099 4290357887
0.3712588 0.37380359 1.1691724 4294966995
0.36910796 0.37170145 1.1695193 4293516208
0.19880539 0.35499215 1.0919601 4293706172
0.20078743 0.35300341 1.0921971 4292256415
0.1968036 0.3530356 1.0922829 4292322209
0.20276944 0.35101467 1.092434 4289622386
0.1987856 0.35104686 1.0925199 4292517278
0.19480178 0.35107902 1.0926057 4292978084
0.20076762 0.34905806 1.0927569 4292450714
0.19876578 0.34710154 1.0930797 4294888136
-0.31198502 0.42210934 1.1491321 4284969067
-0.30990607 0.42002323 1.1493808 4282995279
-0.31408477 0.42005697 1.1494708 4282995279
-0.30782706 0.41793713 1.1496294 4280692524
-0.31200582 0.41797093 1.1497194 4279837215
-0.31618458 0.41800466 1.1498094 4279968801
-0.30992681 0.41588482 1.149968 4280297766
-0.31202662 0.41383258 1.1503066 4280297766
-0.034090608 0.039249316 0.84921986 4278452480
-0.032623976 0.0377777 0.84939522 4283913295
-0.035571963 0.037801512 0.84945875 4281413162
-0.03115733 0.036306031 0.84957063 4294571762
-0.034105256 0.036329843 0.84963411 4294374382
-0.037053242 0.036353655 0.84969765 4293585123
-0.032638624 0.034858227 0.84980953 4293914345
-0.034119919 0.033410423 0.85004836 4291347904
0.16001706 0.38339165 1.18416 4291673771
0.16216689 0.3812345 1.184417 4290883999
0.15784571 0.38126943 1.1845101 4291937457
0.16431671 0.37907732 1.1846741 4291805100
0.15999557 0.37911221 1.1847672 4292069043
0.1556744 0.37914714 1.1848602 4292990145
0.16214541 0.37695509 1.1850243 4292594873
0.15997408 0.37483287 1.1853744 4293187524
0.52546096 0.3803204 1.1896489 4281676078
0.52763426 0.3781397 1.1899087 4280032023
0.5232659 0.37817499 1.1900028 4284965470
0.52980757 0.37595901 1.1901686 4279308300
0.5254392 0.37599429 1.1902627 4281215269
0.52107084 0.37602958 1.1903569 4287728003
0.52761257 0.37381357 1.1905226 4279965460
0.52541751 0.37166813 1.1908766 4280557082
0.37800884 0.37134805 1.1616659 4283648303
0.38012481 0.36922494 1.1619189 4282003997
0.37587178 0.3692593 1.1620106 4284372024
0.38224071 0.36710182 1.162172 4280491532
0.37798768 0.36713615 1.1622635 4283451698
0.37373465 0.36717054 1.1623552 4286214486
0.38010365 0.36501303 1.1625166 4281478426
0.37796652 0.36292425 1.1628612 4281478425
0.18301134 0.34988794 1.0952438 4293046443
0.18499722 0.34789529 1.0954813 4294493890
0.18100561 0.34792754 1.0955672 4293837754
0.18698314 0.34590265 1.0957187 4294625217
0.1829915 0.3459349 1.0958047 4290547591
0.17899986 0.34596714 1.0958906 4288312937
0.18497737 0.34394231 1.0960422 4287126354
0.18297166 0.34198186 1.0963656 4286667598
-0.27409917 0.42628518 1.1602859 4282665544
-0.27199799 0.42417684 1.1605372 4283652439
-0.27622139 0.42421094 1.1606282 4283718232
-0.26989681 0.42206851 1.1607885 4282336579
-0.27412015 0.4221026 1.1608795 4282336579
-0.27834356 0.42213675 1.1609704 4282270786
-0.27201903 0.41999432 1.1611308 4280757547
-0.27414119 0.41792014 1.1614729 4280296996
-0.018082976 0.038226813 0.86146545 4287992206
-0.01659435 0.036733136 0.86164349 4294703606
-0.019586429 0.036757305 0.86170793 4294110955
-0.015105784 0.035239503 0.86182147 4293847783
-0.018097848 0.035263672 0.86188596 4292663509
-0.021089867 0.035287842 0.8619504 4292071372
-0.016609222 0.033770047 0.86206394 4292202958
-0.018112734 0.032300577 0.86230642 4291808200
0.16761707 0.37168753 1.1687975 4291080608
0.16973723 0.36956015 1.1690511 4289961870
0.1654757 0.36959457 1.1691428 4291410086
0.17185745 0.36743277 1.1693046 4289567112
0.16759588 0.36746719 1.1693964 4291344036
0.16333431 0.36750162 1.1694882 4292858045
0.16971605 0.36533979 1.16965 4289896591
0.16757469 0.36324683 1.1699953 4291739051
0.52042127 0.3834174 1.2132739 4290292891
0.52263671 0.38119438 1.2135388 4288713605
0.51818365 0.38123035 1.2136347 4290161044
0.52485222 0.37897134 1.2138038 4284832077
0.52039909 0.37900731 1.2138996 4285950296
0.51594597 0.37904328 1.2139956 4289963919
0.5226146 0.37678429 1.2141646 4282858028
0.52037698 0.37459728 1.2145255 4286213471
0.41932684 0.37792715 1.195886 4279967753
0.42150635 0.37574029 1.1961466 4285297238
0.41712564 0.37577567 1.196241 4279441155
0.42368579 0.3735534 1.1964072 4285100114
0.41930503 0.37358877 1.1965016 4280954648
0.41492432 0.37362418 1.196596 4279572485
0.42148459 0.37140191 1.1967622 4285231447
0.41928327 0.36925042 1.1971172 4281612578
0.51240176 0.37600112 1.1972939 4290161044
0.51458693 0.37380847 1.1975552 4285950296
0.51019472 0.37384394 1.1976498 4289963919
0.51677209 0.37161586 1.1978165 4282858028
0.51237988 0.37165135 1.1979111 4286871396
0.50798768 0.37168685 1.1980057 4290161297
0.51456511 0.36945876 1.1981723 4286213471
0.51235807 0.36730161 1.1985283 4287398002
0.49798518 0.37912056 1.2069763 4280094981
0.50018764 0.3769106 1.2072396 4279766017
0.49576068 0.37694636 1.207335 4283318838
0.50239003 0.3747007 1.207503 4279831809
0.49796313 0.37473646 1.2075983 4279897602
0.49353629 0.37477222 1.2076937 4284174146
0.50016564 0.37252656 1.2078618 4280358153
0.49794114 0.37035236 1.2082205 4279832325
0.20180374 0.11539637 0.90596092 4286608486
0.20339867 0.11379601 0.90615165 4286476643
0.20019288 0.1138219 0.90622067 4286542693
0.20499364 0.11219566 0.90634233 4281607705
0.2017878 0.11222155 0.90641141 4281936670
0.19858198 0.11224744 0.90648049 4282068256
0.20338275 0.11062115 0.90660214 4279897088
0.20177187 0.10904668 0.9068619 4280620812
0.37886935 0.36618641 1.1661739 4282859564
0.380992 0.36405656 1.1664279 4281413147
0.37672549 0.36409101 1.1665198 4286412899
0.38311458 0.3619267 1.1666816 4279505411
0.37884814 0.36196119 1.1667736 4281347356
0.37458163 0.36199567 1.1668655 4287597176
0.38097078 0.35983136 1.1670274 4280294926
0.37882692 0.35773596 1.1673731 4281479201
-0.14967072 0.36340156 1.1555448 4279967255
-0.14758864 0.36131233 1.1557937 4280033048
-0.15177366 0.36134616 1.1558839 4279967000
-0.1455065 0.35922316 1.1560427 4280362013
-0.14969152 0.35925695 1.1561328 4280427806
-0.15387654 0.35929075 1.1562229 4280295965
-0.14760944 0.35716778 1.1563818 4281217322
-0.14971235 0.35511234 1.1567209 4281677873
-0.16901083 0.36715803 1.1671972 4279638553
-0.16690804 0.36504805 1.1674486 4280164381
-0.17113461 0.36508217 1.1675397 4279835932
-0.16480528 0.36293814 1.1677002 4280624930
-0.16903184 0.36297229 1.1677911 4280428069
-0.1732585 0.36300641 1.1678822 4280033311
-0.16692908 0.36086234 1.1680427 4281085483
-0.16905285 0.35878649 1.1683851 4281415218
0.20712087 0.34240183 1.0977764 4294825422
0.2091103 0.34040567 1.0980142 4294564047
0.20511152 0.34043798 1.0981004 4292260005
0.21109973 0.33840945 1.0982522 4292653737
0.20710099 0.33844176 1.0983382 4291798684
0.2031022 0.33847407 1.0984244 4286996308
0.20909041 0.33644554 1.0985762 4289561209
0.20708111 0.33448163 1.0989002 4286205766
0.48703575 0.36863455 1.1882814 4284174146
0.4892022 0.36646071 1.1885406 4281345048
0.48484766 0.36649588 1.1886344 4282858285
0.49136871 0.36428687 1.1887996 4279832325
0.48701406 0.36432204 1.1888934 4281806113
0.48265952 0.3643572 1.1889873 4282332711
0.48918056 0.3621482 1.1891525 4280095753
0.48699242 0.36000952 1.1895053 4279832838
-0.1844791 0.36121985 1.1621947 4279835932
-0.18238725 0.35912088 1.1624448 4280428068
-0.186592 0.35915485 1.1625354 4280164897
-0.18029539 0.35702184 1.1626951 4281020460
-0.18450002 0.35705581 1.1627855 4281020460
-0.18870477 0.35708979 1.1628761 4280823081
-0.18240814 0.35495684 1.1630358 4281612597
-0.18452092 0.35289177 1.1633765 4281612597
0.58239216 0.36373052 1.1802492 4282137670
0.5845471 0.36156824 1.1805068 4282137668
0.58021575 0.36160323 1.1806002 4281611326
0.58670205 0.35940602 1.1807646 4280953137
0.58237064 0.35944101 1.1808579 4281348154
0.57803929 0.359476 1.1809511 4280295466
0.58452559 0.35727873 1.1811155 4280032035
0.58234912 0.3551515 1.1814665 4279571743
0.45880157 0.3623971 1.1755018 4284834111
0.46094292 0.36024848 1.1757578 4283254313
0.45663893 0.36028326 1.1758505 4281610514
0.46308422 0.35809991 1.1760138 4285622865
0.45878017 0.35813469 1.1761066 4284044599
0.45447618 0.35816947 1.1761993 4285624401
0.46092153 0.35598609 1.1763626 4290491804
0.45875877 0.3538723 1.1767114 4288321152
0.43092632 0.36992636 1.1993132 4283389492
0.4331103 0.36773494 1.1995744 4283323700
0.42872053 0.3677704 1.1996689 4282073633
0.43529427 0.36554357 1.1998355 4283718460
0.43090451 0.36557904 1.1999301 4283850044
0.42651474 0.3656145 1.2000246 4281152534
0.43308848 0.36338761 1.2001913 4282402597
0.43088263 0.36123171 1.200547 4285494869
0.41997594 0.37004253 1.1996373 4281612578
0.42216009 0.36785099 1.1998985 4285626206
0.41776997 0.36788645 1.199993 4279704327
0.42434424 0.36565942 1.2001597 4284376136
0.41995412 0.36569488 1.2002542 4283323197
0.415564 0.36573035 1.2003487 4279572485
0.42213827 0.36350331 1.2005154 4287073397
0.41993231 0.36134723 1.2008711 4282402098
0.35368562 0.37313703 1.2091972 4289569143
0.35588473 0.37093046 1.2094601 4281410829
0.35146457 0.37096617 1.2095554 4291148175
0.35808378 0.3687239 1.2097231 4284372535
0.35366362 0.3687596 1.2098184 4290293123
0.34924352 0.36879531 1.2099135 4285424186
0.35586274 0.36655301 1.2100813 4280029956
0.35364163 0.36438218 1.2104394 4287267169
-0.31565642 0.41737518 1.1307629 4282863691
-0.31361109 0.41532293 1.1310076 4285100653
-0.3177222 0.41535613 1.1310961 4284837481
-0.3115657 0.41327062 1.1312521 4282337349
-0.31567687 0.41330382 1.1313406 4282403142
-0.31978792 0.41333702 1.1314292 4281745212
-0.31363153 0.41125152 1.1315852 4279903008
-0.31569725 0.40923247 1.1319183 4280231973
-0.095317066 0.36073762 1.1679418 4279833868
-0.093211636 0.35862502 1.1681936 4280162574
-0.097443536 0.35865918 1.1682848 4279965454
-0.091106191 0.3565124 1.1684453 4279372548
-0.095338106 0.35654661 1.1685365 4279372548
-0.099570006 0.35658076 1.1686277 4279503878
-0.093232676 0.35443398 1.1687883 4281937440
-0.095359147 0.35235557 1.1691313 4292331697
0.51511365 0.37171826 1.2126611 4288516483
0.51732492 0.36949947 1.2129256 4289371539
0.51288027 0.36953542 1.2130214 4292003771
0.5195362 0.36728069 1.2131901 4287069043
0.51509154 0.36731657 1.2132858 4287529851
0.51064688 0.36735249 1.2133815 4288517002
0.51730287 0.36509779 1.2135502 4280688155
0.51506943 0.36291492 1.2139103 4279044100
0.4675262 0.36032006 1.1760149 4287333230
0.46966821 0.35817075 1.1762711 4285622359
0.46536285 0.35820553 1.1763638 4287464816
0.47181028 0.35602143 1.1765271 4283319608
0.4675048 0.35605618 1.1766199 4284504135
0.46319938 0.35609099 1.1767126 4289570448
0.46964681 0.3539069 1.1768761 4280095754
0.4674834 0.3517924 1.177225 4279240961
0.42032725 0.36828044 1.2012637 4282402095
0.42251378 0.36608645 1.2015252 4286415722
0.41811877 0.36612198 1.2016199 4279638534
0.42470038 0.36389244 1.2017866 4284639309
0.42030537 0.36392793 1.2018813 4283915335
0.41591036 0.36396345 1.2019761 4279572487
0.42249191 0.36173394 1.2021428 4285954917
0.4202835 0.35957548 1.2024989 4281020190
-0.088471606 0.35759971 1.1649358 4280360210
-0.086371973 0.35549292 1.1651869 4279569925
-0.090592295 0.35552701 1.1652778 4279372548
-0.08427234 0.35338613 1.1654379 4280555527
-0.088492587 0.35342023 1.1655289 4281739803
-0.092712894 0.35345432 1.1656199 4281937440
-0.086392954 0.35131344 1.1657799 4289239426
-0.088513583 0.34924075 1.166122 4290160271
0.3946538 0.36180928 1.1876425 4279111686
0.39681375 0.359642 1.1879007 4285493602
0.39247227 0.35967705 1.1879942 4279835405
0.3989737 0.35747471 1.188159 4285756774
0.39463222 0.35750976 1.1882526 4281546277
0.39029074 0.35754484 1.188346 4279638023
0.39679217 0.35534248 1.1885108 4288322956
0.39461064 0.35321027 1.1888626 4283520067
0.36577493 0.35614458 1.1764376 4281150232
0.36791259 0.35399964 1.1766933 4279308288
0.36361587 0.35403433 1.1767858 4279176961
0.37005025 0.35185471 1.1769489 4278979328
0.36575353 0.35188943 1.1770414 4282269222
0.36145681 0.35192415 1.177134 4285097806
0.36789119 0.34974453 1.1772971 4285953630
0.36573219 0.34763429 1.1776452 4287993213
-0.31187493 0.41979051 1.1371801 4282666312
-0.30981755 0.41772616 1.137426 4284705895
-0.31395286 0.41775957 1.1375152 4284903274
-0.30776018 0.41566175 1.1376721 4283126865
-0.31189549 0.41569516 1.1377611 4282468935
-0.31603086 0.41572857 1.1378503 4282468935
-0.30983812 0.41363078 1.1380072 4279771422
-0.31191605 0.41159981 1.1383423 4279968801
0.0068233758 0.35976645 1.1865087 4280161290
0.0089653134 0.35761723 1.1867647 4279699712
0.0046599358 0.35765204 1.1868575 4280160256
0.011107266 0.355468 1.1870209 4285357894
0.0068019629 0.35550281 1.1871136 4286015825
0.0024965852 0.35553756 1.1872064 4285226309
0.0089439154 0.35335356 1.1873697 4291146902
0.0067805648 0.35123911 1.1877186 4288712297
0.00043199211 0.35159394 1.1600269 4280292359
0.0025250316 0.34949377 1.1602771 4279765504
-0.0016819611 0.34952775 1.1603677 4281278734
0.004618071 0.3473936 1.1605275 4285226309
0.00041107088 0.34742758 1.1606181 4285555017
-0.0037959293 0.34746155 1.1607087 4284896830
0.0025041103 0.34532744 1.1608683 4288186471
0.00039014965 0.34326127 1.1612092 4288909166
-0.19061787 0.41988739 1.1374277 4279770393
-0.18855523 0.41781774 1.1376743 4279441173
-0.19270118 0.41785118 1.1377637 4279572760
-0.18649255 0.41574803 1.137921 4280099104
-0.1906385 0.41578153 1.1380104 4280164897
-0.19478454 0.41581497 1.1380997 4280362276
-0.18857585 0.41371176 1.138257 4282138687
-0.19065912 0.4116756 1.138593 4282862666
-0.14046681 0.34445056 1.143171 4282335029
-0.13841078 0.34238762 1.1434168 4281083935
-0.14254332 0.342421 1.1435058 4282598201
-0.1363548 0.34032467 1.1436626 4280162576
-0.14048737 0.34035805 1.1437516 4282137650
-0.14461985 0.34039143 1.1438407 4281743149
-0.13843131 0.33829507 1.1439974 4280360467
-0.14050791 0.33626553 1.1443324 4281413669
0.4298653 0.36036023 1.2051181 4286086754
0.43205702 0.35816103 1.2053801 4287402866
0.42765164 0.35819665 1.205475 4282731314
0.43424881 0.35596183 1.2056422 4286876522
0.42984337 0.35599741 1.2057371 4283520828
0.42543799 0.356033 1.205832 4280757270
0.43203515 0.35379824 1.2059991 4284244806
0.42982143 0.35163456 1.2063562 4279836167
-0.074469745 0.35505322 1.1852397 4291081373
-0.072334453 0.35291067 1.185495 4287988585
-0.076626375 0.35294533 1.1855875 4286672984
-0.070199162 0.35076812 1.1857504 4287527774
-0.074491084 0.35080278 1.1858429 4286475087
-0.07878308 0.35083744 1.1859353 4285751880
-0.072355792 0.3486602 1.1860981 4287066193
-0.074512422 0.34655228 1.186446 4285619008
0.40195107 0.35411748 1.1918918 4282730551
0.40411693 0.3519443 1.1921507 4279309574
0.39976364 0.35197946 1.1922445 4283914825
0.40628272 0.34977117 1.1924098 4279112196
0.40192944 0.34980634 1.1925035 4279506697
0.39757621 0.34984148 1.1925973 4289507230
0.40409529 0.34763309 1.1927625 4278980609
0.4019078 0.34549513 1.1931152 4278585600
0.3614217 0.34765097 1.1776779 4283781948
0.36355931 0.34550616 1.1779335 4286085216
0.35926282 0.34554088 1.1780261 4282597676
0.36569685 0.34336129 1.1781892 4289506452
0.36140037 0.34339598 1.1782817 4282795055
0.35710388 0.3434307 1.1783742 4281150230
0.36353791 0.34125119 1.1785372 4283124277
0.36137903 0.3391411 1.1788855 4280294665
0.57839674 0.33918759 1.1579986 4280032292
0.58050627 0.33707091 1.1582508 4280163877
0.57626623 0.33710515 1.1583421 4280032293
0.58261573 0.33495429 1.1585031 4282006336
0.5783757 0.33498853 1.1585944 4281084980
0.57413566 0.33502278 1.1586857 4280163880
0.58048517 0.33287188 1.1588466 4283321683
0.5783546 0.33078954 1.1591902 4282861388
0.53772527 0.34897837 1.1980336 4280426777
0.53990608 0.34679022 1.1982943 4281611308
0.53552276 0.34682563 1.1983887 4280821020
0.54208684 0.34460208 1.1985551 4283848268
0.53770351 0.34463748 1.1986495 4282400052
0.53332019 0.34467289 1.1987439 4281084192
0.53988427 0.34244934 1.1989102 4283650118
0.5376817 0.34029657 1.1992655 4283321408
0.36461979 0.34198853 1.173569 4289506452
0.36674887 0.33985227 1.1738236 4287335029
0.36246949 0.33988684 1.1739157 4283124277
0.36887789 0.33771601 1.1740782 4283255863
0.36459851 0.33775058 1.1741704 4285098067
0.36031914 0.33778512 1.1742625 4280294665
0.36672759 0.33561429 1.1744249 4285755998
0.36457723 0.33351263 1.1747717 4280492560
0.20245606 0.32506597 1.1157807 4289630080
0.20447266 0.32304248 1.1160218 4287852385
0.20041926 0.32307523 1.1161091 4292524200
0.20648926 0.32101902 1.1162629 4288904045
0.2024359 0.32105181 1.1163503 4292194464
0.1983825 0.32108453 1.1164376 4294234817
0.20445251 0.31902832 1.1165915 4290811528
0.20241575 0.31703761 1.1169199 4293245612
0.50312078 0.34939969 1.2069088 4279767818
0.50531584 0.34719715 1.2071712 4280360210
0.50090373 0.34723279 1.2072663 4279965452
0.50751096 0.34499457 1.2074337 4281478691
0.50309885 0.34503022 1.2075288 4280952346
0.49868673 0.34506586 1.2076238 4280294416
0.50529391 0.34282768 1.2077912 4282136620
0.50307691 0.34066078 1.2081488 4282728757
0.36703175 0.34853166 1.2031857 4280097542
0.36921465 0.34634137 1.2034467 4280360972
0.36482704 0.34637681 1.2035413 4280952852
0.37139755 0.34415105 1.2037077 4281413660
0.36700994 0.34418651 1.2038022 4281215768
0.36262238 0.34422195 1.2038968 4282268456
0.36919284 0.34199619 1.2040633 4281545248
0.36698812 0.33984134 1.2044189 4281873698
0.088174291 0.035646133 0.85391283 4289833123
0.089653194 0.034162223 0.85408968 4283253821
0.086680636 0.034186229 0.85415369 4290162345
0.091132075 0.032678314 0.85426652 4281806375
0.088159516 0.032702327 0.85433054 4287596160
0.085186981 0.03272634 0.85439456 4290096296
0.089638419 0.031218432 0.85450739 4282069033
0.088144735 0.029758535 0.85474825 4285951077
0.44751614 0.3450394 1.1994804 4279243780
0.44969493 0.34285328 1.1997409 4279309574
0.44531572 0.34288862 1.1998353 4279046403
0.45187366 0.34066716 1.2000015 4282270258
0.44749439 0.3407025 1.2000958 4281217569
0.44311523 0.34073788 1.2001901 4280625432
0.44967318 0.33851641 1.2003562 4282928187
0.44747263 0.33636567 1.2007111 4282928441
0.53183377 0.33289737 1.1661279 4283585097
0.53395414 0.33076981 1.1663814 4282400822
0.52969229 0.33080426 1.1664733 4283584326
0.53607446 0.32864228 1.1666349 4281479720
0.53181261 0.3286767 1.1667267 4282006064
0.52755076 0.32871112 1.1668186 4283518787
0.53393292 0.32654917 1.1669803 4280427031
0.53179139 0.32445598 1.1673256 4280426516
0.48751718 0.34114644 1.194124 4279702792
0.48968709 0.33896911 1.1943834 4280360722
0.48532557 0.33900437 1.1944773 4279702792
0.49185699 0.33679184 1.1946429 4282005547
0.48749548 0.33682707 1.1947368 4281018652
0.48313397 0.3368623 1.1948308 4280164113
0.48966539 0.33464977 1.1949964 4282203182
0.48747379 0.3325077 1.1953497 4281940268
0.52559632 0.32931212 1.1613005 4283518787
0.52770704 0.32719421 1.1615529 4282860857
0.5234645 0.32722846 1.1616442 4282992443
0.5298177 0.32507634 1.1618053 4280887326
0.52557522 0.32511061 1.1618967 4282071341
0.52133274 0.32514486 1.161988 4283321151
0.52768594 0.32299268 1.1621491 4280623895
0.52555418 0.32090908 1.1624929 4280689175
0.51961523 0.32756749 1.1627961 4283913031
0.52172792 0.32544765 1.1630489 4283321151
0.51748151 0.32548195 1.1631403 4283847238
0.52384061 0.32332775 1.1633015 4281413154
0.51959413 0.32336202 1.1633929 4283123515
0.51534772 0.32339635 1.1634845 4283978824
0.52170682 0.32124218 1.1636455 4281018140
0.51957303 0.31915668 1.1639897 4281347105
0.35907263 0.32515416 1.1609349 4281611041
0.361175 0.32304457 1.1611863 4282268971
0.35694921 0.32307869 1.1612774 4282466350
0.36327738 0.32093504 1.1614377 4283453245
0.35905159 0.32096919 1.1615288 4284242761
0.35482585 0.32100332 1.1616199 4283124024
0.36115402 0.31885967 1.1617802 4284440140
0.3590306 0.31678429 1.1621226 4284242761
0.57212049 0.33464417 1.203449 4280624933
0.57430857 0.33244869 1.2037106 4279834901
0.56991053 0.33248422 1.2038053 4280690463
0.5764966 0.33025315 1.2039722 4279966481
0.57209861 0.33028868 1.204067 4282598201
0.56770056 0.3303242 1.2041618 4285887851
0.5742867 0.3280932 1.2043287 4283321922
0.57207674 0.32593319 1.204685 4283585094
0.56870556 0.32551101 1.1790979 4279506194
0.57084841 0.32336095 1.1793542 4279506189
0.56654137 0.32339573 1.1794469 4279966481
0.57299119 0.32121086 1.1796104 4283256644
0.56868416 0.32124564 1.1797031 4282203700
0.56437719 0.32128045 1.179796 4283321922
0.57082701 0.31909558 1.1799594 4289046171
0.56866276 0.31698027 1.1803083 4283716680
0.53620231 0.32562324 1.1792656 4280162831
0.53834414 0.32347414 1.1795217 4281610277
0.53403908 0.32350895 1.1796144 4280952347
0.54048598 0.32132503 1.1797779 4282728758
0.53618091 0.32135984 1.1798706 4281676070
0.53187585 0.32139459 1.1799634 4281873449
0.53832275 0.31921074 1.1801267 4283057723
0.53615946 0.31709638 1.1804756 4283386688
0.3369807 0.42863011 1.1606138 4284370997
0.33910745 0.42649612 1.1608682 4284765756
0.33483273 0.42653066 1.1609602 4285292099
0.34123421 0.42436218 1.1611224 4284173618
0.33695945 0.42439672 1.1612146 4285489478
0.3326847 0.42443123 1.1613066 4287068510
0.3390862 0.42226267 1.1614689 4282068242
0.3369382 0.42016324 1.1618153 4281410312
0.21737094 0.30896917 1.1254674 4293046174
0.21940118 0.30693203 1.1257102 4292257944
0.21532041 0.30696502 1.1257981 4292389787
0.2214314 0.30489489 1.125953 4285877564
0.21735065 0.30492786 1.1260408 4289891193
0.21326984 0.30496082 1.1261288 4289365105
0.21938089 0.30289072 1.1262836 4286734414
0.21733037 0.30088648 1.1266143 4287327836
0.14476547 0.16404964 0.93986571 4282728758
0.14642993 0.16237952 0.94006479 4285097048
0.14308432 0.16240653 0.94013685 4279175939
0.14809442 0.16070938 0.94026381 4285162840
0.14474882 0.16073641 0.94033587 4280623383
0.1414032 0.16076343 0.94040793 4280228883
0.1464133 0.15906622 0.94053489 4283715652
0.14473218 0.15742311 0.94080603 4278979072
-0.26852942 0.26560661 0.98675066 4281677097
-0.26677352 0.26384476 0.98696065 4280558616
-0.27030277 0.26387328 0.98703665 4281150753
-0.26501763 0.26208296 0.98717058 4283979852
-0.26854694 0.26211146 0.98724663 4284506196
-0.27207619 0.26213998 0.98732263 4285690470
-0.26679105 0.26034966 0.98745656 4291282875
-0.26856452 0.25861636 0.98774254 4284703575
0.56369931 0.31890848 1.1954538 4282663478
0.56586903 0.31673136 1.1957132 4282860857
0.56150788 0.31676659 1.1958071 4282729271
0.56803876 0.31455427 1.1959726 4282992443
0.56367761 0.3145895 1.1960666 4283518787
0.5593164 0.31462473 1.1961606 4283716166
0.56584734 0.31241238 1.196326 4285492576
0.56365591 0.31027052 1.1966794 4284242509
0.57217807 0.31506041 1.189599 4281676839
0.57433695 0.31289431 1.1898571 4282137131
0.56999773 0.31292936 1.1899506 4282663478
0.57649571 0.31072813 1.1901153 4284768594
0.57215649 0.31076321 1.1902088 4285689954
0.56781733 0.31079826 1.1903023 4285229405
0.57431537 0.30859706 1.1904669 4287202936
0.57213491 0.30646595 1.1908185 4284110410
0.40328437 -0.20948443 1.0807157 4283835928
0.40511388 -0.2113201 1.0809344 4285020202
0.40143657 -0.21129039 1.0810136 4283244049
0.40694338 -0.21315587 1.0811532 4285349167
0.40326607 -0.21312615 1.0812323 4284296479
0.39958876 -0.21309647 1.0813116 4283244306
0.40509558 -0.21496195 1.0814512 4285480753
0.40324777 -0.21676788 1.0817491 4284954409
0.58859539 0.31785408 1.2084099 4280623889
0.59078866 0.31565335 1.2086722 4283189560
0.58638024 0.31568897 1.2087672 4284110663
0.59298199 0.31345263 1.2089344 4288649863
0.58857352 0.31348825 1.2090294 4288847758
0.58416498 0.31352386 1.2091244 4287860865
0.59076673 0.31128749 1.2092917 4288912781
0.58855158 0.30912238 1.209649 4283057206
-0.27973521 0.26531121 1.0127013 4284440403
-0.27793419 0.26350409 1.0129166 4280492823
-0.28155422 0.26353332 1.0129945 4281150753
-0.27613312 0.26169696 1.013132 4281940269
-0.27975315 0.2617262 1.0132099 4282992957
-0.28337318 0.26175544 1.0132879 4284045645
-0.27795213 0.25991908 1.0134252 4282927164
-0.27977115 0.25814116 1.0137186 4283979852
0.59278172 0.31617293 1.2191859 4288847758
0.59499371 0.31395343 1.2194505 4288912781
0.59054762 0.31398934 1.2195462 4286545005
0.5972057 0.31173393 1.2197149 4284899408
0.59275961 0.31176981 1.2198107 4283057206
0.58831346 0.31180575 1.2199064 4282268205
0.5949716 0.30955026 1.2200752 4280951829
0.5927375 0.30736664 1.2204355 4281872932
0.58094525 0.299472 1.1811273 4280557070
0.5830856 0.29732436 1.1813833 4281741342
0.57878345 0.29735911 1.1814759 4281543965
0.585226 0.29517671 1.1816392 4282662186
0.58092386 0.29521146 1.1817318 4282399528
0.57662177 0.29524621 1.1818246 4282399275
0.5830642 0.29306385 1.1819878 4283188786
0.58090246 0.29095095 1.1823364 4283122738
-0.2583167 0.24419338 0.99530023 4281151528
-0.25655073 0.24242136 0.99551141 4280888357
-0.26010031 0.24245004 0.99558789 4281085734
-0.25478476 0.2406494 0.99572259 4280690978
-0.25833434 0.24067807 0.99579906 4280756771
-0.26188391 0.24070676 0.99587554 4280954148
-0.25656837 0.23890612 0.99601024 4280033305
-0.25835198 0.23716283 0.99629784 4279704597
0.035645582 0.035479702 0.84161186 4290755001
0.037100665 0.034019671 0.84178591 4283649357
0.034175955 0.03404329 0.84184891 4290689208
0.038555749 0.032559641 0.84195989 4286543993
0.035631038 0.032583266 0.8420229 4287794059
0.032706268 0.032606892 0.8420859 4289833899
0.037086122 0.031123243 0.84219688 4283253829
0.035616495 0.029686823 0.84243387 4287661960
-0.31244481 0.22554553 0.99244469 4280625961
-0.31069064 0.22378546 0.99265444 4281415733
-0.31421649 0.22381395 0.99273044 4280823340
-0.30893654 0.22202539 0.99286419 4282402372
-0.31246233 0.22205387 0.99294019 4281876028
-0.31598812 0.22208235 0.99301612 4281152048
-0.31070817 0.22029379 0.99314994 4283126097
-0.31247985 0.21856213 0.99343562 4281941823
0.34783763 0.22394638 1.01044 4283649082
0.34964937 0.22212845 1.0106566 4283978047
0.34600776 0.22215787 1.0107352 4283649082
0.35146117 0.22031048 1.0108733 4285754201
0.34781951 0.22033989 1.0109518 4284635721
0.3441779 0.22036931 1.0110302 4285030479
0.34963131 0.21852198 1.0111684 4285951324
0.34780145 0.21673349 1.0114635 4286017117
-0.32343572 0.21968251 0.99026316 4280690727
-0.32168734 0.21792814 0.9904722 4280954157
-0.32520157 0.21795653 0.99054796 4280756520
-0.31993896 0.21617383 0.99068129 4282796103
-0.32345319 0.2162022 0.99075699 4282006587
-0.32696748 0.2162306 0.99083269 4281743415
-0.32170486 0.2144479 0.99096608 4283190860
-0.32347065 0.21272197 0.99125081 4283125066
0.33760649 0.21612272 0.99198085 4285030222
0.33938342 0.21433976 0.99219334 4285424980
0.33581185 0.21436861 0.99227023 4284438085
0.34116036 0.21255681 0.99240577 4285885531
0.33758873 0.21258566 0.99248272 4285030222
0.33401716 0.21261451 0.99255967 4283648569
0.33936566 0.21080273 0.99269521 4285885531
0.33757097 0.20904863 0.99298465 4286411875
-0.28978586 0.21194533 0.97209638 4283060304
-0.28807008 0.21022367 0.97230154 4282533959
-0.29151881 0.21025154 0.97237587 4283520855
-0.28635424 0.20850204 0.9725067 4281941821
-0.28980303 0.20852989 0.97258103 4282336579
-0.29325181 0.20855775 0.9726553 4282665546
-0.28808719 0.20680827 0.97278619 4281547061
-0.28982019 0.20511448 0.97306567 4281086511
0.37040114 0.21248505 1.0008751 4283056432
0.37219411 0.210686 1.0010896 4284043327
0.36859024 0.2107151 1.0011672 4282924846
0.37398714 0.20888694 1.0013039 4285161808
0.37038326 0.20891604 1.0013815 4284109120
0.36677939 0.20894516 1.0014592 4282859053
0.37217617 0.20711699 1.001596 4285359187
0.37036532 0.205347 1.001888 4285753945
-0.31839901 0.21215925 1.0496217 4280032790
-0.31654781 0.21030179 1.0498431 4280296216
-0.32026869 0.21033183 1.0499232 4282730298
-0.31469661 0.2084443 1.0500644 4285362277
-0.31841749 0.20847437 1.0501446 4288585875
-0.32213837 0.20850441 1.0502248 4290625458
-0.31656629 0.20661689 1.0503659 4290625200
-0.31843603 0.20478942 1.0506674 4288585615
0.32366282 0.20408179 1.0038266 4283714362
0.32545704 0.2022815 1.0040412 4283780155
0.32185069 0.20231064 1.0041189 4284240706
0.32725123 0.20048121 1.0042558 4283911741
0.32364488 0.20051034 1.0043334 4284306499
0.32003856 0.20053947 1.0044111 4284701257
0.3254391 0.19871005 1.004548 4284503878
0.32362697 0.19693889 1.0048403 4285161808
0.21442126 0.11509183 0.90415394 4285490005
0.21601346 0.11349424 0.90434432 4285489749
0.21281317 0.11352009 0.90441328 4285358419
0.21760565 0.11189665 0.9045347 4282068256
0.21440534 0.1119225 0.90460366 4282002463
0.21120508 0.11194836 0.90467256 4281936670
0.21599755 0.11032486 0.90479404 4280291845
0.21438943 0.10875311 0.90505338 4280818189
-0.29937756 0.26945856 1.0072713 4285098846
-0.29758579 0.26766077 1.0074855 4292796627
-0.30118716 0.26768985 1.0075631 4292928213
-0.29579413 0.26586297 1.0076998 4287993737
-0.29939544 0.26589206 1.0077775 4285098845
-0.30299675 0.26592115 1.0078549 4282401592
-0.29760373 0.26409429 1.0079917 4280230164
-0.29941332 0.26232561 1.0082835 4282401333
-0.24005844 0.41938302 1.1303861 4279704857
-0.23801021 0.41732785 1.1306311 4279639064
-0.24212708 0.41736111 1.1307198 4279704857
-0.23596202 0.41527274 1.1308759 4280691752
-0.24007888 0.415306 1.1309646 4280494373
-0.24419568 0.4153392 1.1310533 4281020717
-0.23803069 0.41325083 1.1312096 4283060300
-0.24009936 0.41122892 1.1315432 4283652437
0.28974932 0.1802005 0.96484208 4284240706
0.29146758 0.17847639 0.96504754 4284701257
0.28801388 0.1785043 0.96512198 4284569671
0.29318589 0.1767523 0.965253 4285030222
0.28973216 0.17678019 0.96532744 4285227601
0.28627843 0.17680809 0.96540183 4285096015
0.29145041 0.17505604 0.9655329 4285359187
0.28971499 0.17335984 0.96581274 4285819738
0.23537302 0.11504821 0.90465444 4284898638
0.23696694 0.11344891 0.90484506 4285095760
0.23376322 0.11347479 0.90491408 4285161553
0.23856083 0.11184961 0.90503561 4282068769
0.23535709 0.11187549 0.90510464 4282331941
0.2321534 0.11190137 0.90517366 4282266148
0.23695101 0.11027613 0.90529525 4280028930
0.23534116 0.1087027 0.90555483 4280818189
-0.094633102 0.036836989 0.85135233 4280163090
-0.093165725 0.035364635 0.85152781 4279110145
-0.096115112 0.035388462 0.85159135 4279504901
-0.091698304 0.033892281 0.85170329 4282530865
-0.094647765 0.033916108 0.85176682 4283254587
-0.097597152 0.033939935 0.85183036 4283517759
-0.093180388 0.032443754 0.8519423 4287662717
-0.094662428 0.03099522 0.85218132 4288056961
0.32157236 0.44258341 1.1796118 4284567863
0.32373542 0.44041303 1.1798704 4283120417
0.31938767 0.44044814 1.1799641 4284765242
0.32589847 0.43824264 1.1801291 4284239152
0.32155073 0.43827775 1.1802227 4286081102
0.31720299 0.43831286 1.1803164 4285686344
0.32371378 0.43610731 1.1804814 4287462755
0.32152909 0.43397203 1.1808337 4285423172
0.12353022 0.1689229 0.95687419 4281150503
0.12522501 0.16722235 0.95707685 4281874226
0.12181847 0.16724987 0.95715028 4279900436
0.12691978 0.16552182 0.95727956 4281610795
0.12351328 0.16554932 0.95735294 4280492573
0.12010676 0.16557685 0.95742631 4280097815
0.12520806 0.16384879 0.95755559 4281742640
0.12349635 0.1621757 0.95783162 4280032022
-0.019698367 -0.20542192 1.0425923 4292926411
-0.017951846 -0.20717433 1.0428011 4294900715
-0.021462336 -0.20714596 1.0428767 4294900458
-0.016205326 -0.20892683 1.04301 4287136370
-0.019715816 -0.20889848 1.0430856 4287991679
-0.023226306 -0.20887011 1.0431612 4288583815
-0.01796931 -0.21065089 1.0432944 4278583296
-0.019733265 -0.21237504 1.0435789 4279109890
-0.3379522 0.41949853 1.11395 4280363048
-0.33593684 0.41747627 1.1141911 4280362791
-0.3399877 0.41750899 1.1142783 4279837474
-0.33392143 0.41545406 1.114432 4279902240
-0.33797234 0.41548678 1.1145192 4279376666
-0.34202319 0.41551951 1.1146065 4279311130
-0.33595699 0.41346455 1.1147603 4281876798
-0.33799249 0.41147506 1.1150886 4286811273
0.14743578 0.15687777 0.89998704 4286741614
0.14902839 0.15527976 0.90017748 4286807148
0.14582723 0.15530561 0.90024644 4285425755
0.15062098 0.15368174 0.90036798 4287136112
0.14741987 0.15370761 0.90043688 4285228375
0.14421873 0.15373346 0.90050584 4284570961
0.14901248 0.15210953 0.90062737 4285688925
0.14740396 0.15053739 0.90088677 4284438859
0.12470414 0.42827401 1.1365548 4281084194
0.12677997 0.42619106 1.136803 4280558364
0.12260757 0.42622474 1.1368929 4281478950
0.12885579 0.42410824 1.1370512 4280558105
0.1246834 0.42414191 1.1371411 4280821277
0.12051097 0.42417565 1.137231 4282268466
0.12675923 0.42205903 1.1373893 4280624413
0.12466265 0.42000982 1.1377275 4280492057
-0.0318124 0.44329318 1.1584232 4278518272
-0.029700592 0.44117424 1.1586758 4278978821
-0.033945397 0.44120851 1.1587672 4279439369
-0.02758877 0.43905523 1.1589283 4279768594
-0.0318335 0.43908951 1.1590197 4279965973
-0.036078319 0.43912378 1.1591111 4280032022
-0.029721692 0.4369705 1.1592722 4280426781
-0.031854615 0.43488577 1.1596162 4279966489
0.10967533 0.031229936 0.89888567 4285226322
0.11123313 0.029666841 0.89907193 4282331430
0.10810194 0.029692136 0.89913934 4285292115
0.11279092 0.028103709 0.8992582 4282265378
0.10965976 0.028129004 0.89932567 4283580982
0.10652858 0.028154291 0.89939308 4285817943
0.11121756 0.026565909 0.89951193 4282659879
0.10964419 0.025028117 0.89976567 4283252016
-0.014481388 -0.20555517 1.0429331 4292992204
-0.012734033 -0.20730832 1.0431421 4294703336
-0.016246147 -0.20727995 1.0432177 4294834665
-0.010986738 -0.20906159 1.0433509 4286281061
-0.014498852 -0.20903325 1.0434266 4286873198
-0.018010907 -0.20900488 1.0435023 4287596921
-0.012751497 -0.21078643 1.0436356 4278583296
-0.014516316 -0.21251133 1.0439202 4279372802
0.12502266 0.15956105 0.95272154 4281216296
0.12670787 0.15787013 0.95292306 4282005297
0.12332063 0.15789749 0.95299602 4280097815
0.12839308 0.1561792 0.95312452 4281807917
0.12500583 0.15620656 0.95319754 4280953124
0.12161856 0.15623392 0.95327049 4280097815
0.12669101 0.15451564 0.953399 4282202675
0.12498899 0.15285207 0.95367348 4280492316
-0.2180822 0.43575206 1.122762 4282137908
-0.21604244 0.43370536 1.1230059 4282137909
-0.22014235 0.43373847 1.1230942 4282335288
-0.21400274 0.43165872 1.1232498 4280427806
-0.21810262 0.43169186 1.1233381 4280230427
-0.22220246 0.43172497 1.1234264 4280230427
-0.21606283 0.42964515 1.123582 4280164378
-0.218123 0.42763162 1.1239142 4280098586
0.019972965 0.023867555 0.83847809 4288912281
0.021419019 0.022416592 0.83865106 4290030762
0.018512473 0.022440068 0.83871365 4288583316
0.022865057 0.020965636 0.83882397 4290491313
0.019958511 0.020989113 0.83888656 4289241246
0.017051972 0.021012589 0.8389492 4288912281
0.021404564 0.019538149 0.83905947 4289767590
0.019944064 0.01811067 0.83929503 4288846488
0.12628089 0.15408847 0.94066262 4282268468
0.12794358 0.15242015 0.9408614 4281873710
0.12460162 0.15244715 0.94093341 4280755745
0.12960623 0.15075184 0.94106025 4280952610
0.12626427 0.15077884 0.94113219 4281018403
0.12292235 0.15080585 0.94120419 4280492059
0.12792696 0.14911048 0.94133103 4281018660
0.12624766 0.14746918 0.94160187 4280755231
0.37236506 0.14359616 0.8945033 4283583288
0.37395364 0.14200215 0.89469326 4283451701
0.3707605 0.14202794 0.89476204 4283385651
0.37554228 0.14040808 0.89488322 4282727979
0.37234914 0.14043388 0.894952 4283188271
0.36915606 0.14045967 0.89502078 4283188271
0.37393773 0.13883987 0.89514196 4282332962
0.37233329 0.13727164 0.8954007 4282332962
0.37178373 0.14427198 0.90840256 4283254323
0.37339693 0.14265323 0.9085955 4283188271
0.37015438 0.14267942 0.90866536 4283188273
0.37501019 0.14103451 0.90878838 4283056685
0.37176758 0.14106071 0.90885824 4283385652
