# .PCD v0.7 - Point Cloud Data file format
VERSION 0.7
FIELDS x y z rgb
SIZE 4 4 4 4
TYPE F F F U
COUNT 1 1 1 1
WIDTH 1061
HEIGHT 1
VIEWPOINT 0 0 0 1 0 0 0
POINTS 1061
DATA ascii
0.079574555 -0.10050732 1.1596541 4285884503
0.075428508 -0.10050791 1.1596497 4283055404
0.071282469 -0.10050849 1.1596453 4282068771
0.077501826 -0.10258067 1.1596524 4285687124
0.075429089 -0.10465395 1.1596506 4282660646
-0.10164984 -0.11147604 1.1233956 4286347117
-0.099641047 -0.11348427 1.1233981 4290228392
-0.10365813 -0.11348483 1.1233938 4281610277
-0.097632185 -0.11549257 1.1234007 4287004535
-0.10164928 -0.11549313 1.1233964 4287728514
-0.10566636 -0.11549369 1.1233921 4285097305
-0.099640481 -0.11750136 1.1233989 4290425771
-0.10164871 -0.11951023 1.1233972 4286478703
-0.10019315 -0.090086669 1.1073062 4292201925
-0.098213121 -0.092066146 1.1073087 4287596672
-0.1021727 -0.092066705 1.1073046 4283320125
-0.096233025 -0.094045691 1.1073114 4286609777
-0.1001926 -0.094046243 1.1073071 4291741630
-0.10415218 -0.094046801 1.1073029 4278780673
-0.098212563 -0.096025728 1.1073097 4288780946
-0.10019204 -0.098005824 1.1073079 4290425771
-0.073981434 -0.089513168 1.1003032 4287596161
-0.072013907 -0.091480084 1.1003057 4286740852
-0.075948343 -0.091480635 1.1003015 4288451470
-0.07004644 -0.093447059 1.1003082 4287267196
-0.073980883 -0.093447611 1.100304 4287859333
-0.077915326 -0.093448162 1.1002998 4288319884
-0.072013356 -0.095414519 1.1003065 4286740852
-0.073980331 -0.097382054 1.1003048 4287727747
-0.20502633 0.42044231 1.386976 4278979074
-0.20254591 0.41796255 1.3869792 4280492313
-0.20750616 0.41796184 1.3869739 4280426520
-0.20006539 0.41548273 1.3869823 4292598220
-0.20502564 0.41548204 1.3869771 4292071877
-0.20998591 0.41548136 1.3869718 4292137670
-0.20254521 0.41300228 1.3869802 4293650908
-0.20502494 0.41052181 1.3869781 4290821807
-0.13434194 0.41660941 1.3743817 4278847234
-0.13188416 0.41415229 1.3743849 4281412633
-0.13679911 0.41415161 1.3743796 4281017621
-0.1294263 0.41169512 1.374388 4292663236
-0.13434125 0.41169444 1.3743827 4292663238
-0.13925619 0.41169375 1.3743775 4292728774
-0.13188347 0.40923733 1.3743858 4291676341
-0.13434057 0.4067795 1.3743838 4289768087
-0.15720463 -0.15109116 1.1044964 4285819983
-0.15522948 -0.15306579 1.1044989 4283780657
-0.15917918 -0.15306634 1.1044947 4294769366
-0.15325437 -0.15504031 1.1045014 4284964935
-0.15720408 -0.15504086 1.1044972 4288189041
-0.16115378 -0.15504143 1.104493 4294967249
-0.15522891 -0.15701549 1.1044997 4283846450
-0.15720353 -0.15899058 1.104498 4287925871
-0.12588196 0.19929954 1.2883265 4284963134
-0.12357813 0.19699629 1.2883294 4284765756
-0.12818521 0.19699565 1.2883245 4285028928
-0.12127423 0.19469312 1.2883323 4285292100
-0.12588131 0.19469246 1.2883275 4285160514
-0.13048841 0.19469182 1.2883226 4285884237
-0.12357748 0.19238921 1.2883304 4290029457
-0.12588066 0.19008537 1.2883284 4286345053
-0.14236085 0.54434073 1.3804333 4284239926
-0.13989212 0.54187274 1.3804364 4283911476
-0.14482884 0.54187202 1.3804312 4283845430
-0.13742346 0.53940475 1.3804395 4283187757
-0.14236015 0.53940403 1.3804343 4283253551
-0.14729688 0.53940338 1.380429 4283187759
-0.13989142 0.53693604 1.3804375 4281346069
-0.14235947 0.53446734 1.3804353 4281082644
-0.21544515 0.35844642 1.4064623 4279045898
-0.2129298 0.35593182 1.4064655 4279506704
-0.21795972 0.3559311 1.4064602 4279440911
-0.21041453 0.35341722 1.4064687 4280691236
-0.21544443 0.3534165 1.4064634 4280559650
-0.22047435 0.35341579 1.406458 4280296478
-0.2129291 0.3509019 1.4064666 4281481011
-0.21544373 0.34838659 1.4064645 4281020460
-0.10649825 -0.19294295 1.1542225 4284505169
-0.1044343 -0.19500625 1.1542251 4282662965
-0.10856155 -0.19500683 1.1542207 4284241996
-0.10237041 -0.19706963 1.1542277 4282926139
-0.10649767 -0.19707021 1.1542233 4283781446
-0.11062492 -0.19707079 1.1542189 4284373582
-0.10443372 -0.1991335 1.1542259 4281873449
-0.10649709 -0.20119748 1.1542242 4284307790
-0.16719298 0.55047667 1.4023262 4283911222
-0.16468512 0.54796946 1.4023294 4283253551
-0.16970022 0.54796875 1.4023241 4283385394
-0.16217719 0.54546231 1.4023327 4281345814
-0.16719227 0.5454616 1.4023273 4281477656
-0.17220736 0.54546088 1.4023221 4281411862
-0.16468441 0.54295439 1.4023305 4280951058
-0.16719157 0.54044646 1.4023284 4280622353
-0.16033402 0.41636375 1.3655057 4280031757
-0.15789197 0.4139224 1.3655088 4278913026
-0.16277529 0.41392171 1.3655035 4278847232
-0.15545002 0.41148111 1.3655119 4280755220
-0.16033334 0.41148043 1.3655068 4280755221
-0.16521664 0.41147974 1.3655015 4281281565
-0.15789129 0.40903908 1.3655099 4292729545
-0.16033265 0.40659711 1.3655077 4292728775
-0.15055509 0.41633117 1.3654048 4279965707
-0.14811325 0.41389003 1.3654079 4278913025
-0.15299617 0.41388935 1.3654028 4278847232
-0.14567149 0.41144896 1.365411 4280557840
-0.1505544 0.41144827 1.3654059 4280689427
-0.15543732 0.41144758 1.3654007 4280755220
-0.14811257 0.40900713 1.365409 4292926667
-0.15055372 0.40656534 1.365407 4292334017
-0.1405521 0.41563219 1.36312 4280557843
-0.13811438 0.41319516 1.3631231 4278913027
-0.14298907 0.41319448 1.3631178 4279110403
-0.13567671 0.41075817 1.3631262 4281017621
-0.14055142 0.41075748 1.3631209 4280689426
-0.14542612 0.4107568 1.3631158 4280557840
-0.13811369 0.40832046 1.363124 4292728774
-0.14055073 0.40588278 1.363122 4292202431
-0.12937173 0.41888782 1.3737973 4280096775
-0.12691501 0.41643173 1.3738004 4278780928
-0.13182785 0.41643104 1.3737952 4278912257
-0.12445819 0.41397566 1.3738035 4281609499
-0.12937103 0.41397497 1.3737983 4281741598
-0.13428387 0.41397429 1.3737931 4281149207
-0.12691431 0.41151887 1.3738015 4292794822
-0.12937035 0.40906212 1.3737993 4291413169
-0.090029985 -0.1907403 1.1289551 4290031014
-0.088011302 -0.19275849 1.1289577 4289175706
-0.092048168 -0.19275905 1.1289535 4291215287
-0.08599256 -0.19477661 1.1289604 4288780948
-0.090029418 -0.19477718 1.128956 4289899428
-0.094066285 -0.19477774 1.1289517 4291939780
-0.088010736 -0.19679536 1.1289586 4289636257
-0.090028852 -0.19881403 1.1289569 4290359978
-0.16076861 0.41605636 1.3486884 4280623895
-0.15835671 0.41364509 1.3486915 4280492308
-0.1631799 0.4136444 1.3486863 4280623894
-0.15594475 0.41123381 1.3486946 4280360465
-0.16076794 0.41123316 1.3486894 4280031756
-0.16559112 0.41123247 1.3486843 4279899914
-0.15835604 0.40882188 1.3486925 4278847233
-0.16076726 0.40640995 1.3486905 4281084186
-0.11822104 0.410685 1.3313133 4281017621
-0.11584021 0.4083049 1.3313164 4280491275
-0.12060111 0.40830424 1.3313112 4280622863
-0.11345946 0.4059248 1.3313193 4279306753
-0.11822037 0.40592411 1.3313143 4280557068
-0.12298127 0.40592346 1.3313092 4280096775
-0.11583955 0.40354398 1.3313173 4278912000
-0.1182197 0.40116319 1.3313153 4282004256
-0.15701962 -0.13953216 1.0761937 4284897832
-0.15509506 -0.14145619 1.0761962 4284174639
-0.15894358 -0.14145672 1.076192 4290161521
-0.15317056 -0.14338015 1.0761986 4283977780
-0.15701908 -0.14338069 1.0761945 4289306989
-0.1608676 -0.14338122 1.0761905 4294966980
-0.15509452 -0.14530471 1.0761969 4288254316
-0.15701854 -0.14722921 1.0761954 4294967247
-0.092946097 -0.19259179 1.1399291 4291281080
-0.090907723 -0.19462958 1.1399317 4289899428
-0.094983824 -0.19463015 1.1399273 4291939780
-0.088869423 -0.19666731 1.1399342 4289175706
-0.092945524 -0.19666788 1.1399299 4291149494
-0.097021624 -0.19666846 1.1399256 4293058261
-0.090907156 -0.19870569 1.1399325 4290359978
-0.09294495 -0.20074399 1.1399307 4291017908
-0.11209005 0.51668465 1.3725667 4280030226
-0.10963544 0.51423073 1.3725698 4279569414
-0.1145439 0.51423007 1.3725646 4279175171
-0.10718092 0.51177686 1.3725729 4280030217
-0.11208937 0.51177621 1.3725678 4279701514
-0.11699782 0.51177549 1.3725625 4280030476
-0.10963475 0.50932223 1.3725709 4285293651
-0.11208867 0.50686771 1.3725687 4287202164
-0.15120324 0.49995923 1.32813 4279767822
-0.14882801 0.4975847 1.3281331 4279833614
-0.15357774 0.49758402 1.328128 4279965200
-0.14645286 0.49521014 1.3281361 4279504903
-0.15120257 0.49520949 1.3281311 4279373316
-0.1559523 0.4952088 1.328126 4279439109
-0.14882734 0.49283496 1.3281341 4283255102
-0.15120192 0.49045977 1.328132 4287795073
-0.211171 0.44804695 1.4114112 4279703823
-0.20864679 0.44552347 1.4114144 4284045907
-0.21369445 0.44552276 1.411409 4281808945
-0.20612264 0.44300002 1.4114176 4283519305
-0.2111703 0.4429993 1.4114122 4283190340
-0.21621795 0.44299859 1.4114069 4280887585
-0.20864607 0.44047582 1.4114155 4279834897
-0.21116959 0.43795162 1.4114133 4280558620
-0.088538617 -0.019280754 1.13535 4280623390
-0.086508363 -0.021310428 1.1353526 4278386688
-0.090568215 -0.021310998 1.1353483 4278386688
-0.084478192 -0.023340033 1.1353552 4281412907
-0.088538043 -0.023340603 1.1353509 4281215786
-0.092597894 -0.023341173 1.1353467 4279899925
-0.086507797 -0.025370279 1.1353534 4291413442
-0.088537477 -0.027400455 1.1353518 4294900984
-0.11885475 0.52845663 1.4241041 4284701778
-0.11630806 0.52591062 1.4241073 4287202164
-0.12140081 0.5259099 1.4241019 4287531130
-0.11376128 0.5233646 1.4241105 4285556820
-0.11885404 0.52336389 1.4241052 4285359961
-0.12394679 0.52336317 1.4240998 4285491547
-0.11630735 0.52081788 1.4241084 4284833099
-0.11885332 0.51827115 1.4241062 4287201906
-0.14874381 0.44996116 1.3711586 4279900947
-0.14629176 0.44750977 1.3711617 4280032533
-0.15119527 0.44750908 1.3711565 4279703568
-0.14383961 0.44505838 1.3711648 4280164119
-0.14874312 0.44505766 1.3711596 4282072116
-0.15364665 0.44505697 1.3711544 4281085221
-0.14629108 0.44260624 1.3711627 4281743151
-0.14874244 0.44015414 1.3711606 4281414186
-0.14376827 0.51483399 1.3941087 4287795072
-0.14127509 0.5123415 1.3941118 4285952098
-0.14626068 0.51234078 1.3941065 4286084453
-0.13878198 0.50984907 1.394115 4286610025
-0.14376757 0.50984836 1.3941097 4286545002
-0.14875317 0.50984764 1.3941044 4286676588
-0.14127439 0.50735593 1.3941128 4289439124
-0.14376687 0.50486279 1.3941107 4283584325
-0.19287239 0.44259509 1.371099 4280427547
-0.19042036 0.44014373 1.3711021 4281217060
-0.19532381 0.44014305 1.3710968 4282533181
-0.18796825 0.43769231 1.3711052 4280295959
-0.1928717 0.43769163 1.3711001 4280493595
-0.19777517 0.43769094 1.3710948 4280755748
-0.19041967 0.4352403 1.3711032 4279900947
-0.19287102 0.43278822 1.371101 4283782736
-0.13990702 0.5139761 1.4053937 4286610025
-0.13739367 0.51146352 1.4053969 4289110161
-0.14241958 0.51146281 1.4053916 4289439124
-0.13488041 0.50895089 1.4054002 4283780935
-0.13990632 0.50895017 1.4053948 4284044619
-0.14493224 0.50894946 1.4053894 4283584325
-0.13739297 0.5064376 1.405398 4278912513
-0.1399056 0.50392425 1.4053959 4279570954
-0.1986455 0.45510009 1.394372 4281283117
-0.19615175 0.4526071 1.3943752 4279440655
-0.20113845 0.45260638 1.39437 4279770392
-0.1936581 0.4501141 1.3943784 4280361496
-0.1986448 0.45011339 1.3943731 4280625185
-0.20363151 0.4501127 1.3943678 4280362265
-0.19615105 0.44762039 1.3943763 4282006577
-0.1986441 0.44512668 1.3943741 4280230427
-0.15191014 0.49333876 1.3556077 4289571481
-0.14948587 0.49091515 1.3556108 4283650119
-0.15433383 0.49091446 1.3556057 4283781706
-0.1470615 0.48849151 1.3556139 4278584064
-0.15190946 0.48849082 1.3556088 4278452736
-0.15675743 0.48849016 1.3556036 4278387456
-0.14948519 0.48606718 1.3556118 4279373576
-0.15190877 0.48364285 1.3556098 4279703311
-0.15802322 0.49731478 1.3665235 4289571737
-0.1555794 0.49487162 1.3665267 4283781706
-0.16046642 0.49487093 1.3665215 4284176463
-0.15313552 0.49242845 1.3665298 4278452736
-0.15802254 0.49242777 1.3665246 4278387456
-0.16290955 0.49242708 1.3665195 4278321664
-0.15557872 0.4899846 1.3665277 4279045382
-0.15802185 0.48754075 1.3665257 4279834897
-0.16821592 0.50591224 1.3901296 4289769116
-0.16572981 0.50342691 1.3901328 4284110670
-0.17070125 0.50342619 1.3901275 4284439887
-0.16324377 0.50094151 1.390136 4278321664
-0.16821522 0.5009408 1.3901306 4278387456
-0.17318667 0.50094014 1.3901254 4278452736
-0.16572911 0.49845546 1.3901339 4279111174
-0.16821451 0.49596938 1.3901317 4279769361
-0.098504893 -0.076897949 1.0886798 4288846226
-0.096558154 -0.07884413 1.0886823 4286280299
-0.10045114 -0.078844681 1.0886781 4290556842
-0.094611354 -0.080790378 1.0886847 4287135608
-0.098504342 -0.080790929 1.0886806 4289701534
-0.10239732 -0.080791473 1.0886765 4287201654
-0.09655761 -0.082737118 1.088683 4286148713
-0.098503798 -0.084683917 1.0886815 4290556843
-0.12883869 -0.029831896 1.1507562 4279241221
-0.1267809 -0.031889182 1.1507589 4283780675
-0.13089597 -0.031889759 1.1507545 4283320379
-0.12472303 -0.033946395 1.1507615 4287662718
-0.12883811 -0.033946972 1.1507571 4287531131
-0.13295318 -0.033947553 1.1507528 4287465335
-0.12678032 -0.036004256 1.1507597 4288452230
-0.12883753 -0.038062047 1.150758 4289504659
-0.14113286 -0.029822981 1.1503279 4279372290
-0.13907582 -0.031879526 1.1503305 4283056947
-0.1431894 -0.031880103 1.1503263 4282793520
-0.1370187 -0.033935998 1.1503332 4287399284
-0.14113228 -0.033936575 1.1503289 4287332977
-0.14524586 -0.033937152 1.1503245 4287267699
-0.13907523 -0.035993118 1.1503315 4288912520
-0.14113171 -0.038050167 1.1503297 4290557087
-0.13340224 -0.029931827 1.1546254 4279241219
-0.13133754 -0.03199603 1.154628 4283320379
-0.13546647 -0.031996612 1.1546237 4283319865
-0.12927274 -0.034060173 1.1546308 4287531131
-0.13340166 -0.03406075 1.1546264 4287465335
-0.1375306 -0.034061331 1.154622 4287399284
-0.13133696 -0.03612496 1.154629 4288452484
-0.13340108 -0.038189679 1.1546272 4289767830
-0.023129137 -0.1604446 1.1148968 4284307022
-0.021135679 -0.16243754 1.1148993 4282925371
-0.025122041 -0.16243811 1.1148951 4284964953
-0.019142212 -0.16443041 1.1149019 4279964686
-0.023128578 -0.16443098 1.1148976 4283517506
-0.027114948 -0.16443153 1.1148934 4285425505
-0.02113512 -0.1664239 1.1149002 4281346339
-0.02312802 -0.16841735 1.1148984 4282859576
-0.013026346 -0.1133831 1.1030254 4279898893
-0.011054107 -0.11535475 1.1030279 4279306756
-0.014998029 -0.11535531 1.1030238 4282267441
-0.0090818703 -0.11732648 1.1030306 4280030479
-0.013025791 -0.11732703 1.1030263 4279767307
-0.016969712 -0.11732759 1.1030221 4285293919
-0.011053554 -0.11929868 1.1030288 4279372549
-0.013025238 -0.12127095 1.1030271 4279767307
-0.018419933 -0.068086803 1.0727122 4288648595
-0.016501864 -0.070004299 1.0727147 4287266942
-0.020337462 -0.070004843 1.0727106 4289701283
-0.014583797 -0.071921863 1.0727171 4287003770
-0.018419394 -0.071922407 1.072713 4288451216
-0.022254992 -0.071922943 1.072709 4290753972
-0.016501328 -0.073839903 1.0727155 4287266942
-0.018418856 -0.07575801 1.0727139 4287464834
-0.020412331 -0.07025779 1.0766045 4289701283
-0.018487301 -0.072182313 1.076607 4288451216
-0.02233682 -0.072182849 1.0766029 4290753972
-0.01656227 -0.074106768 1.0766095 4287266942
-0.020411791 -0.074107312 1.0766053 4289372318
-0.024261311 -0.074107856 1.0766013 4291214523
-0.018486761 -0.076031834 1.0766078 4287464834
-0.020411251 -0.077956833 1.0766062 4288583315
-0.039556894 -0.20480905 1.1287181 4285293665
-0.037538707 -0.20682664 1.1287206 4284438356
-0.041574515 -0.20682721 1.1287163 4286872697
-0.035520516 -0.20884429 1.1287233 4283583559
-0.039556328 -0.20884486 1.128719 4285886314
-0.04359214 -0.20884542 1.1287147 4286412658
-0.037538141 -0.21086246 1.1287215 4283912780
-0.039555762 -0.21288067 1.1287198 4284768089
-0.048888505 -0.060155526 1.0679588 4287267196
-0.046978876 -0.062064592 1.0679613 4285885543
-0.050797597 -0.062065128 1.0679573 4288188298
-0.045069244 -0.06397371 1.0679637 4284635476
-0.048887968 -0.063974246 1.0679597 4286411887
-0.052706692 -0.063974783 1.0679556 4288319884
-0.04697834 -0.065883309 1.0679622 4284240718
-0.048887432 -0.067792974 1.0679605 4284898648
0.045104824 -0.12587668 1.1267985 4285753955
0.04711945 -0.12789078 1.1268011 4286411885
0.043090764 -0.12789135 1.1267968 4281148445
0.049134076 -0.12990481 1.1268038 4286740850
0.04510539 -0.12990537 1.1267995 4284635474
0.041076705 -0.12990594 1.1267952 4281148445
0.047120016 -0.13191946 1.126802 4285820261
0.045105956 -0.13393407 1.1268003 4282267439
-0.036496546 -0.057856992 1.096992 4288517264
-0.034535032 -0.059817925 1.0969945 4290096041
-0.038457513 -0.059818476 1.0969903 4285622371
-0.032573517 -0.061778922 1.096997 4290096041
-0.036495995 -0.061779473 1.0969929 4287267197
-0.04041848 -0.061780024 1.0969887 4284898648
-0.034534484 -0.063740402 1.0969954 4289832869
-0.036495447 -0.065701947 1.0969937 4287003768
-0.018515296 -0.083862461 1.0783079 4287596420
-0.016587231 -0.085789956 1.0783103 4287596420
-0.020442823 -0.0857905 1.0783062 4289438624
-0.014659164 -0.087717518 1.0783128 4285622630
-0.018514756 -0.087718055 1.0783086 4288385936
-0.02237035 -0.087718599 1.0783045 4289043353
-0.016586691 -0.089645557 1.0783111 4286609525
-0.018514216 -0.091573648 1.0783094 4287662213
0.053902809 -0.0091686826 1.1429213 4279175944
0.055946287 -0.011211555 1.142924 4278518272
0.051859904 -0.011212129 1.1429197 4278452480
0.057989765 -0.013254494 1.1429266 4281018407
0.053903382 -0.013255069 1.1429223 4281347372
0.049817 -0.013255643 1.1429179 4281281322
0.05594686 -0.015297941 1.1429248 4291742149
0.053903956 -0.017341454 1.1429231 4292729043
-0.038411554 -0.055829272 1.0956726 4285622371
-0.03645239 -0.057787914 1.0956751 4288517264
-0.040370166 -0.057788465 1.0956709 4283648581
-0.03449323 -0.059746496 1.0956776 4290096041
-0.038411003 -0.059747044 1.0956734 4285622371
-0.042328771 -0.059747595 1.0956693 4283319616
-0.036451839 -0.06170569 1.0956759 4287267197
-0.038410451 -0.063664816 1.0956743 4286017129
-0.091685183 0.38103914 1.3614764 4290623141
-0.089250483 0.37860519 1.3614795 4292004795
-0.094119109 0.3786045 1.3614744 4292136381
-0.086815864 0.3761712 1.3614826 4285030742
-0.091684498 0.37617052 1.3614775 4285162584
-0.096553117 0.37616983 1.3614722 4285360220
-0.089249797 0.37373656 1.3614806 4278452224
-0.091683812 0.37130189 1.3614784 4278913542
-0.0567999 -0.068120681 1.0731224 4287925126
-0.054881025 -0.070038982 1.0731248 4287135610
-0.058718204 -0.070039526 1.0731207 4288254091
-0.05296215 -0.071957357 1.0731273 4285819750
-0.05679936 -0.071957894 1.0731232 4287332989
-0.060636569 -0.071958438 1.0731192 4287859333
-0.054880485 -0.073876195 1.0731256 4286017129
-0.056798823 -0.075795107 1.0731241 4285622371
0.057285398 -0.026302846 1.0903281 4288385673
0.059234828 -0.028251704 1.0903306 4288912272
0.055336505 -0.028252253 1.0903265 4287267707
0.061184268 -0.030200625 1.0903331 4287135861
0.057285946 -0.030201172 1.0903289 4287530364
0.05338762 -0.030201722 1.0903249 4286938742
0.059235375 -0.03215003 1.0903314 4288517514
0.05728649 -0.034099497 1.0903298 4286740848
-0.079396442 -0.20349254 1.1213771 4287596674
-0.077391274 -0.20549707 1.1213796 4286807160
-0.081400998 -0.20549762 1.1213753 4288517776
-0.075386167 -0.20750169 1.1213822 4287399295
-0.079395883 -0.20750226 1.1213779 4288188811
-0.083405599 -0.20750281 1.1213737 4289044118
-0.077390708 -0.20950679 1.1213804 4287333502
-0.079395317 -0.21151197 1.1213788 4288057225
-0.049848352 -0.21577379 1.1333061 4288451983
-0.047821943 -0.21779966 1.1333088 4285228126
-0.051874191 -0.21780023 1.1333045 4288846741
-0.045795538 -0.21982546 1.1333114 4284504917
-0.049847782 -0.21982603 1.1333071 4285293919
-0.053900026 -0.21982659 1.1333027 4287794053
-0.047821373 -0.2218519 1.1333096 4284109645
-0.049847215 -0.22387828 1.1333079 4284175438
-0.038405757 -0.053862017 1.0955003 4284964441
-0.036446903 -0.05582029 1.0955029 4288188299
-0.040364061 -0.055820841 1.0954987 4284109132
-0.034488048 -0.057778627 1.0955054 4290096041
-0.038405206 -0.057779178 1.0955012 4285885543
-0.042322364 -0.057779729 1.095497 4283385409
-0.036446352 -0.059737448 1.0955037 4287661955
-0.038404658 -0.061696336 1.095502 4285753957
-0.020889034 0.17883086 1.2121809 4280489225
-0.018721512 0.17666391 1.2121836 4281608479
-0.023055945 0.17666329 1.2121791 4281542428
-0.016553992 0.17449704 1.2121865 4280424208
-0.020888425 0.17449643 1.2121818 4280292879
-0.025222857 0.17449582 1.2121772 4281213722
-0.018720904 0.17232947 1.2121845 4279635208
-0.020887818 0.17016199 1.2121828 4279898639
-0.064906582 0.37199906 1.3124555 4288188537
-0.06255962 0.36965275 1.3124585 4288517763
-0.067252882 0.36965209 1.3124535 4288320384
-0.060212664 0.3673065 1.3124615 4289899418
-0.064905927 0.36730582 1.3124565 4290031004
-0.069599181 0.36730516 1.3124515 4290096797
-0.062558964 0.36495951 1.3124595 4291675830
-0.064905271 0.36261255 1.3124574 4283714625
-0.022880711 -0.14295596 1.1029599 4285688677
-0.020908583 -0.14492756 1.1029624 4283649094
-0.024852283 -0.14492811 1.1029582 4286675572
-0.018936455 -0.1468991 1.1029649 4282399027
-0.022880157 -0.14689967 1.1029607 4284307024
-0.02682386 -0.14690022 1.1029565 4287136123
-0.02090803 -0.14887127 1.1029632 4282925371
-0.022879604 -0.15084337 1.1029615 4284833368
-0.075011864 -0.17255196 1.1157576 4286872697
-0.07301674 -0.17454654 1.1157601 4285162080
-0.077006377 -0.17454711 1.1157559 4287530627
-0.071021676 -0.17654105 1.1157626 4285951596
-0.075011306 -0.1765416 1.1157584 4286609525
-0.079000942 -0.17654216 1.1157541 4287201662
-0.073016174 -0.17853616 1.1157609 4285491045
-0.075010747 -0.18053123 1.1157593 4286741111
-0.039355267 -0.081269711 1.1224934 4287530114
-0.037348162 -0.083276294 1.122496 4289043353
-0.041361813 -0.083276853 1.1224917 4287266942
-0.035341054 -0.085282803 1.1224985 4289438111
-0.039354704 -0.085283361 1.1224943 4288911767
-0.043368351 -0.085283928 1.12249 4287332735
-0.037347596 -0.087289944 1.1224968 4289635490
-0.039354142 -0.089297011 1.1224952 4289503904
0.046271555 -0.23252252 1.2102109 4280951577
0.048435271 -0.23468558 1.2102138 4280622612
0.04410845 -0.2346862 1.2102091 4280622612
0.050598986 -0.23684873 1.2102165 4280951577
0.046272162 -0.23684934 1.2102119 4280030475
0.041945342 -0.23684993 1.2102073 4280754198
0.048435878 -0.23901241 1.2102146 4282530609
0.04627277 -0.24117616 1.2102128 4287925890
0.19381164 0.34481329 1.1868391 4288181557
0.19593351 0.34269202 1.1868418 4286274336
0.19169036 0.34269142 1.1868373 4286603289
0.19805537 0.34057075 1.1868445 4287657530
0.19381224 0.34057015 1.1868399 4289499472
0.18956909 0.34056956 1.1868355 4290947667
0.1959341 0.33844888 1.1868427 4291869055
0.19381283 0.33632702 1.1868409 4293252240
-0.017103324 -0.14011754 1.1117626 4282070062
-0.015115468 -0.14210488 1.1117651 4279635721
-0.019090623 -0.14210545 1.1117609 4283451715
-0.013127612 -0.14409216 1.1117676 4279372549
-0.017102767 -0.14409271 1.1117635 4280885788
-0.021077922 -0.14409328 1.1117592 4284438610
-0.015114909 -0.14608003 1.111766 4279701514
-0.017102208 -0.14806786 1.1117643 4280425237
0.0026728411 -0.048899248 1.0725849 4290359467
0.0045906487 -0.050816488 1.0725874 4287990919
0.00075557153 -0.050817028 1.0725833 4292727761
0.0065084561 -0.05273379 1.0725898 4286938231
0.0026733794 -0.052734327 1.0725857 4290556846
-0.0011616979 -0.052734867 1.0725816 4285885289
0.0045911865 -0.054651566 1.0725882 4288188298
0.0026739172 -0.056569405 1.0725865 4288846228
-0.022466296 -0.11327367 1.0830443 4287398782
-0.020529766 -0.11520968 1.0830467 4286346607
-0.024402283 -0.11521023 1.0830426 4288188298
-0.018593233 -0.11714564 1.0830492 4285228126
-0.022465752 -0.11714619 1.0830451 4286609266
-0.026338272 -0.11714673 1.083041 4288056712
-0.020529222 -0.1190822 1.0830475 4284767575
-0.022465209 -0.12101871 1.083046 4286280301
-0.022730125 -0.13026538 1.0957102 4284635989
-0.020770954 -0.13222404 1.0957127 4284372817
-0.024688743 -0.13222459 1.0957085 4287399295
-0.018811783 -0.13418262 1.0957152 4284701782
-0.022729576 -0.13418317 1.095711 4286017642
-0.026647367 -0.13418372 1.0957068 4287794053
-0.020770404 -0.13614184 1.0957135 4286149228
-0.022729026 -0.13810097 1.0957118 4286872951
-0.072965257 -0.24899948 1.1463383 4287530881
-0.07091549 -0.25104859 1.146341 4286280814
-0.07501439 -0.25104919 1.1463367 4287530881
-0.068865791 -0.2530978 1.1463436 4285886056
-0.072964683 -0.25309837 1.1463393 4287530881
-0.07706359 -0.25309893 1.1463349 4288583569
-0.070914917 -0.25514749 1.1463419 4286346607
-0.072964109 -0.25719726 1.1463401 4287728260
0.050900102 -0.12125647 1.121327 4284503888
0.052904937 -0.12326077 1.1213295 4281872168
0.048895832 -0.12326134 1.1213254 4287004022
0.054909769 -0.12526502 1.1213322 4280687892
0.050900664 -0.12526558 1.1213279 4284372302
0.046891559 -0.12526613 1.1213236 4286411885
0.0529055 -0.12726989 1.1213304 4281740582
0.050901227 -0.1292747 1.1213287 4284240716
-0.015058612 -0.014829249 1.1063527 4278649859
-0.013080385 -0.016806955 1.1063552 4281281064
-0.017036285 -0.016807511 1.106351 4287465605
-0.011102158 -0.018784596 1.1063577 4293715940
-0.015058057 -0.018785151 1.1063535 4291544771
-0.019013956 -0.018785708 1.1063493 4291413185
-0.01307983 -0.020762857 1.106356 4294572020
-0.015057502 -0.022741051 1.1063544 4292202444
-0.03483554 -0.14148194 1.1068373 4290228394
-0.032856457 -0.14346044 1.1068398 4288188811
-0.036814068 -0.14346099 1.1068356 4290425773
-0.030877374 -0.145439 1.1068423 4287530881
-0.034834985 -0.14543955 1.1068381 4289307292
-0.038792592 -0.14544012 1.1068339 4290228394
-0.032855902 -0.14741805 1.1068406 4287991432
-0.03483443 -0.14939715 1.1068389 4289109913
-0.034341618 -0.043881897 1.0908289 4287990665
-0.03239112 -0.045831878 1.0908314 4289701283
-0.036291566 -0.045832425 1.0908272 4287398528
-0.030440623 -0.047781799 1.0908339 4290227627
-0.034341071 -0.047782347 1.0908297 4288977560
-0.038241521 -0.047782894 1.0908257 4284898394
-0.032390572 -0.049732331 1.0908322 4291148729
-0.034340523 -0.0516828 1.0908306 4290359213
-0.059065595 -0.074310482 1.0794497 4287398782
-0.057135437 -0.076240167 1.079452 4285622371
-0.06099527 -0.076240711 1.079448 4288780435
-0.055205245 -0.078169778 1.0794545 4285359199
-0.059065051 -0.078170322 1.0794505 4286675059
-0.062924884 -0.078170866 1.0794463 4288188298
-0.057134897 -0.080100007 1.0794529 4285030234
-0.059064511 -0.082030162 1.0794513 4285688164
-0.034437813 -0.014666603 1.0937234 4278518016
-0.032482125 -0.01662177 1.0937258 4278386688
-0.036392946 -0.01662232 1.0937217 4280426269
-0.030526444 -0.018576873 1.0937283 4283584075
-0.034437265 -0.018577425 1.0937241 4286807932
-0.038348082 -0.018577974 1.0937201 4292926681
-0.032481577 -0.020532593 1.0937266 4294242283
-0.034436714 -0.022488248 1.093725 4293782246
0.037919674 -0.022481743 1.0939829 4289965225
0.039875675 -0.024437236 1.0939854 4289701796
0.03596421 -0.024437785 1.0939813 4288385936
0.041831687 -0.026392661 1.0939879 4288978327
0.037920222 -0.026393211 1.0939838 4288583570
0.034008753 -0.02639376 1.0939796 4287596420
0.039876226 -0.02834864 1.0939863 4288583569
0.037920769 -0.03030468 1.0939846 4288320397
-0.071577191 -0.19543865 1.1568516 4285491044
-0.069508679 -0.19750667 1.1568543 4287530627
-0.073645197 -0.19750725 1.1568499 4285227872
-0.067440093 -0.1995746 1.1568569 4288912280
-0.07157661 -0.19957519 1.1568525 4286741111
-0.075713135 -0.19957577 1.1568481 4285425251
-0.069508098 -0.2016432 1.1568551 4288320143
-0.071576029 -0.2037117 1.1568533 4287530627
-0.062493388 -0.07955654 1.0720824 4287398782
-0.06057639 -0.081473 1.0720848 4286609266
-0.064409904 -0.081473537 1.0720807 4287596161
-0.058659341 -0.083389513 1.0720873 4285819750
-0.062492851 -0.08339005 1.0720831 4286806645
-0.066326357 -0.083390586 1.0720791 4288254091
-0.060575854 -0.085306503 1.0720856 4286806645
-0.062492307 -0.08722356 1.072084 4287201403
-0.034252308 -0.2299871 1.1538497 4282202162
-0.032189205 -0.23204958 1.1538523 4280952095
-0.036314826 -0.23205017 1.1538479 4282399541
-0.030126104 -0.23411214 1.153855 4280754716
-0.034251727 -0.23411272 1.1538506 4281741611
-0.038377348 -0.23411329 1.1538463 4282860092
-0.032188624 -0.23617521 1.1538532 4280754716
-0.03425115 -0.23823835 1.1538515 4281412646
-0.012974898 -0.10311382 1.0986472 4282333234
-0.011010486 -0.10507772 1.0986497 4278912000
-0.014938761 -0.10507827 1.0986456 4284635989
-0.0090460721 -0.10704155 1.0986524 4280556823
-0.012974347 -0.1070421 1.0986481 4280359444
-0.016902622 -0.10704266 1.0986439 4284899161
-0.011009934 -0.109006 1.0986506 4279306756
-0.012973796 -0.11097038 1.0986489 4279569928
-0.058026034 -0.22416475 1.1347458 4287596674
-0.05599704 -0.22619322 1.1347485 4285359712
-0.060054462 -0.22619379 1.1347442 4287465088
-0.053968046 -0.22822161 1.1347511 4284175438
-0.058025468 -0.22822218 1.1347468 4286149228
-0.062082846 -0.22822274 1.1347424 4288123018
-0.055996474 -0.23025064 1.1347493 4285162333
-0.058024894 -0.2322796 1.1347476 4284964954
-0.014673004 -0.085867271 1.0792911 4286872697
-0.012743187 -0.087796576 1.0792936 4284372563
-0.01660228 -0.08779712 1.0792896 4287267455
-0.01081337 -0.089725822 1.0792961 4279964432
-0.014672462 -0.089726366 1.0792919 4285556837
-0.018531553 -0.08972691 1.0792879 4287925385
-0.012742646 -0.091655672 1.0792944 4284504149
-0.014671921 -0.093585461 1.0792928 4286477939
0.042945147 -0.11541693 1.1230049 4288254089
0.044953 -0.11742418 1.1230075 4288056710
0.04093786 -0.11742475 1.1230032 4284109130
0.046960849 -0.1194315 1.12301 4287201401
0.042945713 -0.11943207 1.1230059 4285490783
0.038930576 -0.11943264 1.1230016 4281016859
0.044953562 -0.12143932 1.1230084 4288583054
0.042946275 -0.12344722 1.1230067 4282464305
0.022712462 -0.19227697 1.1146495 4288780946
0.024705386 -0.19426936 1.114652 4283123261
0.0207201 -0.19426991 1.1146477 4287201914
0.026698306 -0.19626169 1.1146545 4281741865
0.02271302 -0.19626226 1.1146504 4286807156
0.018727738 -0.19626281 1.1146461 4287070328
0.024705946 -0.19825464 1.1146529 4286149483
0.022713581 -0.20024754 1.1146512 4286017640
-0.016089661 -0.2696878 1.1833035 4279044353
-0.013973949 -0.2718029 1.1833062 4282070319
-0.018204778 -0.27180347 1.1833017 4280952091
-0.011858238 -0.27391806 1.1833088 4291939008
-0.016089067 -0.27391863 1.1833044 4281148956
-0.020319898 -0.27391922 1.1832999 4283056953
-0.013973355 -0.27603373 1.1833071 4286741361
-0.016088475 -0.27814946 1.1833053 4288188807
0.022128364 -0.04952782 1.086544 4287004024
0.02407109 -0.051469974 1.0865465 4285819750
0.02018618 -0.051470518 1.0865424 4281937963
0.026013818 -0.053412188 1.086549 4285951336
0.022128908 -0.053412735 1.0865449 4284306511
0.018243996 -0.053413279 1.0865407 4281872170
0.024071636 -0.055354886 1.0865474 4286148715
0.022129454 -0.057297647 1.0865457 4282398514
0.038538054 -0.096371338 1.1116774 4287201401
0.040525664 -0.09835843 1.1116799 4287596159
0.036550995 -0.098358989 1.1116757 4283122492
0.042513281 -0.10034546 1.1116825 4287135607
0.038538612 -0.10034601 1.1116782 4286740850
0.03456394 -0.10034657 1.1116741 4281609509
0.040526222 -0.10233311 1.1116809 4287530366
0.038539167 -0.10432068 1.1116791 4283451200
0.13616747 -0.052267235 1.1475019 4282661684
0.13821894 -0.054318123 1.1475046 4279437828
0.13411655 -0.0543187 1.1475002 4285753953
0.14027044 -0.056369077 1.1475072 4279832333
0.13616803 -0.056369655 1.1475028 4282003753
0.13206561 -0.056370232 1.1474985 4285358937
0.13821952 -0.058420543 1.1475054 4279240450
0.13616861 -0.060472071 1.1475037 4281411360
0.13658176 -0.064769611 1.1509893 4281213981
0.13863949 -0.066826724 1.1509919 4279568902
0.13452464 -0.066827305 1.1509875 4285424730
0.14069723 -0.068883911 1.1509945 4279832076
0.13658234 -0.068884484 1.1509901 4280753173
0.13246749 -0.068885066 1.1509858 4285818718
0.13864008 -0.070941597 1.1509928 4279766281
0.13658293 -0.072999358 1.1509911 4280752659
0.030227093 -0.069707334 1.0985264 4285885543
0.032191224 -0.071670875 1.0985289 4285688164
0.028263517 -0.071671426 1.0985247 4282990651
0.034155346 -0.07363449 1.0985314 4285556576
0.030227644 -0.073635042 1.0985272 4284306511
0.026299939 -0.073635601 1.098523 4281740584
0.032191772 -0.075598583 1.0985297 4285359199
0.030228196 -0.077562742 1.098528 4282991164
0.13645159 0.099746667 1.1500496 4284373583
0.13850768 0.097691096 1.1500522 4286084201
0.13439606 0.097690523 1.1500478 4280886555
0.14056377 0.0956356 1.1500548 4285886821
0.13645215 0.095635027 1.1500504 4283518274
0.13234051 0.095634446 1.1500461 4278649856
0.13850825 0.093579456 1.150053 4286544752
0.13645275 0.091523387 1.1500514 4281083935
0.020586548 -0.18509372 1.1074197 4285951847
0.022566553 -0.18707313 1.1074222 4285886054
0.018607102 -0.18707368 1.1074181 4286412398
0.024546554 -0.1890526 1.1074247 4283846728
0.020587103 -0.18905316 1.1074206 4286609777
0.016627654 -0.18905371 1.1074164 4287465086
0.022567108 -0.19103257 1.1074231 4288780946
0.02058766 -0.19301261 1.1074214 4287201914
0.022052621 -0.051292192 1.0827622 4285556578
0.023988584 -0.053227648 1.0827646 4285951336
0.020117195 -0.053228192 1.0827606 4281148447
0.02592455 -0.055163037 1.0827671 4286543473
0.022053163 -0.055163581 1.082763 4283056444
0.018181775 -0.055164125 1.0827589 4282464307
0.023989128 -0.057099037 1.0827655 4285227613
0.022053707 -0.059034973 1.0827638 4281872170
0.016860068 -0.011045052 1.1248538 4279307532
0.018871315 -0.013055768 1.1248565 4278846981
0.014849386 -0.013056333 1.1248522 4278912774
0.02088256 -0.015066416 1.124859 4278452224
0.016860632 -0.015066981 1.1248547 4278386688
0.012838705 -0.015067547 1.1248504 4278649859
0.018871879 -0.017077697 1.1248573 4281017892
0.016861197 -0.019088911 1.1248555 4292729045
0.15905376 0.072079889 1.1352683 4284898642
0.16108339 0.070050865 1.1352708 4286543211
0.1570247 0.070050292 1.1352665 4285820001
0.163113 0.068021767 1.1352735 4284503628
0.15905432 0.068021201 1.1352692 4284898387
0.15499564 0.068020627 1.1352649 4284372300
0.16108395 0.065992177 1.1352718 4279305984
0.15905489 0.063962519 1.13527 4278977280
0.11412437 0.087628774 1.1529152 4281611054
0.11618564 0.085568041 1.1529179 4281018917
0.11206368 0.085567467 1.1529136 4280887331
0.1182469 0.083507381 1.1529206 4280229401
0.11412495 0.083506808 1.1529162 4281216296
0.11000298 0.083506227 1.1529118 4279834643
0.11618622 0.081446081 1.1529188 4280097815
0.11412553 0.079384848 1.152917 4279703058
0.051529311 -0.0070821601 1.135604 4279505166
0.053559709 -0.0091120256 1.1356066 4279175944
0.049499478 -0.0091125965 1.1356024 4278978822
0.055590112 -0.011141825 1.1356093 4278518272
0.051529881 -0.011142395 1.135605 4278452480
0.047469646 -0.011142966 1.1356006 4278386688
0.053560279 -0.013172261 1.1356075 4281347372
0.051530451 -0.015202631 1.1356058 4292071114
0.00077516725 -0.0070722979 1.132701 4279571731
0.0028004746 -0.0090970714 1.1327035 4278913544
-0.0012495721 -0.0090976413 1.1326993 4278913544
0.004825783 -0.011121778 1.1327062 4279175946
0.00077573548 -0.011122347 1.1327019 4279373325
-0.0032743115 -0.011122916 1.1326976 4278386688
0.0028010432 -0.01314712 1.1327044 4281149736
0.00077630382 -0.015172397 1.1327027 4280294427
0.25953761 0.074141964 1.1674981 4285885533
0.26162469 0.072055519 1.1675007 4283516985
0.25745115 0.07205493 1.1674963 4283451192
0.26371172 0.069969006 1.1675034 4279832324
0.25953817 0.069968425 1.1674989 4280095751
0.25536466 0.069967836 1.1674945 4280292875
0.26162526 0.067881986 1.1675017 4279700738
0.25953877 0.065794893 1.1674999 4280292360
-0.0051976042 -0.12461194 1.1153318 4284504403
-0.0032033839 -0.12660566 1.1153344 4290228394
-0.0071912659 -0.12660623 1.1153301 4280491030
-0.0012091636 -0.12859929 1.1153369 4290425773
-0.0051970449 -0.12859985 1.1153326 4286675572
-0.0091849267 -0.1286004 1.1153284 4280819995
-0.0032028246 -0.13059354 1.1153352 4292136391
-0.0051964852 -0.13258773 1.1153334 4289504671
-0.014078281 -0.28874698 1.1921391 4289175702
-0.011946782 -0.29087785 1.1921419 4290557355
-0.01620918 -0.29087844 1.1921374 4288978323
-0.009815285 -0.29300877 1.1921446 4290425771
-0.014077683 -0.29300937 1.1921401 4290096804
-0.018340077 -0.29300997 1.1921356 4287596670
-0.011946185 -0.29514024 1.1921427 4290359976
-0.014077085 -0.29727179 1.1921409 4290623148
0.13791396 -0.10647152 1.1800139 4281147417
0.14002356 -0.10858056 1.1800166 4279568130
0.13580497 -0.10858115 1.1800121 4284897357
0.14213316 -0.11068953 1.1800194 4280226061
0.13791455 -0.11069012 1.1800148 4280884244
0.13369596 -0.11069071 1.1800103 4286081883
0.14002416 -0.11279917 1.1800175 4279699972
0.13791515 -0.11490873 1.1800157 4280489484
0.040747318 -0.10489119 1.1177826 4286740850
0.04274584 -0.10688918 1.1177851 4287596159
0.03874936 -0.10688974 1.1177809 4282332719
0.044744365 -0.10888711 1.1177877 4286280299
0.040747877 -0.10888767 1.1177834 4286280299
0.036751397 -0.10888823 1.1177793 4280556565
0.042746402 -0.11088566 1.117786 4287332987
0.04074844 -0.11288416 1.1177843 4285753955
0.1966189 0.057345606 1.1655467 4280159237
0.19870257 0.05526254 1.1655494 4279763712
0.19453579 0.055261955 1.165545 4279632640
0.20078626 0.053179406 1.165552 4281339148
0.19661948 0.053178821 1.1655476 4281405451
0.1924527 0.053178232 1.1655432 4281274122
0.19870317 0.051095754 1.1655502 4284493614
0.19662006 0.049012035 1.1655484 4285019701
-0.0052172448 -0.13308826 1.1195545 4289504671
-0.003215478 -0.1350895 1.1195571 4292333770
-0.0072184508 -0.13509007 1.1195529 4282135855
-0.0012137112 -0.13709067 1.1195596 4290952117
-0.0052166833 -0.13709123 1.1195554 4290820531
-0.0092196567 -0.1370918 1.1195512 4280096272
-0.0032149164 -0.13909248 1.119558 4292465356
-0.0052161217 -0.14109421 1.1195563 4291083703
0.019244814 -0.28761286 1.1451962 4287794049
0.02129232 -0.28965983 1.1451988 4285952100
0.017197881 -0.28966042 1.1451944 4288320648
0.023339827 -0.29170674 1.1452014 4284504654
0.01924539 -0.29170731 1.145197 4287202167
0.015150951 -0.29170787 1.1451927 4289175702
0.021292895 -0.29375419 1.1451997 4285886307
0.019245964 -0.29580173 1.1451979 4287202167
0.0028454454 -0.29319537 1.1350696 4289636255
0.0048748753 -0.29522419 1.1350722 4289307290
0.0008165848 -0.29522476 1.1350679 4289636255
0.006904305 -0.29725307 1.1350749 4288715153
0.0028460149 -0.29725364 1.1350706 4289570462
-0.0012122758 -0.29725423 1.1350662 4289833634
0.0048754448 -0.29928249 1.1350731 4289241497
0.0028465844 -0.30131194 1.1350714 4289636255
0.085417807 -0.23958047 1.2131605 4283713843
0.087586723 -0.24174881 1.2131633 4285753680
0.083249509 -0.24174942 1.2131587 4282332191
0.089755639 -0.24391708 1.2131661 4285556043
0.085418418 -0.24391769 1.2131615 4285161289
0.081081204 -0.2439183 1.2131568 4282595364
0.087587327 -0.24608603 1.2131642 4285687886
0.085419022 -0.2482549 1.2131624 4285753426
-0.0095150992 -0.20343158 1.1553752 4289767843
-0.0074493089 -0.20549683 1.155378 4291807426
-0.011580312 -0.20549741 1.1553736 4281148960
-0.0053835171 -0.207562 1.1553806 4290294187
-0.0095145199 -0.20756258 1.1553762 4289504671
-0.013645524 -0.20756316 1.1553718 4280030479
-0.0074487296 -0.20962784 1.1553788 4291544254
-0.0095139407 -0.21169358 1.155377 4290754738
0.21189654 0.074260175 1.1694068 4284504136
0.21398711 0.072170235 1.1694094 4284109122
0.20980658 0.072169647 1.169405 4285030224
0.21607767 0.070080221 1.169412 4281279511
0.21189713 0.070079632 1.1694076 4281476890
0.20771661 0.070079044 1.1694032 4281345304
0.21398769 0.067989692 1.1694102 4279897602
0.21189772 0.065899089 1.1694086 4280357640
-0.0072868709 -0.14846991 1.1300125 4284964954
-0.0052664075 -0.15048976 1.1300151 4292991700
-0.009306767 -0.15049033 1.1300108 4280030479
-0.0032459449 -0.1525097 1.1300176 4292531149
-0.0072863037 -0.15251027 1.1300133 4285293919
-0.011326663 -0.15251084 1.1300091 4279569928
-0.0052658408 -0.15453012 1.130016 4292728528
-0.007285737 -0.15655063 1.1300143 4286083435
-0.0072881887 -0.15052177 1.1302518 4285359712
-0.0052672978 -0.15254213 1.1302544 4293320665
-0.0093085105 -0.1525427 1.13025 4279898893
-0.0032464084 -0.15456241 1.1302569 4292070598
-0.0072876215 -0.15456298 1.1302526 4285557091
-0.011328832 -0.15456355 1.1302483 4279438342
-0.0052667307 -0.15658334 1.1302552 4292333770
-0.0072870543 -0.1586042 1.1302534 4285820263
0.034544058 -0.086390205 1.1110896 4284307022
0.036530636 -0.088376187 1.1110921 4286017127
0.032558043 -0.088376746 1.1110879 4281872683
0.038517211 -0.090362243 1.1110946 4287793538
0.034544617 -0.090362802 1.1110904 4282991162
0.030572023 -0.090363361 1.1110861 4281543718
0.036531191 -0.092348784 1.1110929 4285820005
0.034545172 -0.094335392 1.1110913 4281872681
0.021472793 -0.30657044 1.1549326 4284438861
0.023537695 -0.30863473 1.1549354 4283451966
0.019408472 -0.30863529 1.1549309 4285623135
0.025602601 -0.31069908 1.154938 4283122743
0.021473374 -0.31069967 1.1549336 4285294170
0.017344149 -0.31070024 1.1549292 4286346858
0.023538275 -0.31276396 1.1549362 4284175689
0.021473954 -0.3148289 1.1549344 4284833619
0.021481046 -0.30462846 1.155398 4285162584
0.023546783 -0.30669367 1.1554006 4283780931
0.019415893 -0.30669424 1.1553962 4285030998
0.025612518 -0.30875877 1.1554033 4282530606
0.021481626 -0.30875933 1.1553988 4284636240
0.017350735 -0.30875993 1.1553946 4286149479
0.023547363 -0.31082454 1.1554016 4284044103
0.021482207 -0.31289023 1.1553998 4285096791
0.033579756 -0.30196306 1.1452969 4282530603
0.03562741 -0.30401018 1.1452996 4280491020
0.031532679 -0.30401075 1.1452953 4282464810
0.037675064 -0.30605721 1.1453022 4282595881
0.033580329 -0.30605778 1.1452978 4281543707
0.029485596 -0.30605838 1.1452935 4282530349
0.035627984 -0.30810493 1.1453004 4280162054
0.033580903 -0.31015253 1.1452987 4281872673
0.33119801 0.040566657 1.2242208 4282258966
0.33338633 0.038378906 1.2242236 4282259479
0.32901031 0.038378291 1.224219 4282259992
0.33557469 0.036191236 1.2242264 4281996052
0.33119863 0.036190622 1.2242217 4282128151
0.32682261 0.036190007 1.2242171 4282128920
0.33338696 0.03400287 1.2242246 4281799443
0.33119923 0.031814583 1.2242227 4281799443
0.34368029 0.074299708 1.1698765 4282464816
0.34577143 0.072209172 1.1698792 4280030475
0.34158969 0.072208583 1.1698747 4279701510
0.3478626 0.070118576 1.1698818 4280030475
0.34368089 0.070117988 1.1698774 4279635717
0.33949918 0.070117399 1.1698729 4279503874
0.34577203 0.068027459 1.16988 4280293134
0.34368145 0.065936267 1.1698782 4280292622
0.10385419 -0.00099503156 1.1531714 4279767823
0.1059159 -0.0030561318 1.153174 4280030995
0.10179307 -0.0030567113 1.1531696 4280688924
0.10797761 -0.0051173004 1.1531767 4281149476
0.10385478 -0.0051178797 1.1531723 4281148960
0.099731922 -0.005118459 1.1531678 4281477925
0.10591649 -0.0071789804 1.1531749 4282465077
0.10385536 -0.0092407288 1.1531731 4282333234
0.2119125 0.06023002 1.1811528 4280422152
0.21402404 0.058119021 1.1811554 4280093187
0.20980152 0.058118429 1.181151 4280027394
0.21613561 0.056008089 1.1811582 4279697664
0.21191308 0.056007497 1.1811537 4279829248
0.20769057 0.056006905 1.1811492 4279697920
0.21402463 0.053896498 1.1811564 4281733648
0.21191368 0.05178497 1.1811546 4285349177
0.020621706 -0.20719729 1.1091758 4288188807
0.02260484 -0.20917992 1.1091783 4288715151
0.018639129 -0.20918047 1.109174 4288057221
0.024587976 -0.21116246 1.1091808 4285557087
0.020622263 -0.21116301 1.1091766 4287859842
0.016656552 -0.21116358 1.1091723 4287662463
0.022605397 -0.21314563 1.1091791 4285886052
0.02062282 -0.21512872 1.1091775 4285886052
0.018322138 -0.11991358 1.090721 4281741097
0.020272315 -0.12186318 1.0907234 4280688409
0.016372507 -0.12186372 1.0907193 4284307024
0.022222491 -0.12381284 1.0907259 4281017374
0.018322686 -0.12381338 1.0907217 4281609511
0.01442288 -0.12381393 1.0907177 4285491298
0.02027286 -0.12576298 1.0907242 4280425237
0.018323231 -0.12771319 1.0907226 4281872683
0.14939047 0.074350066 1.1389525 4283714883
0.15142672 0.072314374 1.138955 4283912261
0.14735483 0.0723138 1.1389507 4283715140
0.15346295 0.070278749 1.1389576 4285162073
0.14939106 0.070278175 1.1389533 4284307020
0.14531915 0.070277609 1.1389489 4281347106
0.15142728 0.068242483 1.138956 4284241228
0.14939162 0.066206276 1.1389542 4279701512
0.026631622 -0.17193736 1.1119758 4279965454
0.028619766 -0.17392498 1.1119784 4279833868
0.02464404 -0.17392553 1.1119741 4281478436
0.030607909 -0.17591253 1.1119809 4280426005
0.02663218 -0.1759131 1.1119767 4280162833
0.022656454 -0.17591365 1.1119725 4284767573
0.028620323 -0.1779007 1.1119792 4279833868
0.026632737 -0.17988881 1.1119776 4280886556
0.033603378 -0.27966663 1.1462138 4282727728
0.035652678 -0.28171539 1.1462164 4281346075
0.031554654 -0.28171596 1.146212 4284701518
0.037701983 -0.28376409 1.146219 4283188020
0.033603951 -0.28376466 1.1462146 4283056693
0.029505925 -0.28376526 1.1462102 4284569934
0.035653252 -0.28581342 1.1462172 4280819731
0.033604529 -0.28786269 1.1462154 4282596142
0.03102771 -0.21861154 1.1271805 4281148956
0.033043012 -0.22062631 1.127183 4280688405
0.029012974 -0.22062688 1.1271788 4282530609
0.035058312 -0.22264101 1.1271856 4281017370
0.031028276 -0.22264157 1.1271813 4281609507
0.026998241 -0.22264214 1.127177 4284833364
0.033043578 -0.22465634 1.1271839 4280622868
0.031028843 -0.22667162 1.1271821 4281543969
-0.0012165192 -0.15158063 1.1231233 4291412668
0.00079161359 -0.15358818 1.1231258 4291149496
-0.0032240886 -0.15358874 1.1231216 4292070598
0.0027997463 -0.15559578 1.1231284 4290820530
-0.0012159557 -0.15559635 1.1231241 4290359980
-0.005231658 -0.15559691 1.1231198 4292333770
0.00079217704 -0.15760387 1.1231267 4289702050
-0.0012153923 -0.15961204 1.123125 4289504671
0.022409201 -0.14451118 1.0998788 4280491030
0.024375731 -0.14647712 1.0998813 4281017119
0.02044322 -0.14647767 1.0998771 4282859578
0.026342263 -0.14844312 1.0998838 4280885534
0.022409752 -0.14844368 1.0998796 4281148960
0.018477239 -0.14844424 1.0998755 4285557091
0.024376282 -0.15040962 1.0998821 4280819996
0.022410303 -0.1523762 1.0998805 4282004269
0.017055212 -0.27101615 1.1356816 4288583565
0.019085718 -0.27304608 1.1356841 4287530877
0.015025277 -0.27304664 1.1356798 4289307288
0.021116223 -0.27507603 1.1356868 4285557087
0.017055782 -0.2750766 1.1356825 4288649358
0.012995339 -0.27507719 1.1356782 4289504669
0.019086288 -0.27710652 1.1356851 4287662463
0.017056352 -0.27913705 1.1356833 4288715151
0.022443181 -0.14079763 1.1015952 4280754202
0.024412785 -0.14276665 1.1015977 4280688410
0.020474132 -0.14276721 1.1015934 4281609511
0.026382385 -0.14473574 1.1016002 4281017120
0.022443734 -0.14473629 1.101596 4280491030
0.018505083 -0.14473684 1.1015917 4286149228
0.024413336 -0.14670531 1.1015985 4281017119
0.022444287 -0.14867495 1.1015968 4281148960
0.063767247 -0.21802962 1.2138698 4281543716
0.065937474 -0.22019929 1.2138726 4281938472
0.061597627 -0.2201999 1.2138679 4280688920
0.068107694 -0.22236888 1.2138753 4282333230
0.063767858 -0.22236948 1.2138708 4281477923
0.05942801 -0.22237009 1.2138661 4279768075
0.065938085 -0.22453913 1.2138735 4282070058
0.063768469 -0.22670932 1.2138716 4281280542
0.10655328 -0.00098547235 1.137928 4279636494
0.10858773 -0.0030193226 1.1379306 4279768080
0.1045194 -0.0030198945 1.1379263 4280030995
0.11062219 -0.0050532403 1.1379333 4281346855
0.10655385 -0.0050538117 1.137929 4281149476
0.10248552 -0.0050543835 1.1379246 4281148960
0.1085883 -0.0070876624 1.1379315 4282399285
0.10655443 -0.009122151 1.1379298 4281806890
0.055881184 -0.095439881 1.100944 4284240456
0.057849575 -0.097407751 1.1009465 4281477150
0.05391334 -0.09740831 1.1009424 4285490525
0.059817962 -0.099375561 1.100949 4281411357
0.055881735 -0.09937612 1.1009449 4282661425
0.051945504 -0.099376671 1.1009407 4287332474
0.057850126 -0.10134398 1.1009474 4281082392
0.055882286 -0.10331235 1.1009457 4281411615
0.03107667 -0.22500777 1.1289462 4281675299
0.033095125 -0.22702563 1.1289487 4280491281
0.029058782 -0.22702619 1.1289444 4282399278
0.035113577 -0.22904356 1.1289513 4281346590
0.031077236 -0.22904412 1.128947 4281807141
0.027040895 -0.22904469 1.1289427 4284570447
0.033095691 -0.23106198 1.1289496 4280359695
0.031077802 -0.23308046 1.1289479 4282399278
0.1272427 0.13850024 1.2196026 4279044611
0.12942314 0.13632038 1.2196053 4278912768
0.12506281 0.13631977 1.2196007 4280623643
0.13160364 0.13414048 1.2196081 4280689175
0.12724331 0.13413987 1.2196034 4280294676
0.12288292 0.13413925 1.2195988 4280163092
0.12942375 0.13196 1.2196063 4279175941
0.12724392 0.12977949 1.2196044 4280755227
