# .PCD v0.7 - Point Cloud Data file format
VERSION 0.7
FIELDS x y z rgb
SIZE 4 4 4 4
TYPE F F F U
COUNT 1 1 1 1
WIDTH 1083
HEIGHT 1
VIEWPOINT 0 0 0 1 0 0 0
POINTS 1083
DATA ascii
-0.2470279 -0.15742756 1.3098313 4284763194
-0.25159472 -0.1568545 1.3110609 4283381282
-0.24488986 -0.16002975 1.3097559 4288841332
-0.24731857 -0.16205877 1.3109101 4281604614
0.30058092 -0.22426438 1.1522861 4279241477
0.30270439 -0.22684872 1.1522112 4278649088
0.29816878 -0.22627956 1.1534324 4278715648
0.30482787 -0.22943309 1.1521362 4278846464
0.30029225 -0.22886395 1.1533575 4280491795
0.29575664 -0.22829479 1.1545788 4282202667
0.30241567 -0.23144823 1.1532826 4281413151
0.30000359 -0.2334635 1.154429 4282662962
0.2828669 -0.21248293 1.4815793 4282728759
0.28548253 -0.2156662 1.481487 4282794810
0.27989566 -0.21496513 1.4829913 4282860605
0.2880981 -0.21884957 1.4813949 4279965713
0.28251129 -0.2181485 1.4828992 4280952608
0.27692449 -0.21744743 1.4844034 4281676331
0.28512692 -0.22133178 1.4828069 4278386688
0.28215569 -0.22381407 1.484219 4278518272
-0.3073329 -0.14178124 1.5639067 4287728256
-0.30483371 -0.14482269 1.5638185 4288583310
-0.31017178 -0.14415282 1.5652558 4286807154
-0.30233467 -0.14786428 1.5637304 4287464573
-0.30767265 -0.14719442 1.5651677 4287399291
-0.31301063 -0.14652458 1.566605 4287333498
-0.30517346 -0.15023592 1.5650796 4288583310
-0.3080124 -0.15260765 1.5664287 4287070326
0.34758651 -0.23993099 1.3249573 4282268465
0.34998614 -0.24285147 1.3248726 4282335031
0.34486073 -0.2422083 1.3262526 4280887585
0.35238582 -0.24577194 1.324788 4281479721
0.3472603 -0.24512875 1.3261681 4281019171
0.34213489 -0.24448559 1.327548 4278519040
0.34965992 -0.24804914 1.3260834 4279571725
0.34693408 -0.25032642 1.3273789 4278387456
-0.2575646 -0.16485545 1.4636067 4282070828
-0.25520185 -0.16773105 1.4635234 4283056694
-0.26024848 -0.16709778 1.4648823 4282465586
-0.25283915 -0.17060661 1.4634401 4285621591
-0.25788581 -0.16997331 1.4647989 4284965207
-0.26293245 -0.16934004 1.4661578 4283452738
-0.25552306 -0.17284882 1.4647156 4286411880
-0.25820702 -0.17509109 1.4659911 4286412396
0.3334949 -0.25356439 1.2467268 4281939754
0.3357659 -0.25632834 1.2466466 4281676583
0.33091515 -0.25571963 1.2479528 4280755481
0.33803695 -0.25909221 1.2465665 4281215778
0.33318615 -0.25848353 1.2478727 4280097297
0.32833534 -0.25787482 1.2491788 4278715648
0.33545721 -0.26124749 1.2477926 4279044868
0.33287746 -0.26340267 1.2490185 4278453248
-0.3627595 -0.16198412 1.696952 4287267705
-0.36009112 -0.16523156 1.6968579 4288057221
-0.36579052 -0.16451636 1.6983925 4286609775
-0.3574228 -0.16847906 1.6967638 4287530877
-0.36312225 -0.16776386 1.6982985 4286938740
-0.36882171 -0.16704866 1.699833 4286741361
-0.36045384 -0.1710113 1.6982043 4287728256
-0.36348501 -0.17354366 1.6996448 4286807154
0.36837834 -0.26450464 1.2783223 4281347619
0.370709 -0.26734114 1.2782401 4281347619
0.36573082 -0.26671645 1.2795805 4279966481
0.37303966 -0.27017766 1.2781579 4280821020
0.36806148 -0.26955298 1.2794983 4279703311
0.3630833 -0.26892829 1.2808387 4278519040
0.3703922 -0.27238947 1.2794161 4279176453
0.36774462 -0.27460134 1.2806743 4278584832
-0.38663062 -0.1687361 1.5278325 4285688673
-0.38422996 -0.17165777 1.5277479 4282727988
-0.38935769 -0.17101431 1.5291286 4290228390
-0.38182932 -0.1745795 1.5276631 4283649090
-0.38695699 -0.17393604 1.5290438 4285886052
-0.39208466 -0.17329261 1.5304245 4289767839
-0.38455632 -0.17685771 1.5289592 4282596402
-0.38728335 -0.17913598 1.5302552 4286872947
0.24165297 -0.24824703 1.4542506 4280360987
0.24419749 -0.25134382 1.4541608 4280624159
0.23876256 -0.25066182 1.4556242 4279242506
0.24674195 -0.25444052 1.454071 4280295448
0.24130708 -0.25375852 1.4555345 4279900436
0.23587221 -0.25307652 1.4569979 4278781955
0.2438516 -0.25685531 1.4554447 4279242760
0.24096113 -0.25926998 1.4568183 4278453248
0.33528405 -0.2613259 1.5063881 4281216548
0.33794469 -0.26456395 1.5062943 4279308552
0.33226174 -0.26385081 1.5078244 4281742892
0.34060532 -0.26780209 1.5062004 4278321664
0.33492237 -0.26708895 1.5077306 4280229653
0.32923943 -0.26637581 1.5092608 4281413927
0.33758301 -0.270327 1.5076367 4278255872
0.33456069 -0.272852 1.509073 4278519040
-0.30491576 -0.18248078 1.5997299 4287596414
-0.30237478 -0.18557328 1.5996403 4288451468
-0.30780229 -0.18489221 1.6011018 4286478189
-0.29983369 -0.18866587 1.5995507 4286543471
-0.30526119 -0.18798479 1.6010121 4287333242
-0.31068879 -0.18730369 1.6024735 4286609775
-0.30272022 -0.19107726 1.6009225 4288319882
-0.30560663 -0.19348878 1.6022942 4287004533
-0.20508865 -0.21452674 1.2545099 4286274881
-0.20303369 -0.21702778 1.2544374 4286472260
-0.20742303 -0.21647698 1.2556193 4286144065
-0.20097867 -0.21952873 1.254365 4286274881
-0.20536801 -0.21897793 1.2555468 4285485365
-0.20975736 -0.21842712 1.2567286 4284498727
-0.20331305 -0.221479 1.2554743 4285485108
-0.20564738 -0.22342914 1.2565837 4283774746
-0.20755216 -0.21833201 0.99883711 4288112182
-0.2058848 -0.22036123 0.99877834 4290085709
-0.20944619 -0.21991433 0.99973726 4284034569
-0.20421743 -0.2223905 0.99871957 4289163833
-0.20777883 -0.2219436 0.99967849 4287717424
-0.21134022 -0.2214967 1.0006374 4283575313
-0.20611146 -0.22397283 0.99961972 4289756233
-0.2080055 -0.22555518 1.0005199 4287652145
-0.30009678 -0.20800418 1.6149226 4286741361
-0.297539 -0.21111712 1.6148325 4286149224
-0.30300239 -0.21043152 1.6163036 4287728256
-0.29498112 -0.21423015 1.6147423 4286412398
-0.30044451 -0.21354458 1.6162133 4287267705
-0.30590791 -0.21285897 1.6176844 4286280810
-0.29788673 -0.21665752 1.6161231 4285951846
-0.30079225 -0.21908498 1.617504 4287333498
-0.20305665 -0.22595924 1.311167 4284235553
-0.20091903 -0.22856078 1.3110915 4284300833
-0.20548487 -0.22798783 1.3123209 4285221935
-0.19878149 -0.23116234 1.3110162 4284958763
-0.20334725 -0.23058939 1.3122456 4285353520
-0.20791301 -0.23001644 1.313475 4286800965
-0.20120962 -0.23319086 1.3121701 4286011451
-0.20363784 -0.23521948 1.3133242 4286471486
-0.28455755 -0.2155807 1.5507625 4278780418
-0.28209195 -0.21858141 1.5506756 4279833102
-0.2873584 -0.21792054 1.5520936 4283254336
-0.27962625 -0.22158223 1.5505886 4280359443
-0.28489274 -0.22092137 1.5520066 4281938476
-0.2901592 -0.2202605 1.5534247 4285754470
-0.28242713 -0.2239221 1.5519197 4281477926
-0.28522792 -0.22626209 1.5532508 4286017642
-0.20823523 -0.22916636 1.0013477 4287651632
-0.2065679 -0.23119555 1.0012888 4290019662
-0.21012925 -0.23074865 1.0022477 4283311107
-0.20490056 -0.23322481 1.00123 4288966455
-0.20846191 -0.23277791 1.0021889 4287651376
-0.21202326 -0.23233101 1.0031478 4283181064
-0.20679456 -0.23480709 1.0021302 4289953869
-0.20868857 -0.23638944 1.0030303 4287586098
-0.36158651 -0.21470627 1.7426443 4286741361
-0.35886589 -0.21801752 1.7425483 4287859842
-0.36467713 -0.21728829 1.7441131 4286149224
-0.35614511 -0.22132871 1.7424525 4287201912
-0.36195639 -0.22059947 1.7440171 4286609775
-0.36776766 -0.21987024 1.7455819 4286478189
-0.35923573 -0.22391072 1.7439213 4287465084
-0.36232626 -0.22649264 1.7453901 4286017638
-0.26527542 -0.23104361 1.4934423 4284964952
-0.26289251 -0.2339437 1.4933583 4284767574
-0.26798218 -0.23330501 1.4947287 4284307023
-0.26050967 -0.23684368 1.4932742 4284307024
-0.26559934 -0.23620498 1.4946446 4282135855
-0.27068901 -0.23556629 1.4960151 4279701514
-0.26321644 -0.23910511 1.4945606 4279372549
-0.26592329 -0.24136648 1.4958471 4282135855
-0.28681961 -0.2381551 1.6627545 4284635986
-0.28419355 -0.24135122 1.6626619 4283451713
-0.28980276 -0.24064735 1.6641723 4286017638
-0.28156742 -0.24454725 1.6625693 4284570194
-0.28717664 -0.24384335 1.6640797 4284767572
-0.29278585 -0.24313948 1.6655899 4286017638
-0.28455055 -0.24703947 1.663987 4283583299
-0.28753364 -0.2495316 1.6654047 4284964951
0.14697844 -0.2858893 0.86639041 4279308038
0.14858264 -0.28784162 0.86633384 4281742376
0.1451562 -0.28741166 0.86725646 4278584064
0.15018684 -0.289794 0.86627728 4282136620
0.1467604 -0.28936401 0.8671999 4280031246
0.14333397 -0.28893405 0.86812246 4278583808
0.14836454 -0.29131633 0.86714327 4282070827
0.14654231 -0.29283872 0.86800933 4280360210
0.26487696 -0.3121964 1.2974936 4283057206
0.2671749 -0.31499311 1.2974125 4283320378
0.26226658 -0.31437719 1.2987341 4283583550
0.2694729 -0.31778985 1.2973315 4282267690
0.26456457 -0.31717393 1.298653 4281872932
0.25965625 -0.316558 1.2999747 4281412381
0.26686257 -0.31997061 1.2985719 4278583296
0.26425219 -0.32215142 1.2998126 4279635975
0.24513704 -0.31243804 1.3144394 4283649343
0.2474516 -0.31525505 1.3143578 4282794034
0.24250776 -0.31463465 1.315689 4283780929
0.24976629 -0.31807199 1.3142761 4278846464
0.24482232 -0.3174516 1.3156073 4279767557
0.23987848 -0.3168312 1.3169385 4281609760
0.24713701 -0.32026863 1.3155257 4278649088
0.24450773 -0.32246515 1.3167752 4280096526
0.26910692 -0.3262392 1.3371168 4281543967
0.27146202 -0.32910541 1.3370339 4282333483
0.26643181 -0.32847419 1.3383882 4282136104
0.273817 -0.33197153 1.3369508 4282597425
0.26878685 -0.33134031 1.3383052 4283255355
0.26375663 -0.3307091 1.3396596 4283123769
0.27114183 -0.33420652 1.3382221 4283255355
0.26846665 -0.33644143 1.3394935 4283452734
0.14897835 -0.30214512 0.87777567 4279636487
0.15059537 -0.30411309 0.87771869 4282005289
0.14714158 -0.3036797 0.87864858 4278781184
0.15221232 -0.30608094 0.87766165 4282926390
0.14875853 -0.30564755 0.8785916 4279768072
0.1453048 -0.30521417 0.87952155 4278452224
0.15037555 -0.30761552 0.87853456 4282070826
0.14853871 -0.30914998 0.87940747 4280031243
-0.21358714 -0.28170013 1.35365 4284753164
-0.2114082 -0.28435192 1.3535731 4284621836
-0.21606219 -0.28376791 1.3548262 4285213202
-0.20922934 -0.28700376 1.3534962 4284621837
-0.21388334 -0.28641975 1.3547493 4285278997
-0.21853735 -0.28583571 1.3560024 4286068256
-0.2117044 -0.28907153 1.3546726 4285476378
-0.21417955 -0.29113936 1.3558488 4286068515
-0.25860018 -0.282882 1.5433466 4283584069
-0.25615585 -0.28585681 1.5432605 4283123516
-0.26137671 -0.28520167 1.5446662 4282926139
-0.25371158 -0.28883162 1.5431743 4286150249
-0.25893247 -0.28817648 1.5445801 4284965722
-0.26415336 -0.28752133 1.5459858 4283320897
-0.25648814 -0.29115129 1.5444938 4286939768
-0.25926477 -0.29347095 1.5458134 4287136891
0.031250536 -0.31575593 1.3120292 4278456328
0.033464968 -0.31845105 1.3119512 4293389282
0.028735042 -0.3178575 1.3132248 4278192642
0.03567943 -0.3211461 1.3118731 4294900966
0.030949503 -0.32055256 1.3131467 4280364574
0.026219547 -0.31995901 1.3144202 4278653194
0.033163935 -0.32324767 1.3130686 4288451970
0.03064844 -0.32534915 1.3142641 4279370754
0.27471751 -0.35653338 1.1636251 4278715648
0.27680379 -0.35907248 1.1635516 4278452480
0.27234763 -0.3585133 1.1647515 4281083932
0.27889013 -0.36161157 1.163478 4279176453
0.27443391 -0.36105239 1.1646779 4282137134
0.26997769 -0.36049318 1.1658778 4284110924
0.27652019 -0.36359152 1.1646043 4283452739
0.27415031 -0.36557141 1.1657306 4283847498
0.2806434 -0.36022213 1.1326278 4284045130
0.28268439 -0.36270618 1.1325558 4283781959
0.2783249 -0.36215913 1.1337297 4282663478
0.28472549 -0.36519018 1.1324838 4282860858
0.28036588 -0.36464313 1.1336577 4280821019
0.2760064 -0.36409608 1.1348315 4278979073
0.28240693 -0.36712718 1.1335857 4279241992
0.28008842 -0.36906418 1.1346877 4278321408
0.18297237 -0.3579672 1.2585694 4283386430
0.18516034 -0.3606301 1.2584921 4283123515
0.18048698 -0.36004364 1.2597505 4282926136
0.18734831 -0.36329293 1.258415 4283715652
0.18267488 -0.36270648 1.2596734 4284373582
0.17800158 -0.36212003 1.2609317 4284636755
0.18486291 -0.36536932 1.2595962 4285031512
0.18237746 -0.36744574 1.2607774 4285294684
0.31727821 -0.37517005 1.1488996 4284176204
0.31935531 -0.37769789 1.1488262 4283781446
0.31491882 -0.37714118 1.1500208 4283255104
0.32143235 -0.38022584 1.148753 4282531380
0.31699586 -0.3796691 1.1499476 4281083935
0.31255931 -0.37911239 1.1511421 4279834127
0.3190729 -0.38219696 1.1498743 4279307783
0.31671351 -0.38416815 1.1509956 4278386944
-0.21844028 -0.31454128 1.4041934 4284029450
-0.21619795 -0.31727019 1.4041144 4283701771
-0.22098735 -0.3166692 1.4054039 4285280279
-0.2139557 -0.31999919 1.4040352 4283439111
-0.21874511 -0.31939819 1.4053248 4285148437
-0.22353452 -0.31879717 1.4066144 4286465320
-0.21650279 -0.3221271 1.4052458 4284689172
-0.21904995 -0.32425511 1.4064562 4286268454
0.03470844 -0.36613321 1.6214114 4279899147
0.037374407 -0.36937785 1.6213175 4280493082
0.031680018 -0.36866331 1.6228508 4279635975
0.040040344 -0.37262237 1.6212234 4280823078
0.034346014 -0.37190783 1.6227567 4280163861
0.028651655 -0.37119323 1.62429 4279898632
0.037011981 -0.37515247 1.6226627 4280953891
0.033983588 -0.37768245 1.6241019 4280690718
0.32654947 -0.38764778 1.1161447 4283189050
0.32857734 -0.39011568 1.1160731 4283451965
0.32424599 -0.38957214 1.1172394 4282662965
0.33060515 -0.39258364 1.1160016 4283122999
0.32627386 -0.3920401 1.1171678 4281215520
0.32194251 -0.39149657 1.1183341 4278715393
0.32830161 -0.39450803 1.1170963 4279833354
0.32599813 -0.39643249 1.1181911 4278452224
0.107252 -0.38183594 1.4517839 4279968799
0.10968959 -0.38480267 1.4516979 4280824108
0.10448295 -0.38414931 1.4530998 4279705627
0.11212724 -0.38776931 1.451612 4280034592
0.1069206 -0.38711596 1.4530139 4280560936
0.1017139 -0.38646257 1.4544158 4279968799
0.10935825 -0.39008266 1.4529279 4281218866
0.10658926 -0.39239597 1.4542439 4281021487
0.037051857 -0.37385413 1.4458593 4280824623
0.039451778 -0.37677494 1.4457747 4281548346
0.034325629 -0.37613168 1.4471549 4280824623
0.041851729 -0.3796958 1.44569 4281219381
0.036725581 -0.37905255 1.4470702 4281614139
0.031599402 -0.37840927 1.4484504 4280627244
0.039125532 -0.38197333 1.4469856 4282074690
0.036399305 -0.38425097 1.4482812 4281877311
-0.19427922 -0.33370888 1.3541667 4281927681
-0.1921078 -0.33635163 1.3540902 4281862144
-0.19674596 -0.33576962 1.3553391 4282125313
-0.18993625 -0.33899444 1.3540136 4282059267
-0.19457443 -0.33841243 1.3552625 4282388482
-0.19921263 -0.33783039 1.3565114 4283111689
-0.19240299 -0.34105515 1.3551859 4282980619
-0.19486964 -0.34311602 1.3563582 4283901716
0.35324305 -0.40448537 1.1144401 4283452475
0.35527474 -0.40695801 1.1143683 4283518527
0.3509351 -0.40641347 1.1155368 4282794802
0.35730648 -0.40943074 1.1142968 4283255101
0.35296685 -0.40888616 1.1154653 4281676322
0.34862715 -0.40834159 1.1166338 4278781440
0.35499853 -0.41135889 1.1153935 4279899915
0.35269064 -0.41328701 1.1164904 4278584064
0.27540457 -0.40309379 1.1845578 4278650372
0.27750772 -0.40565342 1.1844836 4278255616
0.27301556 -0.40508971 1.1856933 4281940022
0.27961081 -0.40821293 1.1844095 4278452993
0.27511865 -0.40764925 1.185619 4281479471
0.2706266 -0.40708554 1.1868286 4283255882
0.2772218 -0.41020882 1.1855448 4278190080
0.27483279 -0.41220465 1.1866802 4280822052
0.38614464 -0.42004916 1.1643929 4278584064
0.38826126 -0.42262518 1.1643183 4278584064
0.38374025 -0.42205784 1.1655357 4279176195
0.39037794 -0.42520127 1.1642437 4278452224
0.38585693 -0.42463395 1.1654611 4281149464
0.38133579 -0.4240666 1.1666784 4283255355
0.38797355 -0.42720997 1.1653864 4281610531
0.38556916 -0.42921874 1.1665291 4282926386
-0.052286237 -0.37393555 1.3892918 4279898118
-0.050011426 -0.37670401 1.3892115 4281412644
-0.054870278 -0.37609428 1.3905199 4279634689
-0.047736645 -0.37947258 1.3891313 4281808689
-0.052595496 -0.37886289 1.3904396 4280622099
-0.057454348 -0.37825316 1.391748 4280094727
-0.050320685 -0.38163137 1.3903594 4281939246
-0.052904725 -0.38379022 1.3915875 4281346850
-0.22235431 -0.35120201 1.4183747 4284887836
-0.22010426 -0.3539404 1.4182953 4284887582
-0.2249103 -0.35333729 1.4195893 4283243019
-0.21785417 -0.35667887 1.4182159 4284689433
-0.22266018 -0.35607579 1.41951 4283440143
-0.22746623 -0.35547268 1.420804 4282190596
-0.22041015 -0.35881415 1.4194306 4283571472
-0.22296607 -0.36094955 1.4206454 4282321412
-0.22392438 -0.34730127 1.3467833 4285347613
-0.22178167 -0.34990913 1.3467077 4285347615
-0.22635846 -0.34933481 1.34794 4285018396
-0.2196389 -0.35251689 1.3466321 4285084699
-0.22421569 -0.35194257 1.3478644 4284755225
-0.22879246 -0.35136825 1.3490968 4284097300
-0.22207297 -0.35455039 1.3477889 4284294420
-0.22450697 -0.35658392 1.3489456 4283767567
-0.18252856 -0.36098528 1.3535639 4283441172
-0.18036157 -0.36362267 1.3534875 4282914830
-0.1849902 -0.36304185 1.3547338 4283375377
-0.17819452 -0.36625987 1.3534111 4282388232
-0.18282315 -0.36567906 1.3546573 4282388486
-0.18745178 -0.36509821 1.3559036 4282651654
-0.18065616 -0.36831644 1.354581 4281927939
-0.18311775 -0.37037301 1.3557508 4281796609
0.32535493 -0.42424157 1.0932438 4280492309
0.32733589 -0.42665234 1.093174 4282005546
0.32310468 -0.42612138 1.0943133 4278386688
0.32931685 -0.42906329 1.0931041 4283124029
0.32508564 -0.42853233 1.0942434 4278584064
0.32085443 -0.42800137 1.0953827 4278847236
0.3270666 -0.43094325 1.0941736 4279965712
0.32481629 -0.43282327 1.095243 4278847234
-0.10511452 -0.36970955 1.2721055 4279173120
-0.10303855 -0.37223613 1.2720323 4280027648
-0.10747278 -0.37167969 1.2732263 4280685315
-0.10096255 -0.37476277 1.2719591 4280751367
-0.10539675 -0.37420633 1.2731531 4279830272
-0.10983101 -0.3736499 1.2743469 4283906329
-0.10332078 -0.37673292 1.2730799 4280751622
-0.10567898 -0.37870297 1.2742006 4280685828
0.11890274 -0.39355519 1.1893886 4288519571
0.12094635 -0.39604229 1.1893165 4289572258
0.11658126 -0.39549452 1.1904918 4291019705
0.12298995 -0.3985295 1.1892445 4290164395
0.11862487 -0.39798173 1.1904198 4291282877
0.11425984 -0.39743397 1.1915951 4292664530
0.12066847 -0.40046892 1.1903478 4291085498
0.11834705 -0.40240836 1.191451 4291809222
-0.20686746 -0.33091414 1.0588109 4285150744
-0.20514579 -0.33300948 1.0587503 4289098314
-0.2088232 -0.33254802 1.0597404 4280812032
-0.20342411 -0.33510476 1.0586895 4288505914
-0.20710151 -0.3346433 1.0596796 4284624920
-0.21077892 -0.33418185 1.0606698 4281204992
-0.20537984 -0.33673865 1.0596189 4289229900
-0.20733556 -0.33837259 1.0605484 4284493335
0.045693755 -0.37768355 1.2335442 4280758828
0.047776401 -0.38021821 1.2334709 4281943102
0.043328047 -0.37966001 1.2346686 4281811516
0.049858987 -0.38275281 1.2333974 4281087793
0.045410633 -0.38219461 1.2345952 4281022000
0.040962338 -0.38163641 1.2357929 4281285172
0.047493279 -0.38472924 1.2345217 4280363816
0.045127511 -0.3867057 1.235646 4280495658
-0.31172556 0.47432396 0.70908302 4281679157
-0.31031758 0.47261032 0.70903337 4281218088
-0.31332493 0.47298774 0.70984316 4282469701
-0.30890965 0.47089681 0.70898372 4282006827
-0.31191698 0.47127417 0.70979351 4282008122
-0.3149243 0.47165152 0.71060324 4282535752
-0.310509 0.46956059 0.70974386 4281349417
-0.3121084 0.46822444 0.71050394 4282205501
-0.19657712 0.41772315 0.63180786 4282657813
-0.19525249 0.41611096 0.63176119 4280750592
-0.19808181 0.41646603 0.632523 4284038948
-0.19392788 0.4144989 0.63171446 4280422144
-0.1967572 0.4148539 0.63247627 4282394641
-0.19958651 0.41520897 0.63323808 4284170015
-0.19543257 0.41324177 0.63242954 4280815616
-0.19693726 0.41198471 0.63314468 4282197005
-0.29895538 0.50406361 0.76156372 4281874981
-0.29745299 0.50223505 0.76151073 4282861357
-0.30066201 0.50263774 0.76237482 4280955168
-0.29595065 0.50040662 0.7614578 4283058734
-0.29915962 0.50080931 0.76232183 4281152287
-0.30236858 0.501212 0.76318586 4281218344
-0.29765722 0.49898097 0.76226884 4282467115
-0.29936385 0.49755523 0.76307988 4280625944
-0.29923466 0.49148801 0.75360465 4282467115
-0.29774851 0.48967931 0.75355226 4283124529
-0.3009229 0.49007764 0.75440699 4280625944
-0.29626229 0.48787048 0.75349987 4283321908
-0.29943669 0.48826888 0.7543546 4282138152
-0.30261117 0.48866722 0.75520933 4280560412
-0.29795057 0.48646012 0.7543022 4283058737
-0.29963875 0.48504975 0.75510448 4281414429
-0.46502072 0.3977882 0.66292584 4279704857
-0.46377546 0.39627269 0.66288191 4279507734
-0.46643525 0.39660642 0.66359806 4280691752
-0.4625302 0.39475712 0.66283798 4280165662
-0.46518999 0.39509091 0.66355419 4279836443
-0.46784985 0.39542463 0.66427034 4280362787
-0.46394473 0.39357534 0.66351026 4279770650
-0.4653593 0.39239356 0.66418254 4280625959
-0.46769857 0.39510098 0.66196644 4280625959
-0.46645677 0.39358971 0.66192263 4280691752
-0.46910912 0.39392254 0.66263676 4279441685
-0.46521503 0.39207843 0.66187882 4280362787
-0.46786737 0.3924112 0.66259301 4280033822
-0.47051969 0.39274403 0.66330719 4279046927
-0.4666256 0.39089999 0.6625492 4280560166
-0.46803617 0.38972154 0.66321957 4279902236
-0.36207098 0.47526667 0.75086683 4282535492
-0.3606222 0.47350344 0.75081575 4282535492
-0.36371669 0.47389176 0.75164896 4282535492
-0.35917348 0.47174028 0.75076467 4282338113
-0.36226794 0.47212854 0.75159788 4282009148
-0.36536247 0.47251686 0.75243109 4282469699
-0.36081916 0.47036532 0.7515468 4281811769
-0.3624649 0.46899042 0.75232893 4281548597
0.082365096 -0.37330097 1.2231063 4279769366
0.084449828 -0.37583807 1.2230328 4278979594
0.079997063 -0.37527931 1.2242317 4280164381
0.0865345 -0.37837523 1.2229593 4279045128
0.082081735 -0.37781647 1.2241582 4279769364
0.07762903 -0.37725773 1.2253572 4280165149
0.084166348 -0.38035363 1.2240847 4279111434
0.081798315 -0.38233197 1.2252101 4279440656
-0.090146422 -0.34841943 1.3167843 4285880373
-0.087989539 -0.35104448 1.3167082 4280619008
-0.092596561 -0.35046634 1.3179487 4288378704
-0.085832655 -0.35366943 1.3166322 4279370752
-0.090439647 -0.35309133 1.3178726 4284564517
-0.095046639 -0.35251319 1.3191131 4288246598
-0.088282764 -0.35571638 1.3177966 4279500800
-0.090732872 -0.35776323 1.3189609 4282196487
-0.19439578 0.3898221 0.65368342 4282985236
-0.19304621 0.38817969 0.6536358 4281143810
-0.19592878 0.38854143 0.65441197 4285353003
-0.19169667 0.38653722 0.65358824 4280486912
-0.19457924 0.38689896 0.65436435 4283116822
-0.1974618 0.38726065 0.65514052 4286010667
-0.19322971 0.3852565 0.65431678 4281275652
-0.19476271 0.38397571 0.65504533 4283380250
0.074050963 0.71418118 1.0476094 4279767303
0.076218784 0.71154284 1.0475329 4279438342
0.071588516 0.71212387 1.0487797 4279898891
0.078386605 0.7089045 1.0474565 4278977792
0.073756278 0.70948553 1.0487033 4279109377
0.06912601 0.71006656 1.04995 4280096270
0.075924098 0.70684731 1.0486268 4278714624
0.073461592 0.70479 1.0497971 4278912000
-0.32688558 -0.31989187 1.5357282 4287334270
-0.32449517 -0.32280108 1.5356439 4288188809
-0.32960087 -0.32216039 1.5370187 4288057223
-0.32210472 -0.3257103 1.5355595 4283911751
-0.32721055 -0.32506958 1.5369344 4287004022
-0.33231625 -0.32442889 1.5383091 4287793538
-0.32482013 -0.32797879 1.5368501 4280556307
-0.32753551 -0.33024725 1.5381405 4279832586
0.10184699 0.74291122 1.0915965 4279438339
0.10410279 0.74016583 1.091517 4280096268
0.099284589 0.74077046 1.0928143 4278977793
0.10635853 0.73742044 1.0914375 4280096268
0.10154039 0.73802507 1.0927348 4279635719
0.096722186 0.7386297 1.0940322 4278583296
0.10379612 0.73527968 1.0926552 4280030475
0.10123366 0.73313892 1.093873 4279833098
0.21137631 0.68049002 1.0072572 4279044353
0.2135337 0.67786431 1.0071812 4278649344
0.20892566 0.6784426 1.0084219 4279899660
0.21569109 0.67523873 1.0071051 4278583552
0.21108299 0.67581701 1.0083458 4279373063
0.20647496 0.6763953 1.0095866 4280228624
0.21324044 0.67319143 1.0082698 4278715136
0.21078974 0.67114413 1.0094345 4279241477
-0.43352681 0.38999513 0.70632684 4282600519
-0.4322046 0.38838592 0.70628023 4281678905
-0.43502879 0.38874033 0.70704067 4279310101
-0.43088239 0.38677678 0.70623362 4280363300
-0.43370658 0.38713118 0.70699406 4278651658
-0.43653074 0.38748553 0.70775443 4278190592
-0.43238437 0.38552198 0.70694739 4278322435
-0.43388632 0.38426718 0.70766121 4278190337
0.24256259 0.69369876 1.0279258 4280096785
0.24476928 0.6910131 1.027848 4280360212
0.24005586 0.69160461 1.0291171 4279109892
0.24697602 0.68832755 1.0277702 4280557590
0.24226254 0.68891895 1.0290393 4279965200
0.23754913 0.68951046 1.0303084 4278517760
0.24446934 0.68623328 1.0289614 4280557591
0.24196261 0.68413913 1.0301528 4280096786
-0.20936987 -0.32450888 1.3892473 4282978307
-0.20714931 -0.32721141 1.389169 4282846723
-0.21189238 -0.3266162 1.3904461 4284162574
-0.2049287 -0.329914 1.3890907 4283045128
-0.20967175 -0.32931879 1.3903679 4284163089
-0.21441483 -0.32872361 1.391645 4285939235
-0.20745119 -0.33202133 1.3902895 4284361236
-0.20997363 -0.33412874 1.3914883 4285808673
-0.080980688 -0.33943802 1.3367165 4285091635
-0.078786761 -0.34210804 1.3366392 4280290051
-0.083472848 -0.34152001 1.337901 4287261766
-0.076592863 -0.34477815 1.3365618 4279304448
-0.08127895 -0.34419012 1.3378236 4283775777
-0.085965037 -0.34360209 1.3390853 4287721284
-0.079085022 -0.34686017 1.3377463 4279370496
-0.081577182 -0.34894225 1.3389306 4281803021
0.16635424 0.70302451 1.059054 4280030993
0.1685769 0.70031941 1.0589756 4278715650
0.16382951 0.70091522 1.0602539 4280096786
0.17079949 0.69761443 1.0588973 4278518272
0.1660521 0.69821024 1.0601755 4279899407
0.16130471 0.69880593 1.0614538 4280162833
0.1682747 0.69550514 1.0600971 4278846979
0.16574997 0.69339585 1.0612971 4280030993
0.081409633 0.71023142 1.0774508 4279569926
0.083624423 0.70753598 1.0773727 4278714624
0.078893781 0.70812964 1.0786464 4280556821
0.085839212 0.70484054 1.0772945 4278583296
0.08110857 0.7054342 1.0785683 4279504134
0.076377928 0.70602775 1.079842 4280688405
0.0833233 0.70273864 1.0784901 4278517760
0.080807447 0.70063686 1.0796858 4279175939
-0.37577134 -0.31564394 1.6584293 4284175176
-0.37321645 -0.31875336 1.6583393 4285227865
-0.37867346 -0.31806859 1.6598085 4282332972
-0.37066165 -0.32186264 1.6582491 4285556830
-0.37611866 -0.32117784 1.6597184 4284240967
-0.38157567 -0.32049307 1.6611878 4283056693
-0.37356377 -0.32428727 1.6596284 4285820256
-0.37646598 -0.32671177 1.6610076 4283517498
-0.40259981 0.40362647 0.73847169 4281283891
-0.40121096 0.40193608 0.73842269 4281152305
-0.40417749 0.40230837 0.73922145 4280757547
-0.39982206 0.40024588 0.7383737 4280625961
-0.40278861 0.40061811 0.73917246 4279902238
-0.40575513 0.4009904 0.73997122 4279375894
-0.40139979 0.39892778 0.73912352 4279704346
-0.40297741 0.39760974 0.73987329 4278454022
0.31166852 -0.37665191 1.1138674 4282991411
0.31368983 -0.37911186 1.1137961 4283386169
0.30937248 -0.37857008 1.1149585 4283517755
0.31571114 -0.38157192 1.1137248 4283386171
0.31139374 -0.38103011 1.1148872 4283320379
0.30707639 -0.38048837 1.1160498 4281544738
0.31341505 -0.38349009 1.114816 4281939241
0.31111896 -0.38540837 1.1159072 4278781186
-0.31725338 0.4804202 0.84599859 4280230427
-0.31563956 0.47845617 0.84594166 4280033048
-0.31908655 0.47888872 0.84686977 4279835670
-0.3140257 0.47649214 0.84588474 4279967000
-0.31747276 0.47692463 0.84681284 4279374863
-0.32091975 0.47735724 0.84774101 4279309070
-0.31585893 0.4749606 0.84675592 4279243277
-0.31769216 0.47342905 0.84762716 4278519554
0.2075668 -0.36541015 1.2459006 4282992183
0.20974427 -0.36806014 1.2458237 4283189562
0.20509332 -0.36747652 1.247076 4283650113
0.21192175 -0.37071019 1.245747 4284242250
0.2072708 -0.37012655 1.2469993 4284308043
0.20261991 -0.36954293 1.2482516 4284900181
0.20944828 -0.37277657 1.2469225 4284900180
0.2069748 -0.37484306 1.248098 4284965973
-0.2458117 -0.025325164 1.1532563 4278976512
-0.24386631 -0.027692765 1.1531876 4283514930
-0.24802147 -0.027171344 1.1543064 4279107840
-0.24192101 -0.030060366 1.1531191 4289369215
-0.24607617 -0.029538944 1.1542379 4280685838
-0.2502313 -0.029017538 1.1553566 4284436540
-0.24413076 -0.031906486 1.1541692 4286408784
-0.24634062 -0.03375265 1.1552194 4288974708
0.17558664 0.67512834 1.0659992 4279439118
0.17781484 0.67241657 1.0659205 4278649600
0.17305547 0.67301381 1.067202 4279899410
0.18004304 0.66970468 1.0658419 4278452224
0.17528373 0.67030191 1.0671234 4279702290
0.17052442 0.67089915 1.0684049 4278978307
0.17751193 0.66759014 1.0670449 4278583808
0.17498082 0.66547561 1.0682477 4279768081
0.30673486 -0.36868188 1.2234801 4283781959
0.30892175 -0.3713434 1.223403 4284242256
0.30425072 -0.37075725 1.2246608 4283518532
0.31110859 -0.37400487 1.2233258 4284242256
0.30643755 -0.37341872 1.2245835 4283452740
0.30176657 -0.37283257 1.2258413 4283518533
0.30862445 -0.37608027 1.2245065 4280952610
0.3061403 -0.37815565 1.225687 4278913542
0.45449597 -0.39087775 1.2526615 4278714624
0.4567855 -0.39366433 1.2525806 4278780416
0.45189506 -0.39305064 1.2538975 4279438339
0.45907515 -0.39645082 1.2524999 4279109120
0.45418471 -0.39583713 1.2538167 4279175169
0.44929415 -0.39522344 1.2551335 4280754197
0.45647424 -0.39862373 1.253736 4278714368
0.45387346 -0.40079665 1.2549721 4279767303
-0.30203053 0.014554679 1.4105933 4287135861
-0.29970956 0.011730015 1.4105114 4282793523
-0.30466697 0.012352109 1.4118462 4289043858
-0.29738864 0.0089052916 1.4104295 4282530351
-0.30234605 0.0095273852 1.4117644 4287793791
-0.30730343 0.010149464 1.4130992 4288122501
-0.30002508 0.006702736 1.4116825 4282925109
-0.30266157 0.0045001209 1.4129355 4288122756
-0.058770865 -0.316401 1.3871745 4283973156
-0.056483567 -0.31918478 1.3870939 4280881927
-0.061369121 -0.31857172 1.3884094 4285287981
-0.054196239 -0.3219685 1.3870132 4279632640
-0.059081823 -0.32135543 1.3883287 4283381535
-0.063967377 -0.32074234 1.3896441 4285681707
-0.056794494 -0.32413918 1.388248 4280225026
-0.05939275 -0.32630983 1.3894829 4282264085
-0.2151307 0.33827969 0.69798481 4284105247
-0.21374029 0.33658752 0.69793582 4286076719
-0.21671012 0.33696023 0.69873548 4282724883
-0.21234989 0.3348954 0.69788677 4286470182
-0.21531972 0.33526805 0.69868642 4284170783
-0.21828954 0.3356407 0.69948608 4282594587
-0.21392931 0.33357581 0.69863737 4286142512
-0.21550873 0.33225635 0.69938797 4284170527
0.29796177 0.61380172 1.0513052 4280294932
0.30020267 0.61107433 1.0512263 4280557590
0.2954163 0.61167502 1.0525149 4278781440
0.30244344 0.60834718 1.0511471 4280820503
0.29765713 0.60894787 1.0524359 4279505162
0.29287076 0.60954845 1.0537246 4278386688
0.29989797 0.60622048 1.0523568 4280360213
0.29735249 0.60409403 1.0535666 4279176198
0.2391519 -0.34710413 1.2132617 4278846976
0.24130017 -0.3497186 1.2131859 4279570695
0.23671156 -0.34914282 1.2144214 4278518016
0.24344844 -0.35233319 1.2131102 4283649859
0.23885983 -0.35175738 1.2143457 4282597171
0.23427123 -0.35118157 1.2155812 4279636488
0.2410081 -0.35437185 1.2142699 4283781445
0.23856777 -0.35641062 1.2154297 4283518273
0.018344432 0.62070882 1.106027 4280687632
0.020545185 0.61803031 1.1059493 4281411355
0.015844464 0.61862028 1.107215 4280095495
0.022745967 0.61535192 1.1058717 4281279769
0.018045247 0.61594188 1.1071374 4280753425
0.013344526 0.61653173 1.1084031 4279898118
0.020245999 0.61326337 1.1070598 4281279769
0.017746061 0.61117494 1.1082479 4280687632
0.1644358 0.61444163 1.0883049 4279833868
0.166673 0.61171877 1.088226 4278715137
0.16189438 0.6123184 1.0895126 4280688662
0.16891026 0.60899603 1.088147 4280030995
0.16413164 0.60959566 1.0894338 4279570696
0.15935308 0.61019528 1.0907204 4280754453
0.1663689 0.6068728 1.0893549 4278780930
0.16382748 0.60474968 1.0905626 4279833868
0.26653761 0.61140692 1.0833784 4280689174
0.268812 0.60863888 1.0832982 4281083932
0.26395398 0.60924852 1.0846063 4278978306
0.27108639 0.60587084 1.0832181 4281083932
0.26622838 0.60648048 1.0845261 4279965452
0.26137042 0.60709012 1.0858341 4278452224
0.26850283 0.60371244 1.0844458 4280820761
0.26591921 0.60155404 1.0856737 4279373317
0.16449308 0.61007476 1.0901061 4279570696
0.16673166 0.60735035 1.0900271 4278780930
0.16195017 0.60795033 1.0913146 4280886298
0.16897017 0.60462582 1.0899482 4279767822
0.16418874 0.6052258 1.0912356 4279833868
0.15940732 0.6058259 1.0925231 4280886039
0.16642731 0.60250139 1.0911567 4278715136
0.1638844 0.60037696 1.0923651 4280031247
-0.30361 0.032289311 1.3750697 4285161558
-0.30133754 0.0295237 1.3749896 4282003494
-0.30619133 0.030132785 1.3762965 4289372310
-0.29906517 0.02675803 1.3749095 4282925109
-0.30391893 0.027367115 1.3762164 4285688415
-0.30877274 0.0279762 1.3775233 4288714638
-0.30164647 0.024601504 1.3761362 4282069800
-0.30422786 0.022444904 1.3773631 4286017380
0.3107875 0.58699918 1.0687339 4280491281
0.31305176 0.58424354 1.0686541 4281083415
0.30821556 0.58485043 1.0699563 4279110145
0.3153159 0.58148789 1.0685743 4281412378
0.3104797 0.58209479 1.0698764 4280162317
0.30564356 0.58270168 1.0711786 4278452224
0.31274396 0.57933927 1.0697966 4281149207
0.3101719 0.57719052 1.0710189 4279767558
-0.20758633 -0.28586733 1.3208559 4284227851
-0.20545548 -0.28846058 1.3207806 4284227338
-0.21000685 -0.28788945 1.3220061 4284424717
-0.20332472 -0.29105392 1.3207055 4284688402
-0.207876 -0.29048279 1.321931 4285082647
-0.21242729 -0.28991166 1.3231565 4285674527
-0.20574516 -0.29307604 1.3218558 4285411612
-0.20816568 -0.29509822 1.3230062 4285214233
0.36669743 0.52426386 0.98230028 4281017623
0.36883605 0.52166104 0.98222482 4279899658
0.36426806 0.52223432 0.98345482 4281938724
0.37097466 0.51905835 0.98214948 4279175937
0.36640668 0.51963151 0.98337948 4281478174
0.36183876 0.52020478 0.98460937 4281741344
0.36854529 0.51702869 0.98330402 4280886552
0.36611593 0.51499915 0.98445857 4281149207
0.14970177 -0.33357099 1.2934551 4280558621
0.15193528 -0.33628929 1.2933763 4284769370
0.14716452 -0.33569062 1.2946609 4278452992
0.1541689 -0.33900765 1.2932976 4285493092
0.14939809 -0.33840898 1.2945821 4278913797
0.14462733 -0.33781031 1.2958667 4278190336
0.15163165 -0.34112728 1.2945033 4283190339
0.14909446 -0.343247 1.2957091 4278255616
-0.39200491 0.42159125 0.89382386 4282135338
-0.39037144 0.4196032 0.89376628 4288451712
-0.39386052 0.42004099 0.89470571 4278452224
-0.38873792 0.41761515 0.89370865 4288583290
-0.39222699 0.418053 0.89464808 4281346081
-0.39571613 0.4184908 0.89558756 4278256129
-0.39059353 0.41606495 0.8945905 4288320127
-0.39244908 0.41451475 0.89547235 4281214751
0.082510471 0.60073018 1.1332471 4280557074
0.084774435 0.59797478 1.1331673 4278977792
0.07993871 0.59858155 1.1344693 4281280284
0.087038398 0.59521937 1.1330874 4278648832
0.082202733 0.59582627 1.1343895 4280491281
0.077367008 0.59643304 1.1356915 4281148698
0.084466636 0.59307086 1.1343096 4278977793
0.081894934 0.59092236 1.1355318 4280688660
-0.1920251 0.30500808 0.70352358 4285352480
-0.1906268 0.30330625 0.70347422 4283510795
-0.19361353 0.30368105 0.70427847 4288048962
-0.18922848 0.30160442 0.70342493 4283182863
-0.1922152 0.30197921 0.70422912 4285681446
-0.19520193 0.30235401 0.7050333 4287785528
-0.19081688 0.30027744 0.70417982 4283511051
-0.19240531 0.2989504 0.70493472 4285549859
0.043422461 0.62458742 1.185977 4281213460
0.045756161 0.62174714 1.1858946 4281608218
0.040771514 0.62237263 1.1872368 4280423944
0.048089862 0.61890686 1.1858124 4281739804
0.043105215 0.61953247 1.1871545 4281213460
0.038120568 0.62015796 1.1884967 4280292358
0.045438886 0.6166923 1.1870722 4281674011
0.042787969 0.61447763 1.1883321 4281345046
0.31859559 0.55481255 1.0837954 4280754201
0.32087553 0.5520376 1.0837151 4282201640
0.31600565 0.55264866 1.0850264 4278780416
0.32315546 0.54926276 1.0836347 4281938466
0.31828564 0.54987395 1.0849459 4280030478
0.31341571 0.55048501 1.0862572 4278583296
0.32056558 0.54709911 1.0848656 4281740834
0.3179757 0.54493535 1.0860964 4279701261
-0.38324383 0.015927136 1.3916224 4286873719
-0.38098732 0.013180792 1.3915428 4287794821
-0.38580719 0.013785616 1.3928406 4284241999
-0.37873071 0.010434508 1.3914632 4287860614
-0.38355058 0.011039346 1.392761 4286676340
-0.38837045 0.01164417 1.3940588 4283123518
-0.3812941 0.0082929879 1.3926815 4288057993
-0.38385737 0.0061515272 1.3938996 4286807926
0.09861505 -0.32140258 1.2832454 4279111180
0.10081434 -0.32407919 1.2831678 4278913801
0.096116722 -0.3234897 1.2844328 4278979594
0.10301369 -0.32675588 1.2830904 4278913801
0.098316073 -0.32616639 1.2843552 4279440145
0.093618453 -0.3255769 1.2856201 4278716422
0.10051537 -0.32884303 1.2842776 4280953384
0.098017037 -0.3309302 1.2854649 4282071865
0.31177753 0.53765237 1.092957 4279504903
0.31406277 0.53487122 1.0928764 4278452224
0.30918169 0.53548372 1.0941907 4281610274
0.31634796 0.53209007 1.0927958 4278517760
0.31146687 0.53270257 1.0941101 4280097038
0.30658585 0.53331506 1.0954244 4281939492
0.31375211 0.52992141 1.0940295 4278781184
0.31115621 0.52775276 1.0952632 4281215519
0.14971966 0.5431031 1.1261237 4280951832
0.15198427 0.54034698 1.1260438 4280951832
0.14714718 0.54095399 1.1273462 4280820245
0.15424889 0.53759086 1.1259639 4279372549
0.1494118 0.53819788 1.1272663 4280030730
0.1445747 0.53880489 1.1285688 4280952343
0.15167642 0.53544176 1.1271864 4278583296
0.14910394 0.53329253 1.128409 4278978050
0.1808756 0.54930973 1.1388669 4280426264
0.18317527 0.54651093 1.1387858 4280821024
0.17826325 0.54712725 1.1401085 4279110407
0.18547505 0.54371202 1.1387047 4279241480
0.18056291 0.54432833 1.1400274 4279702543
0.17565084 0.54494476 1.1413499 4278517760
0.18286264 0.54152954 1.1399462 4279176199
0.18025029 0.53934705 1.1411878 4278386688
-0.36186817 0.44304577 0.99962223 4286674268
-0.36005479 0.44083884 0.99955833 4285753167
-0.36392802 0.44132492 1.0006012 4287200611
-0.3582415 0.43863192 0.99949431 4284832324
-0.36211467 0.439118 1.0005373 4286674268
-0.36598784 0.43960401 1.0015801 4287200611
-0.36030132 0.43691108 1.0004733 4285818960
-0.36236119 0.43519017 1.0014522 4286805599
0.097600877 0.55783725 1.162793 4280688660
0.099902272 0.55503643 1.1627119 4281280795
0.094986677 0.55565321 1.1640354 4279043587
0.10220367 0.55223548 1.1626307 4281477915
0.097288013 0.55285239 1.1639543 4280951832
0.092372358 0.55346918 1.1652778 4278583296
0.099589407 0.55005145 1.1638731 4281609760
0.096975148 0.54786742 1.1651155 4280886040
0.25490057 -0.33762556 1.2138364 4283320895
0.25705975 -0.34025347 1.2137604 4283189309
0.25244778 -0.33967474 1.2150022 4283386688
0.25921899 -0.34288132 1.2136842 4278781187
0.25460702 -0.34230256 1.214926 4281676070
0.24999505 -0.34172383 1.2161678 4283057722
0.25676626 -0.34493047 1.2148498 4278452224
0.25431353 -0.34697956 1.2160155 4278649600
0.23678041 0.0051772594 1.4182383 4279962883
0.23935032 0.0020495206 1.4181477 4278910976
0.23386109 0.0027383566 1.4196258 4281870361
0.24192023 -0.0010781139 1.4180571 4279962880
0.23643106 -0.00038929284 1.419535 4280226055
0.23094183 0.00029952824 1.4210131 4281804568
0.23900098 -0.0035170317 1.4194444 4278910976
0.23608166 -0.0059558451 1.4208318 4280687118
-0.31534672 0.45915553 1.0784019 4283712818
-0.31338874 0.45677254 1.0783329 4282989095
-0.31757095 0.45729741 1.079459 4284962886
-0.31143069 0.45438954 1.0782638 4282989093
-0.31561291 0.4549143 1.0793899 4283844404
-0.31979513 0.45543918 1.080516 4285358160
-0.3136549 0.45253137 1.0793209 4282989095
-0.31587911 0.45067319 1.0803779 4284041783
-0.21611667 0.2559104 0.73568761 4284564253
-0.2146965 0.25418195 0.73563749 4287852353
-0.21772991 0.25456262 0.73645425 4282854924
-0.21327633 0.25245357 0.73558742 4289035077
-0.21630974 0.25283423 0.73640418 4284301081
-0.21934316 0.25321487 0.73722094 4283251230
-0.21488956 0.25110582 0.73635411 4288049731
-0.2165028 0.24975806 0.73712081 4284564253
0.41620737 -0.35023525 1.2275232 4278780416
0.41845512 -0.35297087 1.2274439 4278977792
0.41365403 -0.35236838 1.2287366 4280951577
0.42070287 -0.35570648 1.2273647 4279175170
0.41590178 -0.35510403 1.2286574 4280491026
0.41110069 -0.35450155 1.2299501 4281807141
0.41814953 -0.35783961 1.2285781 4279570694
0.41559619 -0.35997283 1.2297915 4281346847
-0.21258588 -0.086515248 0.91812903 4286336550
-0.2109998 -0.088445529 0.91807306 4290480217
-0.21438757 -0.088020407 0.91898525 4284101651
-0.20941374 -0.09037587 0.91801715 4290611795
-0.2128015 -0.089950755 0.91892934 4286139428
-0.21618925 -0.089525633 0.91984147 4284825635
-0.21121544 -0.091881096 0.91887337 4290414424
-0.21301712 -0.093386263 0.91972959 4286007842
0.10611695 -0.074878313 0.83893138 4290019657
0.10772973 -0.076841027 0.83887446 4288244799
0.10428506 -0.076408774 0.83980197 4287850041
0.1093424 -0.0788038 0.8388176 4284233494
0.10589772 -0.07837154 0.8397451 4283772944
0.10245305 -0.077939287 0.84067261 4283378185
0.10751051 -0.080334321 0.83968824 4281077248
0.1056785 -0.081864767 0.84055889 4281144584
0.059937835 -0.075440541 0.80763042 4290875476
0.061482549 -0.077320598 0.80757594 4289494345
0.058183014 -0.076906554 0.80846441 4289034051
0.063027322 -0.079200596 0.80752146 4285350423
0.059727848 -0.078786559 0.80840987 4285153046
0.056428313 -0.078372516 0.80929834 4284429581
0.061272562 -0.080666609 0.80835545 4281404928
0.059517801 -0.08213263 0.80918938 4281078018
-0.49217635 0.32397279 0.88816738 4280494373
-0.49062765 0.32208797 0.88811278 4280165408
-0.49393567 0.32250306 0.88900352 4279968029
-0.48907888 0.32020304 0.88805819 4279573271
-0.49238691 0.32061812 0.88894886 4279375892
-0.49569494 0.32103321 0.88983959 4279441685
-0.4908382 0.3187333 0.88889426 4278849291
-0.49259743 0.31726345 0.88973033 4278520326
-0.36427182 0.3707529 0.96952808 4286740321
-0.36252826 0.36863086 0.96946657 4285753428
-0.36625236 0.36909822 0.97046936 4287529579
-0.36078474 0.36650893 0.96940506 4285753429
-0.36450884 0.36697623 0.97040784 4286806114
-0.36823297 0.36744359 0.97141063 4288055922
-0.36276528 0.36485431 0.97034633 4286016600
-0.36474586 0.36319968 0.97128761 4286871909
0.21188962 -0.31580967 1.3235114 4284241480
0.21420199 -0.31862384 1.3234298 4283846722
0.20926291 -0.31800404 1.3247596 4284833617
0.21651429 -0.3214381 1.3233483 4279043841
0.21157527 -0.32081833 1.3246781 4281149211
0.20663619 -0.32019854 1.326008 4283912515
0.21388763 -0.32363251 1.3245965 4278583296
0.21126091 -0.325827 1.3258449 4279372035
-0.52294976 0.3212578 0.88807374 4280691752
-0.52141571 0.31939086 0.88801962 4280296994
-0.5246923 0.31980202 0.88890189 4280823338
-0.51988178 0.31752393 0.88796556 4279441685
-0.52315831 0.31793508 0.88884777 4280099615
-0.52643478 0.31834623 0.88972998 4280165664
-0.52162427 0.31606814 0.88879365 4278783755
-0.52336681 0.31461242 0.88962179 4278586376
-0.54171968 0.30864337 0.86961114 4280824623
-0.54022586 0.30682549 0.86955845 4280429352
-0.54341638 0.30722585 0.87041748 4280824110
-0.53873217 0.30500755 0.86950576 4279508250
-0.54192269 0.30540791 0.87036484 4279837215
-0.54511321 0.30580828 0.87122393 4280034594
-0.540429 0.30359003 0.87031215 4278981906
-0.54212576 0.30217251 0.87111855 4278651658
-0.39156136 0.060845286 1.3281794 4285031515
-0.38938966 0.058202147 1.3281028 4283189311
-0.3940284 0.058784246 1.3293518 4290229162
-0.38721791 0.055559069 1.3280262 4285557859
-0.39185661 0.056141168 1.3292753 4285557859
-0.39649534 0.056723267 1.3305242 4290360748
-0.38968492 0.05349803 1.3291986 4282728760
-0.39215183 0.051437065 1.330371 4286149996
0.087356091 0.49103388 1.2002157 4280819478
0.089687705 0.48819622 1.2001334 4278977794
0.084707499 0.48882112 1.2014744 4281872421
0.09201932 0.48535857 1.2000512 4278649088
0.087039113 0.48598346 1.2013922 4280951064
0.082058907 0.48660848 1.2027332 4281477662
0.089370728 0.4831458 1.2013099 4278912002
0.086722136 0.48093304 1.2025687 4280885271
-0.36691058 0.34484431 0.94937205 4286937702
-0.36520696 0.34277096 0.94931197 4286280544
-0.36884579 0.34322754 0.95029175 4287858803
-0.36350334 0.34069756 0.94925189 4286082909
-0.3671422 0.34115419 0.95023167 4287135081
-0.37078106 0.34161076 0.95121145 4288253560
-0.36543855 0.33908078 0.95017159 4286346337
-0.36737379 0.337464 0.95109129 4287464046
-0.19125396 0.23049605 0.7421816 4289165894
-0.18982112 0.22875223 0.74213105 4287258413
-0.19288161 0.22913626 0.74295515 4292389235
-0.18838829 0.22700837 0.74208057 4286929453
-0.19144875 0.22739244 0.7429046 4289099846
-0.19450924 0.2277765 0.74372864 4290546773
-0.19001591 0.22564861 0.74285406 4286732325
-0.19164357 0.22428879 0.74362761 4289099844
0.40844387 -0.33211172 1.2272843 4278846209
0.41069371 -0.33484986 1.2272049 4278583296
0.40588826 -0.33424684 1.2284988 4281083163
0.41294354 -0.33758792 1.2271256 4278714368
0.40813804 -0.3369849 1.2284195 4280162063
0.40333259 -0.33638188 1.2297134 4282070312
0.41038793 -0.33972305 1.2283401 4279635720
0.40783221 -0.34185809 1.2295548 4281872679
0.32050741 0.44890538 1.134603 4281215520
0.32283062 0.44607791 1.1345211 4282399793
0.31786841 0.44670066 1.1358572 4278715136
0.32515377 0.44325051 1.1344391 4282202666
0.32019156 0.44387326 1.1357752 4280623383
0.31522936 0.44449589 1.1371113 4278452224
0.32251471 0.44104579 1.1356933 4281939241
0.31987578 0.43884107 1.1369475 4279899661
-0.31591603 0.4120225 1.0927483 4283713330
-0.31395185 0.40963206 1.092679 4282792227
-0.31814718 0.41015849 1.0938087 4286081880
-0.31198773 0.40724161 1.0926098 4283318310
-0.31618303 0.40776804 1.0937394 4284042552
-0.32037836 0.40829447 1.094869 4286345054
-0.31421888 0.4053776 1.0936701 4282792226
-0.31645006 0.40351358 1.0947305 4283976759
-0.20098606 0.21542355 0.73043501 4288770619
-0.19958013 0.21371248 0.73038542 4290744412
-0.20258312 0.2140893 0.73119402 4289100096
-0.19817419 0.21200141 0.73033583 4292652409
-0.20117719 0.21237823 0.73114443 4289099586
-0.20418018 0.21275508 0.73195302 4289494341
-0.19977126 0.21066716 0.73109484 4291073377
-0.20136832 0.20933291 0.73185384 4289165379
-0.2131355 0.22710481 0.75625682 4288312392
-0.2116923 0.22534838 0.75620592 4290021203
-0.21477489 0.22573522 0.75703591 4284564256
-0.2102491 0.22359195 0.75615501 4289428550
-0.21333168 0.22397879 0.75698507 4288180807
-0.21641427 0.22436562 0.75781506 4283183636
-0.21188849 0.22222236 0.75693417 4290020947
-0.21352789 0.2208527 0.75771326 4288246600
-0.39486676 0.4034659 1.097051 4286279771
-0.39293411 0.40111384 1.0969828 4288319353
-0.39706212 0.40163186 1.0980943 4284306495
-0.39100143 0.39876172 1.0969146 4288713854
-0.3951295 0.39927974 1.0980262 4285951062
-0.39925751 0.39979777 1.0991377 4285359442
-0.39319685 0.39692762 1.097958 4288253560
-0.39539224 0.39509353 1.0990014 4285885271
-0.38361159 0.064249456 1.3491108 4288057993
-0.38140363 0.06156227 1.349033 4287926407
-0.38611963 0.062154055 1.3503028 4285821031
-0.37919572 0.058875173 1.348955 4287597442
-0.38391176 0.059466958 1.350225 4287794821
-0.38862777 0.060058743 1.3514948 4282926139
-0.38170379 0.056779772 1.350147 4287992200
-0.38421193 0.05468446 1.351339 4287794821
0.28583258 0.41988465 1.1392617 4282070563
0.28813797 0.41707894 1.1391804 4279767809
0.28321385 0.4176968 1.1405063 4282267429
0.29044336 0.41427317 1.1390991 4279307012
0.28551918 0.41489109 1.140425 4282136099
0.28059512 0.41550902 1.1417508 4282201634
0.28782457 0.41208538 1.1403437 4280556811
0.28520578 0.4098976 1.1415882 4282267429
0.18464065 0.42408785 1.1499791 4279372810
0.18691838 0.42131576 1.1498988 4279964948
0.18205327 0.42192629 1.1512088 4278715393
0.18919605 0.41854367 1.1498185 4278517760
0.184331 0.4191542 1.1511284 4281017891
0.17946595 0.41976473 1.1524384 4278517760
0.18660873 0.41638216 1.1510481 4280754719
0.18402135 0.4142206 1.1522777 4281938993
0.32649338 0.41562787 1.1464618 4280557589
0.32882637 0.41278848 1.1463795 4282136362
0.32384318 0.41341385 1.1477213 4278649600
0.33115929 0.40994921 1.1462972 4282333483
0.32617623 0.41057453 1.1476389 4280294417
0.32119304 0.41119984 1.1489807 4278452224
0.32850915 0.4077352 1.1475567 4281610275
0.32585901 0.40552118 1.1488162 4279833612
-0.10113227 0.31213149 0.95649552 4284037659
-0.099309891 0.30991355 0.95643127 4283446551
-0.10320246 0.31040201 0.95747936 4284498206
-0.097487479 0.30769566 0.95636702 4283052051
-0.10138005 0.30818412 0.9574151 4283972121
-0.10527262 0.30867258 0.95846319 4284958499
-0.099557638 0.30596617 0.95735085 4283446806
-0.1016278 0.30423668 0.95833468 4284169756
0.39939028 -0.2958653 1.4052312 4278255872
0.40191597 -0.29893905 1.4051422 4278321664
0.39652133 -0.29826212 1.4065948 4278255872
0.40444154 -0.30201289 1.4050531 4279703051
0.3990469 -0.30133593 1.4065057 4280032017
0.39365226 -0.30065897 1.4079581 4280031760
0.40157259 -0.30440968 1.4064165 4282729271
