# .PCD v0.7 - Point Cloud Data file format
VERSION 0.7
FIELDS x y z rgb
SIZE 4 4 4 4
TYPE F F F U
COUNT 1 1 1 1
WIDTH 801
HEIGHT 1
VIEWPOINT 0 0 0 1 0 0 0
POINTS 801
DATA ascii
0.101086 -0.0051382701 1.17375 1259968921
-0.33304101 -0.27323699 1.5355901 1261350574
-0.31397799 -0.488107 1.26235 1259771542
-0.41105199 -0.484539 1.27206 1259442577
-0.382121 -0.48672801 1.28754 1259310991
-0.34677601 -0.47737101 1.28232 1256383202
-0.33347401 -0.47357401 1.27706 1255462100
-0.322108 -0.47142601 1.27127 1255856858
-0.31987199 -0.47103599 1.27022 1255988444
-0.37593299 -0.467904 1.26669 1255330514
-0.52580398 -0.52576798 1.43449 1261745332
-0.32709801 -0.465599 1.27536 1255198928
-0.31685001 -0.46139899 1.2739 1257567476
-0.51229298 -0.47005501 1.38592 1261811125
-0.50451797 -0.45303199 1.37063 1260890023
-0.67605799 -0.58714199 1.78409 1261153195
-0.46708399 -0.38965499 1.23259 1261482160
-0.48339599 -0.41168901 1.3022799 1261416367
-0.52095503 -0.43086499 1.3691601 1261153195
-0.47472501 -0.37174201 1.26832 1261284781
-0.42163801 -0.320283 1.1036201 1261811125
-0.42074701 -0.31199801 1.09684 1261613746
-0.52741402 -0.39843601 1.41497 1260429472
-0.34327301 -0.29034701 1.04724 1260758437
-0.38508999 -0.26175699 0.99583298 1261613746
-0.55936402 -0.38591599 1.47614 1261547953
-0.523983 -0.34562701 1.34427 1261218988
-0.40122399 -0.24785601 0.98615801 1260955816
-0.52913898 -0.33926001 1.3575 1261482160
-0.368682 -0.220102 0.88590801 1261482160
-0.410981 -0.25097799 1.0101399 1260955816
-0.56779802 -0.35216901 1.45092 1261679539
-0.56649703 -0.359918 1.4828399 1261613746
-0.41158 -0.226684 0.97448099 1260232093
-0.42827001 -0.230655 1.01029 1259837335
-0.425625 -0.22778399 1.00405 1259837335
-0.42040601 -0.22858 1.0140001 1261284781
-0.58108997 -0.33663201 1.50275 1262403262
-0.38616699 -0.19775 0.92449099 1261547953
-0.55506998 -0.29785699 1.40174 1261811125
-0.607467 -0.32573801 1.5647 1261613746
-0.46259701 -0.21844999 1.07169 1259179405
-0.59256703 -0.31115499 1.52632 1261284781
-0.59263301 -0.28362101 1.50842 1262403262
-0.45272899 -0.199983 1.0719301 1261416367
-0.58523297 -0.277935 1.48959 1262074297
-0.44762999 -0.19620299 1.05985 1261416367
-0.580679 -0.27364299 1.47799 1262008504
-0.457032 -0.19295999 1.0588 1261021609
-0.538719 -0.244133 1.33947 1261745332
-0.548051 -0.24640299 1.36268 1261942711
-0.54777801 -0.246218 1.3725801 1262863813
-0.44582501 -0.180978 1.02547 1259837335
-0.44021401 -0.18111899 1.0347 1261745332
-0.57713902 -0.25195101 1.46321 1261679539
-0.444249 -0.172984 1.02184 1260363679
-0.567159 -0.240437 1.4322799 1262140090
-0.442332 -0.168705 1.0138201 1259705749
-0.55937999 -0.202332 1.36974 1262403262
-0.36189699 -0.132386 1.02641 1261284781
-0.56239098 -0.165666 1.39298 1261350574
-0.382043 0.0146697 0.98014098 1261613746
-0.082772598 0.067471102 1.28851 1260429472
-0.39650801 0.066988103 1.24506 1259968921
-0.086634502 0.069219597 1.28654 1259771542
-0.0149245 0.069620498 1.29398 1260561058
0.023496401 0.070548996 1.31126 1260297886
0.068381801 0.070721999 1.3144701 1260692644
0.068664499 0.072913699 1.31991 1260232093
0.074683003 0.072797298 1.3178 1260166300
-0.30212101 0.071529597 1.26196 1260034714
-0.31363899 0.073753603 1.26899 1260297886
0.102031 0.079101004 1.32811 1260166300
-0.36861601 0.0831993 1.33262 1260100507
0.13157199 0.096426897 1.35676 1261613746
0.16527499 0.100365 1.3572 1261284781
0.201067 0.105388 1.37173 1261811125
0.203383 0.105486 1.37301 1261679539
-0.45463201 0.101819 1.30094 1260561058
-0.472271 0.100729 1.24128 1260166300
-0.47090399 0.100849 1.2427599 1260232093
-0.448838 0.102853 1.26749 1261482160
-0.44187 0.0730455 0.884004 1260495265
-0.43823001 0.076147802 0.89053297 1261679539
-0.438016 0.076350898 0.89291197 1261350574
-0.484698 0.11208 1.2897201 1262271676
-0.159117 0.116408 1.27606 1260890023
-0.51458198 0.119934 1.25532 1261876918
-0.43483499 0.083629303 0.86190999 1260363679
-0.44199401 0.0897291 0.89818501 1260890023
0.265109 0.138217 1.38416 1262074297
-0.52488101 0.131404 1.2613699 1262271676
-0.43265599 0.094396301 0.84717798 1260232093
-0.41890901 0.097904399 0.83547503 1261547953
-0.43511999 0.102639 0.87593901 1261613746
-0.52375603 0.143683 1.22668 1262337469
-0.43636999 0.111235 0.91560602 1261679539
0.338649 0.16321699 1.34392 1261811125
-0.43627799 0.112529 0.91541302 1262008504
-0.42827699 0.111604 0.887079 1261811125
-0.427755 0.111827 0.88885403 1261021609
-0.52094299 0.154164 1.1983401 1262666434
-0.42671901 0.111633 0.84843302 1261416367
-0.42355999 0.10985 0.816966 1260824230
-0.423958 0.1142 0.84035301 1261284781
-0.425484 0.113553 0.81823099 1260758437
0.368653 0.170453 1.22866 1262534848
-0.42394701 0.115973 0.81044298 1260297886
-0.54711598 0.173228 1.21104 1261745332
-0.41707599 0.123272 0.85292399 1261679539
0.349673 0.18230601 1.24932 1262205883
0.369104 0.180354 1.22384 1262600641
0.369387 0.180401 1.21231 1262469055
-0.41172099 0.118296 0.78706902 1261876918
0.357667 0.187831 1.25018 1262929606
0.357099 0.18730099 1.23481 1262666434
-0.41595599 0.123631 0.807127 1261679539
-0.510171 0.171739 1.12156 1262074297
0.357225 0.189145 1.23525 1262469055
-0.416778 0.135452 0.85231501 1261547953
0.35209 0.19946299 1.24417 1262600641
0.23881599 0.223372 1.3810199 1261876918
-0.41422501 0.137844 0.84441799 1261942711
-0.40006599 0.13658699 0.836707 1262403262
-0.20032699 0.223294 1.3684 1260561058
0.30806699 0.24868 1.51069 1261416367
-0.21163601 0.225723 1.35929 1260758437
-0.190492 0.22563601 1.35877 1260626851
-0.18293799 0.224123 1.34965 1260429472
0.353257 0.206182 1.2415 1262732227
-0.471899 0.214757 1.28212 1261284781
1.12693 -1.8765 2.2268 1260890023
0.96587598 -0.86862099 1.76807 1260758437
0.37746799 0.209002 1.1962399 1261482160
-0.44043601 0.222983 1.26595 1259639956
-0.32352999 0.227713 1.29282 1258718854
-0.17544501 0.238911 1.35642 1258389889
-0.43390599 0.229655 1.29328 1258982026
-0.29415599 0.23329499 1.31378 1258521475
-0.574238 0.225995 1.26243 1262140090
0.158108 -0.925668 1.59632 1260166300
-0.0941872 0.25239101 1.39868 1257567476
-0.63482898 -1.53743 2.01808 1260232093
0.10774 -0.38040999 0.97185498 1261218988
0.102148 -0.37005699 0.97560501 1261284781
-0.52963698 0.23413301 1.2872 1259376784
-0.53345698 0.23591 1.28679 1258982026
-0.059599999 -3.73739 2.6770501 1260561058
0.19737899 -0.54365999 1.03977 1261284781
-0.19137 -3.6380601 2.6361799 1260495265
0.438595 -1.40319 1.5698 1258784647
0.37787899 -1.7146 1.71553 1259245198
0.39886799 -1.94652 1.8214999 1259113612
0.34977201 -1.90969 1.8064899 1259310991
-0.30749199 -0.352364 1.07259 1261153195
0.34054399 -2.1205001 1.90391 1259705749
-0.482566 -0.99394703 1.31745 1260692644
0.250487 -2.2692399 1.97596 1259771542
0.23288199 -2.33758 2.0081 1259113612
-0.39439899 0.13962901 0.749511 1261087402
0.084397398 -2.78985 2.2221601 1259837335
0.080624998 -2.8030801 2.22842 1259639956
0.023069801 -3.4902401 2.54703 1258982026
0.0093259504 -3.4521101 2.53003 1259442577
-0.182864 0.25709301 1.38069 1260626851
0.329243 -0.80636001 1.26515 1261416367
-0.133267 0.26054701 1.39925 1260758437
0.61636603 -2.6447001 2.0446999 1260232093
0.34562001 0.33599901 1.8046499 1261482160
-0.38758901 0.14974099 0.79767799 1261942711
0.32186499 -1.22373 1.44901 1259508370
-0.64534497 -1.45272 1.55813 1261547953
-0.39922601 -0.52637398 1.1818 1260758437
-0.33694601 -0.61528897 1.20608 1261745332
-0.0621006 -1.01327 1.3775899 1260363679
-0.386323 0.149919 0.79254198 1262074297
-0.53109598 -1.64141 1.64626 1261745332
0.065927103 -0.64996201 1.21552 1260561058
-0.22454099 -0.24486201 1.04722 1261153195
0.153705 -2.24508 2.49717 1261547953
-0.34939 -1.10612 1.41532 1261087402
-0.101399 -0.21038 1.02907 1260297886
0.230892 -1.14641 1.40795 1260297886
0.100288 -2.41907 2.0255201 1258324096
-0.0259763 -0.68015599 1.22224 1260626851
-0.28342 -0.6753 1.23418 1260561058
0.58387202 -4.11165 2.65624 1260626851
0.324267 -0.77211398 1.04922 1261153195
-0.996068 0.44488999 2.2671599 1261416367
-0.28951001 -0.275013 1.07328 1260100507
0.25603101 -0.67812502 1.21251 1261284781
-0.34339899 -0.47736201 1.16733 1259310991
-0.187674 -0.37624601 1.01121 1257699062
-0.38847399 0.15452801 0.77001601 1261876918
-0.29251599 -0.39339599 1.12895 1259705749
0.124077 -0.40848699 0.99826902 1260758437
-0.306261 -0.47657299 1.16725 1259508370
-0.101189 -2.32092 2.0116401 1259837335
0.265567 -6.1765699 3.77144 1259771542
0.276566 -6.1821899 3.77351 1259771542
0.478062 -6.5166898 3.91922 1259968921
-0.00212333 -1.33516 1.55375 1260166300
0.105473 -0.37601 1.0182 1261350574
0.51830101 -5.2417302 3.3304601 1259903128
0.59574503 -5.5475998 3.46806 1259903128
0.71969903 -5.9345298 3.64099 1260034714
0.56202501 -4.1500602 2.82604 1259903128
-0.314547 -0.45899901 1.15578 1259705749
-0.302109 -0.43723899 1.14648 1259442577
0.39517501 -0.709943 1.24468 1259574163
0.73546702 -3.6092501 2.56985 1259705749
0.72328001 -3.24035 2.4005301 1259508370
-0.29611799 -3.1340401 2.36554 1258324096
0.18714499 -2.59953 2.1305001 1259771542
0.29525599 -2.10745 1.89968 1259508370
0.49642101 -1.5306799 1.62288 1259047819
0.077680498 -0.77515 1.55338 1259113612
0.33713901 -2.2670901 1.97975 1260890023
0.026617801 -3.3219099 2.4869399 1260626851
0.70249403 -1.15731 1.74897 1260100507
1.29861 -2.7623999 2.81778 1260955816
0.208662 -6.27315 3.8292201 1260166300
0.305733 -6.5938902 3.9733 1260232093
-0.39441901 -0.81063002 1.3239599 1259245198
0.43058601 -1.35698 1.5509 1259771542
0.48398 -1.5815099 1.65284 1259968921
0.51732397 -5.2280698 3.3334 1260429472
0.77973199 -6.57512 3.94508 1260626851
0.71099102 -5.86871 3.6214499 1260626851
0.58004802 -4.2079701 2.8594899 1260495265
0.47990799 -0.96024299 1.36423 1259047819
0.64356798 -3.6630099 2.60499 1260297886
0.73445702 -3.0863299 2.33477 1259968921
0.51465797 -1.49369 1.60796 1259508370
0.50282502 -1.15926 1.45724 1259574163
0.55925 -2.26248 1.96558 1259968921
0.37395599 -1.0707 1.37446 1260363679
0.50154901 -1.17891 1.4687001 1260100507
0.198635 -0.56256801 1.16625 1261613746
0.50420499 -1.02803 1.39863 1260166300
1.32812 -3.88115 2.5613899 1259837335
-0.33579001 -0.79689997 1.30797 1259376784
-0.13564099 -0.24053 1.04992 1259771542
0.49774301 -0.81414002 1.43097 1261021609
-0.139708 -0.278539 1.07181 1259903128
-0.128268 -0.29934201 1.081 1260034714
0.191348 -0.82589501 1.43875 1260626851
-0.379473 -0.59898502 1.29266 1260692644
0.43322501 -2.7356601 2.1904299 1260626851
-0.43105 -0.75560403 1.38527 1261021609
1.23762 -1.89019 2.1394501 1259903128
0.52574599 -2.0195401 1.8551199 1260100507
0.55412298 -1.86323 1.7816401 1259968921
0.52887899 -1.57971 1.65116 1259771542
0.51895797 -1.5257699 1.62651 1259771542
0.55947798 -1.35308 1.545 1259837335
-0.415088 -0.64143199 1.37029 1260495265
0.47085401 -0.86693799 1.32288 1259047819
-0.29736799 -0.27690801 1.07933 1260955816
0.121142 0.359929 1.33462 1261087402
0.225604 -1.0095201 1.65021 1259968921
0.15139601 -0.78856599 1.50142 1260034714
3.07569 -4.7368898 3.8951001 1259705749
0.22948401 0.36113599 1.33909 1261284781
-0.072282299 -0.65015697 1.41129 1260824230
-0.0278583 -0.62626302 1.3947999 1261021609
0.14771999 -1.35873 1.89033 1260758437
-0.81496102 -2.1302099 2.4144299 1260297886
-0.34941199 -0.64389402 1.40588 1260495265
0.45760199 -1.1562001 1.77372 1261153195
-0.175005 -0.56830102 1.4100699 1259310991
0.38473901 -1.0048701 1.67365 1260363679
-0.00640768 -0.54242301 1.33354 1259837335
-0.53202701 -0.66281003 1.49834 1260758437
-0.253793 -0.47764701 1.29374 1261021609
0.40840399 -0.68894899 1.35242 1261284781
0.035706099 -1.64941 2.08409 1260429472
0.223768 -3.0655999 3.0412099 1260363679
2.4406199 -2.6502199 2.48649 1260758437
0.42783201 -1.28558 1.8333499 1259903128
0.090648003 -0.62663102 1.3925101 1260297886
-0.32953599 0.171041 0.60484803 1263126985
0.210085 -0.435956 1.29389 1261350574
0.52075702 -2.6668 2.15042 1259968921
-0.20231099 -0.59595102 1.36961 1260626851
-0.157951 -0.52608699 1.1519901 1260297886
0.52578503 -1.68538 1.70024 1259837335
0.351239 -0.99567902 1.33952 1261284781
0.271723 -0.58299702 1.17195 1262469055
-0.45507601 -1.03161 1.39256 1262074297
0.30469501 -0.47466299 1.30687 1260890023
0.16483 -0.51185 1.4504 1258455682
-2.1119201 -6.8629098 4.1624699 1259574163
1.51739 -2.3926401 2.56829 1259837335
2.4478199 -6.4366999 3.50859 1260232093
-0.54888397 -1.14077 1.47273 1259442577
0.0049483799 -0.38098201 1.41906 1252961966
-0.287579 -0.44098401 1.1463 1259837335
0.24765 -0.58361697 1.19463 1259968921
0.120849 -1.0135 1.39496 1258982026
-0.479056 -0.48955601 1.10131 1261416367
-0.22802401 -0.308202 1.07514 1261021609
0.29610699 -0.93861502 1.32199 1259771542
-0.060332499 -0.82168001 1.2920099 1260495265
0.63781297 -1.37005 1.54519 1259179405
0.26763001 -0.557643 1.18056 1259903128
0.36702001 -0.63866001 1.2207201 1260692644
0.30426699 -0.92726803 1.3506 1258225406
0.357382 -1.00551 1.38346 1258455682
0.59501302 -2.6845701 2.14978 1258324096
0.55280203 -2.23524 1.9479001 1258718854
0.70730102 -1.47012 1.59017 1259047819
0.495698 -0.98233998 1.37363 1258718854
1.6787 -3.3619201 3.2249401 1261218988
0.78049803 -1.21242 1.68072 1261021609
1.04415 -1.97795 2.2993 1261482160
0.458276 -0.73833102 1.46589 1260626851
0.449985 -0.75230801 1.3679399 1262205883
0.56011498 -1.36842 1.92827 1261153195
-0.440593 0.059619699 1.2277 1261547953
-0.40626401 0.072143301 1.24722 1259903128
-0.071103998 0.076941103 1.30829 1259113612
0.124701 0.093734197 1.32294 1261284781
0.28947201 0.101707 1.37652 1260495265
-0.375431 0.098427802 1.2516 1261547953
0.107741 -1.18665 1.8591599 1259837335
0.50023299 -0.803119 1.27608 1261811125
-0.46768701 0.101228 1.26781 1260890023
-0.17407501 0.116707 1.29655 1260955816
-0.50953501 0.119833 1.25474 1262337469
-0.194801 0.121783 1.26544 1260758437
-0.45062599 0.105451 0.90557599 1261021609
-0.49882099 0.13589001 1.23812 1261811125
1.19752 -2.3353801 2.5167 1259639956
0.36377901 0.156271 1.1972899 1262403262
-0.49340701 -0.39864299 1.29427 1260758437
0.36019999 0.167697 1.20927 1262666434
-0.032743402 -0.89046001 1.65174 1259179405
6.01759 -12.0764 9.0439596 1261284781
-0.153914 0.209453 1.36921 1259245198
0.13592499 -0.39800599 1.37612 1257304304
0.27335599 -0.56174099 1.16278 1261153195
-0.40947801 0.137013 0.78141397 1261021609
0.22282401 0.238681 1.49895 1260758437
-0.478457 0.21735001 1.32839 1261284781
4.7617502 -6.8046999 5.0605898 1261482160
0.59076297 -2.7160201 2.1698501 1260034714
-0.099261701 0.236903 1.45502 1260824230
-0.0134318 0.2307 1.41196 1260363679
0.54603797 -2.7158599 2.17255 1260100507
-0.163955 0.229077 1.3861001 1260100507
0.290001 0.242525 1.48228 1261284781
0.63610297 -3.6651599 2.6010001 1259574163
0.231418 0.233734 1.39364 1260561058
0.35387999 -0.83272499 1.30356 1258982026
0.27851599 -0.74011397 1.26604 1259179405
1.20114 -4.6521201 2.8728499 1260561058
-0.40101001 0.231876 1.30349 1258389889
-0.35959199 -0.399102 1.11972 1261745332
-0.50936902 -1.03548 1.39047 1261482160
0.28293899 -0.59276903 1.19919 1257304304
0.28312901 -0.71800297 1.22593 1262140090
0.383874 0.24585301 1.29223 1262271676
-0.217484 0.24703901 1.22648 1260955816
0.49507701 -2.1851799 1.92217 1257830648
0.49872801 -1.95119 1.81759 1258521475
0.52529901 -1.78713 1.74314 1258718854
-0.371894 0.165694 0.719625 1261613746
0.53443098 -1.72963 1.7158099 1258587268
-0.65178102 0.324094 1.5275 1261087402
0.53147203 -1.54404 1.63261 1259113612
0.265266 -0.59100002 1.1856 1262469055
0.53721201 -1.47427 1.59969 1258916233
0.48341301 -1.3038 1.52349 1258784647
0.52301401 -1.31037 1.52403 1258653061
0.54549903 -1.2517 1.4952199 1258389889
0.547499 -1.12938 1.43796 1258093820
0.50450802 -0.98416603 1.37289 1257699062
-0.34222999 0.170237 0.63190901 1261087402
0.50313801 -1.47417 1.60467 1260100507
0.496445 -1.23263 1.49184 1259639956
0.53444803 -1.20515 1.47655 1259376784
0.49284101 -1.08319 1.42206 1259376784
0.53937602 -1.1303 1.44115 1259245198
0.47474501 -1.95989 1.83784 1260890023
0.29232901 -0.557046 1.19947 1260692644
-0.42028201 0.34536901 1.23332 1258521475
-0.45446599 0.346569 1.23149 1259179405
-0.413008 -0.42140901 1.31163 1261416367
0.38236901 -0.66090101 1.35527 1261087402
1.12763 -1.6929801 2.0000899 1261153195
-0.298473 0.168882 0.52415901 1262271676
0.185784 -0.59105599 1.39122 1260297886
-0.399418 -0.67749101 1.48506 1261218988
0.27321199 -0.53056401 1.35552 1261021609
-0.420389 -0.74508601 1.53668 1261153195
0.23752899 -0.47519699 1.3206 1261350574
-0.060457598 -0.51933402 1.3684601 1260232093
-0.037428401 -0.59030402 1.4203399 1260429472
-0.025199501 0.0299407 1.7235399 1260692644
0.16627599 0.073436797 1.29676 1260626851
0.137022 0.0737333 1.32054 1260232093
0.37317699 0.16425 1.20689 1260692644
0.147074 -0.84586197 1.8937401 1255198928
0.58506602 -1.00652 1.6919301 1262205883
5.7011199 -9.6209698 7.3709698 1260626851
-0.42772299 0.0522434 1.11481 1261284781
0.476327 -1.11202 1.1288 1261021609
-0.34380999 0.076522201 1.27443 1260166300
0.17057499 -0.86429 1.9164799 1252830380
-0.087493397 -0.743622 1.27086 1259574163
-0.55852598 -0.912521 1.35809 1261021609
0.34749001 -1.05941 1.36859 1260429472
0.35018399 0.146588 1.40756 1260297886
0.123304 -1.43744 1.58433 1258653061
0.36854899 0.16874 1.20399 1261745332
0.274676 -0.75876302 1.27326 1259376784
0.97290498 -2.16082 2.42904 1262140090
0.26618901 -0.64979398 1.22413 1259705749
0.28778899 -0.92699498 1.35094 1258521475
0.27568299 -0.84540701 1.31438 1258455682
0.56442899 -4.0876698 2.79371 1259376784
0.55073202 -3.5653999 2.55388 1258982026
0.264027 -0.59294099 1.1781 1263061192
0.57013601 -2.7354801 2.1751599 1259245198
0.0960114 -0.75409001 1.26013 1260363679
0.52051401 -2.2052 1.93299 1258653061
0.50549197 -1.94168 1.81207 1258225406
0.51009601 -1.91117 1.79764 1257962234
0.55715603 -1.10699 1.43159 1259903128
0.41047099 -1.49516 1.61154 1257962234
0.45137799 -1.52766 1.62397 1257567476
0.57187802 -2.45597 2.0502501 1259376784
0.28437999 -0.557836 1.19715 1258916233
0.56698298 -2.0934999 1.88229 1258982026
0.49682301 -1.85813 1.77745 1258982026
0.55821002 -1.97562 1.8280801 1258850440
0.445732 -2.3108499 1.98344 1258324096
-0.40070099 -0.60281998 1.25273 1260495265
0.48377001 -1.57857 1.65152 1259245198
0.50775898 -1.58513 1.65301 1259113612
0.49875 -1.5391001 1.63213 1259047819
0.61727899 -1.6441 1.6736 1258653061
0.0119992 -1.69582 2.1256199 1261350574
0.53840798 -1.37205 1.5518 1258587268
0.55936998 -1.40484 1.56576 1258916233
0.57753497 -1.10857 1.42652 1257962234
0.57575703 -1.3795201 1.55562 1259310991
0.57738501 -1.35501 1.54405 1259442577
0.57827801 -1.31425 1.52494 1259245198
0.59614003 -1.2544301 1.4958301 1259376784
-0.074768998 0.11507 1.3046401 1260824230
-0.322925 0.071409099 1.18841 1260166300
0.922876 -1.4167 1.78111 1261811125
0.83844399 -1.29289 1.70995 1261416367
0.299541 -0.54591298 1.28359 1261087402
0.67860299 -1.59517 1.78462 1261087402
0.42254201 -1.37589 1.8923 1260824230
0.23243999 -1.23303 1.80834 1260955816
-0.114975 -0.82707202 1.42514 1259968921
0.79204297 -1.86858 2.22123 1261087402
0.47153899 -1.2805099 1.83489 1261811125
1.34368 -2.5980699 2.7045701 1260495265
1.1415401 -2.4607501 2.62378 1261416367
0.89583802 -1.738 2.1364701 1261218988
0.898296 -1.72208 2.1254499 1261416367
1.01704 -1.8295799 2.19487 1260561058
1.06249 -1.52792 1.9860801 1259574163
0.34319499 -0.60126799 1.28848 1262337469
0.37647399 -0.64730698 1.3163199 1262008504
0.54377401 -1.60676 2.0630701 1261876918
0.940593 -1.77301 2.1630399 1261416367
0.0106537 -1.01315 1.25591 1259837335
1.01376 -1.84926 2.21293 1261218988
0.91876799 -1.43142 1.92855 1260495265
1.00357 -1.78977 2.1765699 1261547953
0.82700002 -1.43565 1.93832 1260955816
0.086805798 -0.80331999 1.57081 1260363679
0.748115 -1.22182 1.79345 1260890023
0.84007299 -1.4902 1.98283 1261679539
-0.060609199 -0.47470701 1.33489 1260363679
0.31210101 -0.50386798 1.31611 1260363679
0.32958099 -0.909738 1.61366 1261745332
0.73017597 -1.13362 1.76183 1260955816
0.335071 -0.63160098 1.42459 1262008504
-0.234173 0.100815 1.30002 1260692644
-0.32333899 0.0680141 1.25809 1260100507
0.33967799 -0.594859 1.2962101 1261284781
0.022285299 -0.588682 1.41172 1260495265
0.025774401 -0.59667403 1.41752 1260626851
-0.480883 -0.41414899 1.31946 1260758437
-0.26150501 -0.79559201 1.69795 1260100507
-0.37989801 0.075536303 1.3324 1258982026
0.48397899 -0.866238 1.81161 1257041132
-0.60765201 0.23159599 1.33058 1262534848
-0.0077426299 -0.38385901 1.4225 1255593686
0.0115758 -0.33254501 1.3691601 1254409412
0.142648 -0.391332 1.43705 1256777960
0.216134 -0.53033799 1.5856 1256777960
-0.56581002 0.120209 1.39115 1261547953
0.21717399 0.10382 1.35163 1260363679
0.103205 0.070135802 1.2984999 1260034714
0.044724301 0.0704384 1.30555 1260429472
-0.18829601 0.24776 1.3632801 1257962234
-0.43438801 0.25369999 1.38106 1259179405
-0.50242901 0.26169401 1.43682 1259310991
0.0148865 0.24313401 1.36473 1258225406
-0.0136181 0.24394099 1.36778 1258093820
-0.160824 0.20850401 1.33868 1259376784
-0.092905797 0.162668 1.41141 1258653061
-0.48899099 0.099327698 1.33987 1260758437
-0.42956999 0.050632998 1.1196001 1261416367
-0.54280901 0.144797 1.28194 1261679539
-0.36271501 0.097678304 1.29605 1261613746
-0.45726499 0.096369296 1.33289 1260429472
-0.38085499 0.1425 0.71982199 1260363679
-0.47916499 0.0961674 1.33952 1260429472
-0.398276 0.137144 0.80062503 1260824230
-0.38323399 0.147321 0.75503099 1261745332
-0.55184799 0.201188 1.16712 1262403262
0.378169 0.27000201 1.15001 1260297886
-0.49728999 0.101694 1.30918 1260561058
0.50750899 0.308485 1.76406 1258850440
-0.52363199 0.105867 1.34095 1261218988
-0.52610999 0.26108599 1.48666 1258093820
-0.0195932 0.0579216 1.33719 1260232093
-0.40849 0.249005 1.3853101 1257962234
-0.34870401 0.097822398 1.28342 1261876918
0.37685499 0.229433 1.17756 1261021609
-0.39369801 0.097003996 1.3233401 1261679539
-0.30275801 0.24156 1.3291399 1257304304
-0.32567099 0.17563599 0.60008699 1261811125
-0.37389901 0.243231 1.34351 1257041132
-0.32787001 0.17584901 0.60737699 1261745332
-0.33276099 0.17575 0.62312901 1261745332
0.106502 0.22572801 1.19621 1259047819
-0.106065 0.24145401 1.3704 1258587268
0.44022599 0.24336299 1.47403 1261350574
0.14350399 0.241501 1.36726 1258718854
-0.367899 0.213686 1.30553 1260626851
-0.27070901 0.22658999 1.33834 1260100507
-0.27041501 0.21117499 1.36742 1259508370
0.081026301 0.104525 1.34895 1260626851
0.142802 0.073062301 1.29527 1260626851
0.100842 0.24187601 1.37938 1258784647
-0.098408401 0.161227 1.3806601 1258093820
-0.086522102 0.075244702 1.30108 1258982026
-0.51017803 0.199581 1.10426 1261745332
0.35478401 0.216646 1.34753 1261416367
0.31171399 0.17243101 1.36388 1261482160
0.37618601 0.185624 1.19234 1259639956
-0.0344745 0.167123 1.12506 1260297886
0.35542899 0.15867101 1.3693 1259705749
-0.57113802 0.124157 1.39387 1261021609
-0.367576 0.123491 1.38399 1261613746
-0.390892 0.14795201 0.81032699 1260232093
0.122525 0.097326502 1.35253 1261021609
-0.373254 0.100324 1.2850699 1261416367
-0.397493 0.099862397 1.2887599 1261416367
0.026069701 0.079283103 1.32901 1259837335
-0.53247201 -0.33174899 1.39344 1261087402
-0.23514301 -0.276061 1.4288501 1259179405
-0.50321603 -0.56375998 1.77571 1257962234
0.201996 -0.294792 1.82029 1257172718
-1.12158 -2.85776 4.64115 1258389889
-0.917319 -2.0584099 3.6417601 1259442577
-0.083174698 -0.219501 1.58698 1260363679
-0.28746399 -1.00222 2.3413701 1258982026
-0.41821501 0.10383 0.903153 1262205883
-0.0069435202 -0.48524299 1.42221 1258389889
0.090322301 -1.02948 2.20152 1259310991
-0.24083699 -0.55477202 1.4604599 1259705749
0.36903 0.156409 1.1932 1259442577
-0.185472 0.118296 1.28411 1260429472
-0.0221378 -0.36768901 1.37082 1259047819
-0.59189498 0.0943022 1.51204 1260758437
0.137586 -0.216564 1.63451 1258324096
-0.498945 0.098770298 1.36219 1260692644
-0.102308 0.064354502 1.2435 1260824230
-0.51066202 0.086185403 1.43821 1260166300
0.15642001 -0.84422803 1.71995 1256383202
-0.390912 0.085642599 1.3207901 1259442577
-0.34687901 -0.257236 1.01369 1260495265
0.31874201 -0.57377601 1.2993 1261021609
0.023961401 -0.381347 1.49868 1257041132
-0.30705401 -0.340453 1.51244 1258982026
-0.73262501 -1.3734699 2.7853799 1258982026
-0.116689 -0.50752801 1.71551 1259047819
-0.79689097 -1.35566 1.80827 1260297886
0.61666602 -1.54942 3.04761 1254277826
-0.0024124701 -0.73877901 2.0083599 1257699062
0.243255 0.090986498 1.35579 1259179405
0.184168 -0.37849301 1.4189 1258455682
0.092753097 -0.416715 1.34503 1258587268
0.185954 -0.44624999 1.41283 1256120030
0.36326399 -0.36018899 1.38455 1261087402
-0.48748001 -0.648875 1.69371 1260626851
-0.25668001 0.084152602 1.18747 1258916233
-0.237177 -0.85521698 2.14851 1259245198
-0.041972101 -0.366523 1.3949701 1259508370
-0.176613 -0.22772799 1.3896101 1260890023
-0.33470601 -0.25316599 1.40495 1259310991
0.0648764 -0.215638 1.40885 1259771542
0.401981 -1.06189 1.36058 1261679539
0.149634 -0.230711 1.45541 1258982026
0.320465 0.10238 1.36216 1259968921
-0.553994 0.084309898 1.49484 1259508370
-0.121425 -0.154301 1.4101599 1260166300
-0.089668296 0.075534999 1.3046499 1258718854
-1.79257 -5.09131 3.2401199 1258850440
0.30932501 -0.698874 1.2298599 1261547953
0.47681999 -0.95809501 1.33113 1262337469
-0.205074 -0.98952103 2.3157699 1259837335
-0.26903 -0.97587699 2.2920401 1259968921
-0.0195616 -0.34774199 1.38889 1255067342
0.44848901 -1.01991 1.28811 1260890023
0.29947299 -1.1217901 1.9411401 1258850440
0.0039669699 -0.58959198 1.41552 1260166300
-0.36065799 -0.52068901 1.1720099 1261021609
-0.103667 -0.47810099 1.63305 1261218988
0.824368 -1.33557 1.87099 1260495265
-0.30856901 -0.38032001 1.11476 1261350574
1.0906399 -1.63779 2.0655401 1260232093
1.06596 -1.62406 2.0569501 1260297886
0.33810899 -0.80946499 1.29005 1259639956
-0.56294602 -0.92718601 1.63118 1259771542
0.235695 -0.57617003 1.19357 1259047819
-0.156941 -1.02802 1.66782 1260429472
0.279275 -0.78335899 1.28503 1258982026
-0.10772 -0.418401 1.49795 1261021609
0.28884801 -0.77547097 1.28249 1258850440
0.43611899 -0.88025498 1.28396 1260890023
0.48881999 -1.62407 1.67331 1259376784
0.66428 -2.1412599 1.90176 1259508370
0.62017298 -2.3701799 2.0099001 1259310991
0.60337901 -2.0388 1.85429 1258653061
0.56821603 -2.0250001 1.84996 1258718854
0.54456902 -1.98791 1.8343 1258784647
0.58081001 -2.1445999 1.90421 1258850440
0.499093 -1.1043 1.43082 1258982026
0.60935599 -2.4841199 2.0585999 1258916233
1.58942 -3.2082801 2.2011299 1261811125
0.52997899 -2.0612199 1.86509 1258324096
0.72022301 -1.34929 1.46943 1262534848
0.55618799 -2.30598 1.97566 1258455682
0.366768 -0.55670601 1.39924 1261218988
-0.150272 -0.38809699 1.3610801 1259968921
0.50511402 -1.12708 1.44313 1259508370
0.59241301 -1.1263601 1.43776 1259310991
-0.057439201 0.0693845 1.2824 1260100507
0.51264203 -1.03554 1.4025199 1260034714
-0.197375 -0.32824501 1.3846 1261153195
0.49557099 -2.37361 1.98237 1258587268
0.31828699 -0.62574798 1.23603 1260232093
0.33107901 -0.584948 1.28023 1262008504
0.33661601 -0.65217602 1.24764 1260034714
0.27897301 -0.54059201 1.19751 1261153195
0.35762799 -0.62162602 1.3026201 1262008504
0.30840099 -0.62048501 1.2354 1259903128
0.79215401 -2.6495399 2.12115 1258521475
0.505265 -1.1138999 1.42026 1259113612
0.27894399 -0.53920001 1.19924 1261811125
1.1824 -4.4130702 2.9175999 1259376784
1.15903 -4.1809602 2.8117199 1259245198
0.58086097 -0.936535 1.48799 1261876918
0.88440102 -3.01249 2.2881899 1259179405
0.75364399 -2.4416599 2.0321801 1259047819
0.77540398 -2.4018199 2.0124199 1258916233
-0.244069 -0.333262 1.50293 1259508370
0.64294702 -1.68446 1.68881 1258587268
0.52491498 -0.86529398 2.1724501 1256383202
0.63259 -1.6185499 1.6589299 1258587268
0.99888998 -1.52222 1.85094 1261350574
0.63428003 -1.60155 1.65098 1258653061
0.632586 -1.57118 1.63702 1258653061
1.11604 -1.68779 1.95759 1261547953
0.633919 -1.53531 1.62035 1258653061
0.31095499 -0.60022902 1.20134 1256120030
0.60901099 -1.31296 1.5190001 1258587268
-0.00413357 -2.62515 4.4930401 1260100507
2.3370099 -8.9573898 4.9639902 1259903128
0.858051 -1.42787 1.92618 1260363679
0.70689601 -1.27996 1.5002 1258389889
2.96663 -23.1199 11.342 1258521475
0.90286797 -5.5941501 3.4519701 1258455682
1.0084 -2.7099199 2.1505001 1259903128
-0.0076443399 -0.53976101 1.36658 1261416367
0.88577098 -2.0996201 1.87366 1259705749
0.86562002 -4.7216501 3.0550799 1258225406
0.85998499 -4.4704599 2.9403901 1258093820
0.87268299 -1.93572 1.79809 1259705749
0.81696701 -3.8956201 2.6870201 1258653061
0.140893 -0.476625 1.33952 1260955816
1.5462101 -5.2621498 3.9136 1259771542
0.069266103 -0.96748102 1.51934 1260955816
0.25628299 -4.7287898 4.1735401 1261482160
0.38591301 -4.67452 4.1320801 1261613746
0.452115 -0.75570703 1.38193 1262008504
-0.0458095 -0.45192301 1.31322 1260363679
-0.0145527 -0.58477902 1.40844 1260363679
-0.062274799 -0.49329901 1.34641 1260758437
0.062558703 -0.75994599 1.53676 1260297886
-0.46485099 0.071589097 1.2555 1259705749
-0.200541 -0.43389899 1.40572 1260495265
-0.0034556801 -0.388971 1.4271801 1255198928
0.00544457 -0.438059 1.48081 1256383202
0.36570001 -1.31581 2.4663401 1250725004
0.63718301 -2.1071501 3.35467 1252830380
1.6426001 -4.8606701 6.3845501 1253488310
0.0350748 -0.58499402 1.506 1258916233
0.313326 -0.075780302 1.42305 1258718854
0.29959601 -0.51957798 1.26642 1262008504
0.17439 -0.46630201 1.35259 1261416367
0.0110536 -0.42346099 1.45793 1256120030
0.079544403 -0.61764097 1.6569 1255593686
-0.048537299 -0.82391697 1.59562 1260495265
-0.00154553 -0.382103 1.4170001 1255462100
-0.0036293601 -0.395078 1.43625 1254540998
-0.0173217 -0.35939699 1.40055 1255856858
-0.019293901 -0.35132501 1.39487 1253356724
0.433227 -1.54248 2.7228799 1252040864
0.56925702 -1.8986599 3.1132901 1252040864
0.45880499 -1.6354899 2.83009 1250461832
-0.153956 0.090492897 1.17962 1259442577
0.111236 0.089864403 1.47121 1258324096
-0.23607901 0.102202 1.04357 1258784647
-0.43595901 0.0486302 1.19183 1260166300
0.33516899 0.0110009 1.42775 1261284781
-0.32160601 -0.0843409 1.7251199 1259574163
0.331893 0.041570898 1.4395601 1261153195
0.36578399 -0.048453201 1.5668 1259245198
0.32812399 -0.30926299 1.39169 1262534848
-0.64148301 -0.17342199 1.62299 1261416367
0.36896801 -0.098106198 1.47153 1258850440
-0.466252 -0.0857464 1.41934 1257567476
-0.51164502 -0.130979 1.5286 1258225406
0.35611501 -0.081289597 1.4101501 1260626851
-0.32955301 0.077423498 1.18152 1258982026
-0.019065 -0.321729 1.40045 1254804170
-0.45732799 -0.082062602 1.4072599 1257567476
0.281876 -0.095889002 1.48787 1257699062
0.988599 -6.1668501 8.37852 1260034714
0.37116301 -0.313416 1.5003099 1262074297
-0.212256 -0.47596201 1.70367 1259705749
-0.32208699 -0.32913399 1.52323 1260824230
-0.25356099 -0.424099 1.3925101 1257962234
0.38698199 -0.091352098 1.44464 1260824230
0.32797399 -0.58394098 1.90813 1257962234
0.29976499 -0.0850612 1.45762 1258850440
-0.215562 0.0621127 1.1318001 1259047819
0.41505101 -0.097736098 1.4669 1260890023
-0.470056 -0.271359 1.39257 1259837335
-0.37972799 -0.0297886 1.0708801 1261087402
0.0104289 -0.341461 1.5556 1258455682
0.34491801 -0.0524862 1.43308 1257962234
0.46638399 -0.117459 1.53574 1259837335
0.51272303 -0.131962 1.58136 1260034714
-0.43791899 -0.108008 1.4514101 1257304304
-1.19221 -0.48314101 2.67945 1256514788
-0.92443103 -0.31479701 2.1944301 1257962234
-0.56445098 -0.159786 1.61725 1256120030
0.27518201 0.042546 1.1391799 1260692644
-0.46630999 -0.099519998 1.45402 1255856858
-0.206747 0.032148801 1.17047 1259574163
0.330185 -0.041111201 1.51068 1257830648
0.32675099 -0.032237299 1.48795 1258653061
0.49163201 -0.36170501 1.9959199 1254409412
0.37501201 0.0258126 1.67156 1255462100
0.38064399 0.064169697 1.51738 1258455682
-0.213543 0.092730202 1.0911601 1258916233
-1.49485 -1.49199 2.6517799 1260363679
-0.52762097 -0.43901601 1.27606 1260100507
0.52146298 -0.50491202 1.23824 1261021609
0.51523 -0.478421 1.23163 1261087402
0.84841502 -0.80612397 1.48528 1258982026
1.40403 -0.64973003 2.9707799 1256909546
-0.43307799 -0.28142101 1.3872 1260232093
-0.51866001 -0.42603499 1.50046 1259968921
-0.60095501 -0.280835 1.48936 1259771542
0.067027003 -0.16869 1.43613 1257567476
-0.095579296 -0.13371 1.44152 1258718854
-0.408472 -0.147981 1.45881 1260890023
-0.107969 -0.124472 1.43277 1259771542
0.40927401 -0.25539601 1.7416199 1257567476
-0.064429902 -0.286838 1.73008 1259442577
0.12714399 -0.173747 1.56662 1251909278
0.0357957 -0.132221 1.43782 1257830648
-0.45432001 -0.12872 1.43952 1261811125
0.143895 -0.16332699 1.5476 1251119762
-0.170976 -0.13633101 1.44587 1259508370
-0.109685 -0.149023 1.4799 1259903128
-1.10054 -0.988132 3.4117301 1257435890
-0.175978 -0.170736 1.52504 1260100507
5.7231998 -3.0309801 9.1360102 1255988444
-0.306739 -0.110924 1.442 1255856858
-0.0337197 -0.119666 1.43217 1255330514
0.116362 -0.15806399 1.53193 1253488310
-0.141784 0.0616882 1.12167 1258521475
0.69484401 -0.33641899 2.0666201 1254672584
-0.51632702 -0.39730999 1.38355 1260034714
-0.57310301 -0.433139 1.40853 1260100507
