# .PCD v0.7 - Point Cloud Data file format
VERSION 0.7
FIELDS x y z rgb
SIZE 4 4 4 4
TYPE F F F U
COUNT 1 1 1 1
WIDTH 1124
HEIGHT 1
VIEWPOINT 0 0 0 1 0 0 0
POINTS 1124
DATA ascii
-0.21074601 -0.0358481 0.97558999 1261350574
-0.214022 -0.0474228 0.98922801 1260955816
0.0377944 -0.171354 1.04231 1261942711
-0.0592006 -0.039020602 0.96619397 1261876918
-0.090668499 0.039273299 0.93877703 1260363679
-0.112335 0.055576701 0.92279202 1260363679
0.120606 -0.28794 1.09376 1261547953
0.123515 -0.29245201 1.09756 1261942711
-0.107553 0.050275199 0.92635101 1260955816
-0.109003 0.052488402 0.92502803 1260429472
-0.210722 -0.036488701 0.97747397 1261021609
0.102588 -0.266202 1.11538 1260824230
-0.108488 0.051485199 0.92575699 1260758437
0.024556899 -0.152694 1.03573 1262008504
-0.112292 0.058168501 0.92507797 1261218988
-0.110448 0.054366902 0.92439902 1261021609
0.13333701 -0.30717501 1.10482 1262205883
-0.13240799 -0.44539899 1.20392 1260297886
-0.126506 -0.47925699 1.22262 1260297886
0.038125999 -0.170733 1.0459599 1261482160
-0.119981 0.066281103 0.91812599 1261482160
-0.20355301 -0.020302201 0.96355802 1261021609
-0.129697 0.070441797 0.913405 1260824230
-0.107595 0.0573024 0.92641997 1261284781
-0.108549 0.059739199 0.92504501 1259047819
-0.083473399 0.0349265 0.943811 1261284781
-0.079189099 -0.0100372 0.95529598 1261745332
-0.0619555 -0.103097 0.98831999 1259771542
-0.082942799 0.034319099 0.94436401 1260429472
-0.203329 -0.0199345 0.96402198 1261153195
-0.077841297 0.021749301 0.95363098 1260692644
0.173374 -0.363318 1.13993 1262074297
-0.206324 -0.0209873 0.96511602 1261218988
-0.29781801 -0.31178799 1.09641 1261021609
-0.165793 0.040574402 0.90948999 1258455682
-0.16570801 0.0421126 0.90925199 1257699062
-0.088015303 -0.0054922998 0.94619203 1260166300
-0.025244299 -0.0196629 0.99307799 1261284781
-0.092354402 0.0082351696 0.93993098 1261218988
0.23063201 -0.456359 1.19784 1261745332
-0.031395301 -0.015978601 0.99062598 1260890023
-0.110921 0.052742299 0.92364901 1261679539
-0.19503801 -0.36304 1.21259 1260955816
-0.184862 0.046861202 0.91695303 1261679539
-0.140164 0.083857 0.90719098 1261087402
0.058904201 -0.149831 1.09167 1261284781
-0.171013 -0.064955898 0.93647701 1259508370
0.226687 -0.43709201 1.19173 1262074297
-0.068879902 0.0230732 0.95485598 1260232093
-0.066165298 0.022461301 0.95566797 1260297886
-0.0667831 0.021581599 0.95648003 1260692644
-0.067657597 0.023924399 0.95487601 1259837335
-0.178703 0.0174978 0.95225197 1259442577
-0.129017 0.025038499 0.94107002 1260758437
-0.109352 0.035436001 0.93502599 1261811125
-0.068912603 0.013902 0.96222502 1261087402
-0.19727001 -0.284789 1.19856 1261350574
-0.083709598 -0.111152 0.982198 1258916233
-0.063724302 0.0218447 0.95710897 1260692644
-0.060527001 0.0045089698 0.96811098 1261482160
-0.090577602 0.027143201 0.93978602 1260429472
-0.067118302 0.0143903 0.96299303 1261547953
-0.130548 0.0773293 0.91142797 1259705749
0.043436401 -0.30440599 1.18961 1260890023
0.135133 -0.229597 1.16021 1261284781
-0.060766701 0.0088383304 0.96579701 1261679539
-0.100269 0.051658802 0.93014002 1260100507
-0.058491699 0.0165071 0.962138 1260824230
-0.088871397 0.0506224 0.93651301 1261087402
0.0230815 -0.059073702 1.02947 1260955816
-0.055684399 0.00407374 0.97147202 1260297886
-0.054594401 0.00143311 0.971784 1260890023
0.0768051 -0.167151 1.11134 1261284781
0.044211399 -0.083641298 1.05233 1260824230
-0.197945 0.00166016 0.95799297 1261087402
-0.136971 0.086477101 0.90834099 1260166300
-0.062433399 0.013374 0.96529901 1262074297
-0.213541 -0.022165 0.99004698 1261350574
-0.0494502 0.0141204 0.96496701 1260100507
-0.00043498 -0.064356297 1.03926 1261021609
0.102478 -0.122931 1.08793 1261613746
-0.091898702 0.048507899 0.93596601 1261153195
-0.021331999 -0.034958601 1.0162801 1258653061
-0.067049801 0.0112939 0.961761 1260824230
0.111344 -0.138926 1.10437 1261153195
0.14391001 -0.162919 1.12455 1260824230
-0.179694 0.068453498 0.91412002 1261284781
-0.218096 -0.057826001 0.99608499 1260692644
-0.111831 0.058295701 0.92990297 1261547953
-0.189548 -0.115492 0.99835598 1259508370
-0.27574 -0.111751 1.07862 1261153195
-0.219478 -0.0330569 0.999053 1260824230
-0.169 0.072637603 0.89825302 1259639956
-0.048805401 -0.00261907 0.97684699 1260890023
-0.065868303 0.018479999 0.96372801 1261811125
-0.071665697 0.0100116 0.98381901 1261416367
-0.0435155 -0.0333592 1.01694 1261811125
-0.0088087805 -0.104775 1.0114 1261087402
-0.074928403 0.036357202 0.94876301 1260561058
-0.034061901 -0.0159752 0.99034899 1261416367
-0.17129 -0.087782502 1.02651 1260758437
-0.113255 0.0299637 0.90358198 1261021609
-0.0284582 -0.019164899 0.99309403 1261416367
-0.070431501 -0.088380903 1.07407 1258093820
-0.110356 0.024477599 0.90560502 1261350574
-0.036201101 -0.124092 1.11728 1255067342
-0.047807898 -0.0029849601 0.97795701 1261153195
-0.100716 -0.151436 1.14235 1257962234
-0.016659601 -0.134783 1.11912 1258389889
-0.31034601 -0.224889 1.15132 1260955816
-0.097201303 0.0061608902 0.90992999 1261087402
0.119923 -0.28606501 1.09504 1261416367
-0.065554202 0.032028001 0.95251602 1260100507
-0.054743499 0.0292495 0.95729601 1261811125
-0.02472 -0.0182427 0.99435002 1261153195
-0.099337399 0.0111844 0.91127998 1261087402
0.056393702 -0.134012 1.08479 1259508370
-0.16133501 0.075793698 0.89758497 1259574163
-0.207589 -0.33324099 1.23952 1261021609
0.027873799 -0.157601 1.0210201 1261416367
0.035817299 -0.115574 1.07099 1260890023
0.107471 -0.131735 1.10191 1261482160
-0.021426 -0.0260881 1.00115 1260626851
-0.050716601 0.0263412 0.96021497 1261679539
-0.16195901 0.076652803 0.89756298 1260166300
-0.28774199 -0.19851001 1.11884 1260692644
-0.121213 0.041929401 0.90106899 1261876918
-0.15970001 0.076926999 0.89737099 1260232093
-0.102896 0.021949699 0.91433299 1261679539
-0.00304988 -0.0392581 1.01298 1260692644
0.0877406 -0.241542 1.0566601 1261218988
0.025002901 -0.066297501 1.03671 1261745332
-0.107461 0.043984901 0.92639703 1261350574
-0.15673099 0.077588998 0.89708698 1259771542
-0.136767 0.066668697 0.896083 1261416367
-0.081021897 -0.023288 0.97992599 1259903128
0.00026761001 -0.27035001 1.23923 1258455682
-0.13234399 0.0593559 0.89723802 1261876918
0.167686 -0.39127001 1.09438 1260363679
-0.17539699 0.045451902 0.93421799 1259837335
-0.11669 0.035516299 0.90314102 1261416367
-0.072006904 -0.122348 1.11093 1257962234
-0.12965199 0.055113301 0.89820701 1262008504
-0.076550297 0.0161843 0.95392698 1261416367
-0.153152 0.078704998 0.89669901 1259508370
-0.076287903 -0.110331 0.98137403 1259047819
-0.15268999 0.077873103 0.89677602 1259771542
-0.086245202 0.023115501 0.94483298 1261613746
0.088736601 -0.120218 1.0869499 1261482160
-0.128773 0.053869098 0.89844102 1261284781
-0.16446701 0.095656998 0.90530902 1259968921
-0.121357 0.042360101 0.90101999 1261087402
-0.115836 -0.174768 1.21402 1258225406
0.122821 -0.143448 1.10849 1260692644
-0.17357001 0.087640204 0.89698201 1261218988
-0.0045397999 -0.118 1.10992 1257172718
-0.17362 0.087608002 0.89701998 1261547953
0.224638 -0.230527 1.1848 1260363679
0.158289 -0.352889 1.13025 1261942711
0.157116 -0.34079799 1.12304 1262074297
-0.184641 0.041731901 0.926534 1261087402
-0.0127617 -0.104703 1.0983 1257304304
0.0142452 -0.30425999 1.26512 1258718854
-0.18363 0.053165998 0.91432899 1261547953
-0.158457 -0.17357901 1.1594599 1255856858
-0.18202899 0.050528198 0.91073602 1261547953
-0.01198 -0.163715 1.15404 1255593686
-0.183672 0.052815899 0.91436499 1261876918
-0.178193 0.046831802 0.90928501 1260890023
-0.10368 -0.109209 1.1013499 1258455682
-0.235489 -0.0972846 1.08724 1261350574
-0.100911 0.0541333 0.94070798 1261942711
-0.18361799 0.05297 0.91381198 1260626851
-0.257204 -0.14148 1.10262 1261547953
-0.065092102 -0.149508 1.1408 1256251616
-0.203732 -0.169651 1.1463799 1260429472
0.0127165 -0.13673501 1.00888 1260955816
-0.177806 0.0475717 0.90969402 1261350574
-0.0104803 -0.14605001 1.12922 1258455682
-0.18181001 0.052245501 0.91137803 1261613746
0.26308501 -0.328962 1.30041 1259705749
-0.020530401 -0.0109683 1.01333 1261416367
-0.141112 -0.100442 0.98641002 1258850440
-0.00056126702 -0.161209 1.1446 1257699062
-0.208087 -0.0127577 1.01037 1260890023
-0.022926699 -0.0067181499 1.00992 1261547953
-0.155855 -0.38709599 1.22998 1259837335
0.054231599 -0.20101599 1.03283 1260890023
0.048596401 -0.192975 1.0442899 1261876918
0.060601201 -0.26944199 1.24435 1258653061
0.044387799 -0.18051501 1.038 1261547953
0.0462787 -0.18412 1.0409 1261942711
0.072341003 -0.15606301 1.15598 1260297886
0.0635911 -0.20726 1.05732 1261087402
-0.13681599 -0.0811681 1.06971 1259113612
0.066271096 -0.21156301 1.0601701 1261613746
-0.10332 0.042792499 0.93311203 1261547953
0.063723698 -0.207277 1.06092 1261482160
-0.0570505 -0.14524101 1.13289 1257041132
-0.166106 0.063551202 0.90957701 1260561058
0.084337503 -0.235906 1.07943 1261679539
-0.16315299 0.067349702 0.90816098 1260297886
-0.177635 0.0491754 0.90915298 1260890023
-0.152529 0.068474099 0.90747899 1259639956
-0.151016 0.070114598 0.90683001 1260034714
-0.020164 -0.028834799 1.03399 1261284781
-0.14896201 0.071391702 0.90630502 1260561058
-0.17809901 0.0468853 0.91019201 1260824230
-0.14645 0.069831803 0.90682399 1260890023
-0.229579 -0.038860898 1.0393699 1261350574
-0.033686198 0.0120577 0.99622798 1262140090
-0.18232401 0.048687398 0.91019702 1261942711
-0.0562253 0.0132057 0.99461102 1261416367
0.066888496 -0.22005001 1.0411 1260100507
-0.187499 0.058692299 0.90810502 1260561058
-0.18376499 0.049612399 0.911273 1261087402
-0.15715601 0.059436899 0.91575998 1259903128
-0.072339803 0.0282302 0.981861 1261482160
0.066234201 -0.21755201 1.0411299 1260955816
-0.0298908 -0.27285799 1.30361 1253883068
-0.227589 -0.089211501 0.94010299 1261745332
-0.050371598 -0.22719599 1.2096601 1257567476
-0.106205 -0.0496675 0.98375398 1258718854
-0.064145997 -0.139685 0.99408901 1259245198
-0.17195299 -0.054841701 1.04742 1259310991
0.081682503 -0.23148 1.09113 1261153195
-0.124038 0.062266301 0.90969402 1260297886
-0.181959 0.050080001 0.91026402 1261613746
-0.15075 -0.031263102 0.95645601 1259705749
-0.184375 0.049296498 0.912808 1260626851
-0.18174601 0.0511146 0.91006601 1262140090
-0.181116 0.016873101 0.95245099 1259310991
0.092288204 -0.246016 1.10173 1261153195
-0.18112101 0.0591342 0.91396499 1261482160
-0.17831901 0.059636001 0.90530097 1261284781
-0.182134 0.0497986 0.911134 1260626851
-0.19470701 -0.0049177902 0.96422398 1260890023
-0.086476102 0.0281206 0.948627 1261482160
-0.183909 0.0442302 0.91191202 1261876918
-0.18216699 0.050826602 0.91207898 1261942711
-0.183284 0.0447773 0.91011697 1261876918
-0.180759 0.061411601 0.91425401 1261482160
-0.17779 0.0482365 0.90937299 1260758437
-0.18163601 0.050712001 0.90954798 1261482160
-0.117846 0.059369698 0.91883898 1260561058
0.029344 -0.15988199 1.01634 1261218988
0.062284 -0.20503201 1.05644 1261416367
0.056766 -0.205557 1.03795 1261153195
-0.135967 0.0770078 0.90957898 1261021609
0.0461349 -0.183809 1.02788 1261547953
-0.123808 0.056729 0.91019303 1261745332
0.0344707 -0.166769 1.02 1261218988
-0.104999 0.0496534 0.93557501 1261350574
-0.180426 0.060491402 0.91343498 1261482160
0.067856997 -0.221196 1.06678 1261482160
-0.18167999 0.051565599 0.91054797 1261876918
0.060554001 -0.203439 1.05743 1261876918
-0.083752699 0.0278384 0.95216399 1261679539
-0.073015302 0.0237848 0.96362197 1261811125
0.061660498 -0.204715 1.05871 1261811125
0.060379401 -0.20308299 1.04422 1261482160
-0.181995 0.060872 0.91325903 1260890023
-0.182266 0.0503847 0.91162997 1262205883
-0.18252499 0.055209499 0.91540498 1261547953
0.055684101 -0.196696 1.04568 1261679539
0.0656377 -0.217659 1.06747 1261547953
-0.183264 0.055453401 0.91356802 1260890023
-0.080558904 0.025791099 0.955118 1261811125
-0.182469 0.050376002 0.91247898 1261547953
-0.0911282 0.0378034 0.94667202 1261482160
-0.18265 0.0504595 0.91279697 1262469055
-0.105763 0.037217401 0.92615497 1261416367
-0.078223698 0.032472301 0.95948702 1261679539
-0.182797 0.057260402 0.91341501 1260955816
0.112259 -0.28121501 1.11781 1261021609
-0.18659399 0.0391226 0.91681403 1261547953
-0.231664 -0.26356801 1.251 1259574163
-0.077222399 0.0238965 0.958498 1261613746
-0.085245602 0.0049799201 0.93111902 1261021609
0.096460201 -0.26055899 1.04099 1262008504
-0.13268299 0.083303198 0.91272002 1261745332
0.095667198 -0.25062001 1.10165 1261350574
-0.182514 0.0506685 0.91267502 1261613746
-0.167897 0.058413099 0.91099101 1260232093
0.131249 -0.33917099 1.07491 1260626851
-0.165379 0.062951103 0.90942103 1260034714
0.079083398 -0.22838099 1.07783 1261811125
-0.165287 -0.0198298 0.94966602 1259968921
0.065307602 -0.219189 1.04403 1260955816
0.078582697 -0.24443901 1.05678 1260758437
-0.162589 0.00079830701 0.93876803 1259639956
-0.151081 0.069290102 0.90686297 1260692644
-0.056067601 0.0122582 0.97906399 1261218988
-0.065739401 0.0156646 0.96940398 1261087402
-0.15237799 -0.17993 1.02636 1259442577
-0.052526601 0.0083612399 0.98154902 1261284781
-0.068280503 0.0181628 0.96657801 1261942711
0.0430457 -0.17938501 1.03497 1261876918
-0.162241 0.0067308699 0.93618798 1259705749
-0.17857 0.072672702 0.91003603 1260297886
-0.186814 0.044816598 0.91711199 1261284781
-0.101698 0.034059498 0.928855 1261284781
-0.127924 0.068961099 0.91535503 1261021609
-0.089599602 0.026005 0.94277799 1261350574
0.090670198 -0.243893 1.09132 1261547953
-0.066286698 0.0180682 0.96933901 1261679539
-0.156131 -0.054162301 0.96483701 1260626851
-0.138652 0.087338798 0.90818602 1261350574
-0.14571799 -0.15547 1.00862 1260955816
0.090118699 -0.242772 1.09138 1261482160
-0.17926399 0.065819398 0.91210699 1262271676
-0.202178 -0.115272 0.992549 1260495265
0.085359901 -0.23653699 1.08922 1261416367
0.098120198 -0.26621699 1.08785 1261284781
-0.081774898 -0.117265 0.98369199 1259837335
-0.104453 -0.052884001 0.985223 1259376784
0.075654402 -0.223433 1.08412 1260955816
-0.0970148 0.037121501 0.938025 1261218988
-0.058553699 -0.087020002 1.02265 1261350574
-0.181685 0.055061899 0.91306198 1261745332
0.103874 -0.28011599 1.0494601 1260363679
-0.156846 0.0379127 0.92532098 1260232093
-0.096206501 0.036588099 0.93900901 1261547953
-0.173103 -0.073133104 0.97817898 1259705749
-0.095835499 0.036447901 0.93926001 1261350574
-0.172884 0.089946501 0.90477902 1261350574
-0.074592598 -0.046000302 0.93879497 1260955816
-0.139521 0.0442582 0.93086499 1259639956
0.069782801 -0.214816 1.08322 1260692644
-0.0124546 -0.124715 0.98835701 1261482160
0.082511403 -0.26017699 1.04238 1260692644
-0.24471299 -0.139017 1.01036 1260495265
0.0150356 -0.13900401 1.01759 1261613746
-0.041821599 -0.067255802 0.99894202 1260297886
-0.0108533 -0.101645 1.01966 1260955816
-0.097143002 0.042057801 0.94094902 1261350574
-0.146658 -0.095045201 0.981372 1260495265
-0.075156704 -0.0936675 0.98416102 1259113612
0.063848101 -0.20689701 1.08321 1260692644
-0.0248076 -0.206001 1.03403 1259310991
-0.067772098 0.0170753 0.967107 1261284781
-0.15246201 0.069881998 0.90671998 1260232093
-0.099711701 0.030179201 0.930035 1261284781
-0.078763999 0.0292846 0.95755303 1261547953
-0.18257099 0.058224201 0.91691202 1261087402
-0.19500101 -0.0059584398 0.96692598 1260758437
-0.179024 0.0716765 0.91120201 1261745332
0.058442 -0.208083 1.04004 1261153195
-0.0916247 0.037734799 0.94582403 1261679539
-0.092336804 0.038617 0.94518399 1261087402
-0.17580301 0.051616501 0.913441 1259442577
0.074807197 -0.24426299 1.1101201 1258718854
-0.118407 0.058524799 0.91751403 1260626851
0.019117299 -0.15014701 1.0290101 1261613746
-0.177782 0.0468564 0.91134399 1261218988
-0.17892499 0.071370497 0.91319698 1262403262
-0.17862099 0.068570197 0.91181302 1262140090
-0.091824703 0.038194999 0.94603199 1262008504
0.0276078 -0.174137 1.01893 1258718854
-0.090350099 0.037015598 0.94710702 1261811125
0.0950322 -0.136621 1.25941 1261876918
0.047560301 -0.20993499 1.04129 1259771542
-0.16817901 0.060930099 0.91027302 1260561058
-0.165861 0.062616698 0.90958899 1260429472
-0.076881103 -0.109095 0.97990698 1259574163
-0.164307 0.063272402 0.90929902 1260429472
-0.103614 0.038646799 0.929344 1261613746
0.041773099 -0.177671 1.02736 1261218988
-0.088967003 0.0363754 0.94869798 1262074297
-0.17773201 0.072399698 0.91134 1261942711
-0.106777 0.043631501 0.92814201 1261218988
-0.144559 0.079013899 0.90340102 1259705749
-0.170169 0.058474898 0.911295 1261021609
-0.143354 0.094184503 0.90657401 1261416367
0.0292057 -0.15943 1.02204 1260824230
0.084245101 -0.246197 1.05305 1259903128
-0.16597401 0.0636639 0.909284 1260561058
-0.165252 0.063748002 0.90923202 1260495265
0.0133301 -0.12957899 0.992544 1261811125
-0.085100301 0.033474401 0.95192802 1261811125
-0.17764699 0.074737899 0.90980601 1261482160
-0.112643 0.053268 0.92540199 1261218988
-0.169258 0.060755599 0.91051799 1261218988
-0.109261 0.048185799 0.927724 1261021609
-0.207876 -0.064376801 1.00011 1260692644
0.0231313 -0.15134899 1.02074 1261547953
-0.0302116 -0.082386903 0.97669798 1259574163
0.0122523 -0.136509 1.0035 1261021609
-0.081739001 0.0312081 0.95494401 1261679539
-0.13404199 0.084024101 0.91427398 1261679539
-0.0805602 0.0302721 0.955688 1261218988
-0.189724 0.0070461598 0.95074397 1260626851
-0.17455199 0.085610703 0.90685397 1261218988
-0.10311 0.0380679 0.92962098 1260692644
0.0567679 -0.207087 1.03862 1260890023
0.063790597 -0.20873301 1.05751 1261679539
-0.090222597 0.040830001 0.94766903 1261482160
0.062567003 -0.205888 1.06589 1261482160
-0.176659 0.078274898 0.90895802 1261350574
0.033426501 -0.165953 1.03154 1261482160
-0.089094102 0.021852599 0.94101 1260758437
-0.104796 0.039437599 0.92951798 1261021609
0.10653 -0.26954299 1.06252 1260758437
0.055351499 -0.19757301 1.04245 1261745332
-0.176559 0.078700297 0.90887201 1261153195
0.071688801 -0.218815 1.0707 1261679539
0.073245198 -0.235934 1.05167 1260561058
0.062544703 -0.215147 1.04219 1261350574
0.131578 -0.31329799 1.12217 1261482160
0.041995801 -0.17856 1.03707 1261942711
0.090460099 -0.27507699 1.06321 1257830648
0.164942 -0.370621 1.1028399 1255725272
0.050033301 -0.197997 1.05058 1261153195
-0.18723699 0.063112803 0.92036098 1260758437
-0.128916 0.0802944 0.91852301 1261087402
-0.176553 0.083585702 0.90638697 1260363679
-0.121521 -0.0100395 0.95942199 1257567476
-0.096946903 0.0275652 0.93303603 1260955816
-0.173326 0.089791797 0.90541798 1261350574
-0.173361 0.089632504 0.90549999 1261745332
-0.109626 0.045736901 0.92447901 1261679539
0.067505598 -0.212495 1.07276 1261153195
0.0260466 -0.170984 1.06666 1259245198
0.0560067 -0.19758099 1.04959 1261547953
0.103637 -0.27346 1.09185 1261482160
0.052133899 -0.191723 1.05033 1261350574
0.109494 -0.27992699 1.11487 1260626851
-0.094119601 0.0142055 0.926359 1261416367
0.057415299 -0.200133 1.0514899 1262008504
0.116028 -0.283259 1.0700901 1261021609
-0.175483 0.0825008 0.90778899 1260758437
0.182367 -0.383982 1.17138 1261284781
0.083976299 -0.236059 1.08851 1261679539
0.044998899 -0.18222 1.03692 1261811125
0.086329103 -0.239095 1.09094 1261350574
-0.17406499 0.087180801 0.90567398 1261876918
-0.17444 0.085583001 0.90820098 1261745332
0.045348398 -0.182476 1.03763 1261679539
-0.177021 0.076291703 0.91111398 1261876918
0.167781 -0.36109301 1.16348 1260890023
0.177505 -0.38494 1.12131 1260363679
0.051681601 -0.20164999 1.03116 1258653061
0.039636798 -0.175436 1.07068 1258718854
-0.096673101 0.038097799 0.93934798 1261679539
-0.16546801 0.0464033 0.93348801 1259508370
-0.17413799 0.086813301 0.90782601 1261613746
0.112697 -0.28577301 1.10481 1261679539
0.073907301 -0.221595 1.07172 1261613746
-0.20168699 -0.040015198 0.98483002 1260890023
0.087779701 -0.240201 1.0996799 1260955816
-0.099136502 0.017792501 0.949341 1259771542
-0.16541401 0.041430701 0.90967602 1259113612
0.086132303 -0.24052601 1.05606 1261087402
-0.115294 0.058313899 0.92667401 1261547953
-0.17349 0.089003898 0.90694898 1261284781
-0.21071599 -0.0176451 0.98807001 1261482160
0.077045098 -0.225988 1.07614 1261679539
-0.203243 -0.020017499 0.97595102 1260363679
0.062237199 -0.206963 1.04399 1261416367
-0.096382 0.0330498 0.93502802 1261547953
-0.116537 0.059734199 0.92579103 1260626851
-0.085807197 0.028372999 0.94761002 1261087402
0.141597 -0.34375501 1.17266 1258850440
-0.097061902 -0.084125102 1.0005 1259837335
-0.0883715 0.031307999 0.94617498 1261350574
-0.141388 0.068153203 0.89990801 1259903128
-0.10464 0.048759501 0.93387699 1261679539
-0.062334899 -0.051484801 0.99366403 1259376784
-0.095218197 0.038858201 0.94201899 1261942711
-0.097816102 0.041753501 0.940162 1261745332
0.31996199 0.045780499 1.2343 1262074297
-0.17183 0.046560399 0.93351102 1259574163
-0.13062 0.076716803 0.91551 1260955816
-0.124375 0.069829397 0.91965002 1261350574
0.151335 -0.338429 1.14669 1261153195
-0.0553861 -0.00131413 0.967273 1261942711
0.11325 -0.34932801 1.19934 1259903128
-0.094147302 0.040153999 0.94410199 1261416367
0.15339801 -0.340478 1.1496201 1261087402
-0.18044899 0.0163831 0.95277202 1259113612
-0.144472 0.068920903 0.90012097 1259968921
0.091064297 -0.24509899 1.096 1261350574
0.0047714701 -0.097412899 1.08298 1262074297
-0.14624999 0.069888301 0.90008301 1259705749
-0.174605 0.0550461 0.912691 1259903128
-0.084190398 0.018212499 0.945705 1261021609
-0.130069 0.080156498 0.92691398 1261153195
-0.169925 0.058493499 0.91147202 1260429472
-0.092414901 0.0307039 0.93867099 1262074297
-0.16627 0.061913401 0.91021103 1260824230
-0.1644 0.063170098 0.90969598 1260824230
-0.117788 0.061437599 0.92536598 1260495265
-0.148993 0.0711824 0.90628701 1260297886
-0.080692798 -0.184026 1.2087899 1257830648
-0.163067 -0.267692 1.14731 1259376784
-0.187626 0.035145599 0.94415098 1259310991
-0.153698 -0.206916 1.1066099 1259442577
-0.146734 0.069306597 0.90692103 1260429472
-0.0895347 0.0250569 0.94268399 1261087402
-0.120204 0.064926401 0.923841 1261153195
-0.27594399 -0.298841 1.16821 1259310991
-0.21409599 0.0761832 1.27637 1259771542
-0.0895532 0.0255778 0.94291902 1261218988
-0.161726 -0.24305999 1.12953 1258916233
-0.16379 -0.27119601 1.15045 1259771542
0.095747598 -0.25084001 1.10762 1261021609
-0.10105 0.040041398 0.93449998 1261482160
-0.312179 -0.182381 1.1322401 1261218988
0.12512299 -0.234753 1.14674 1259771542
-0.141505 0.060237601 0.92731702 1260429472
0.090880901 -0.244772 1.1047601 1261218988
-0.27134699 -0.086377703 1.05611 1260890023
-0.134431 0.042148799 0.93878001 1258850440
-0.082649402 -0.031669602 0.93545198 1260692644
-0.065290198 -0.16312499 1.00481 1259574163
-0.179662 0.063639797 0.91346401 1261284781
-0.172001 0.068992302 0.92245299 1261745332
-0.13364699 -0.0030316501 0.96917701 1260429472
0.072922997 -0.24382401 1.10941 1260034714
-0.143774 0.049116202 0.93427002 1260495265
-0.101868 0.0429359 0.93397403 1261613746
-0.123561 0.069434099 0.92171901 1261284781
-0.14849199 0.098505899 0.90450501 1259574163
0.237994 -0.40368101 1.25051 1260692644
-0.453132 0.082774997 0.90177101 1260495265
-0.18117499 0.0580661 0.91350901 1261547953
-0.459362 0.087428696 0.93892097 1261153195
-0.46052301 0.090338498 0.98900998 1262008504
0.0128412 -0.14341401 1.00554 1259903128
-0.0079881698 -0.032420602 0.99413699 1261021609
-0.085736804 0.0236197 0.94717503 1260955816
-0.25041899 -0.15275 1.07205 1259968921
-0.18149 0.0551323 0.912579 1261350574
-0.452829 0.103298 0.960908 1261547953
0.19626901 -0.349913 1.2134399 1260495265
-0.180766 0.060209099 0.91356599 1261547953
0.177784 -0.369553 1.10796 1260758437
-0.090784602 0.034632299 0.94523901 1261613746
-0.19298901 0.00878953 0.95097899 1260824230
0.320362 0.14234801 1.28755 1260561058
-0.0911192 0.0291992 0.94069099 1260955816
-0.16253901 0.065709203 0.91887301 1260495265
-0.087755397 -0.193646 1.1092 1260429472
0.051717699 -0.199471 1.03264 1260034714
-0.173464 0.016626401 0.96320802 1260955816
-0.112687 0.0686846 0.927737 1261416367
0.157295 -0.34117499 1.09702 1261087402
-0.181398 0.056281101 0.91292697 1261876918
-0.064481102 -0.14222001 0.99414301 1260166300
-0.190282 0.018336199 0.94766003 1260692644
-0.044863701 0.00071971898 0.98752701 1261416367
-0.12481 0.0123304 0.95466101 1259245198
0.029608 -0.160445 1.01966 1261284781
-0.17533 0.0853021 0.90586299 1261021609
-0.17545401 0.085030302 0.90604198 1261087402
-0.0108956 -0.226908 1.2043 1257041132
0.021311 -0.14835601 1.01955 1261613746
-0.211641 -0.040356401 0.98549902 1260232093
0.025001699 -0.15332501 1.02248 1261547953
0.22881199 -0.51267099 1.14112 1260626851
-0.125231 0.057316601 0.91102701 1261284781
-0.036600001 -0.0047576898 0.99460202 1261613746
-0.022066301 -0.051063899 1.02212 1260626851
0.032459099 -0.16390599 1.03091 1261745332
-0.127285 0.067204297 0.91426599 1260758437
0.035183702 -0.167447 1.03324 1261745332
-0.071903199 0.019590801 0.96345901 1261284781
0.047759902 -0.18494 1.04617 1261679539
-0.10614 0.0438779 0.92805099 1261679539
0.0741558 -0.230211 1.07375 1261547953
-0.00510915 -0.074822001 1.06569 1261021609
0.067147501 -0.220164 1.07047 1261482160
0.0603223 -0.20274299 1.06108 1261876918
0.026678201 -0.156295 1.0167 1261021609
0.071073897 -0.217572 1.07169 1261811125
-0.123373 0.063483298 0.91697198 1260561058
-0.091249503 0.0259666 0.94021302 1261087402
-0.102811 0.041747 0.93148297 1261745332
-0.123632 0.067285702 0.91601002 1259903128
-0.173408 0.088961802 0.90568799 1261942711
0.090552099 -0.244739 1.09157 1261811125
0.054092001 -0.202536 1.0333 1260561058
0.087885603 -0.240624 1.0900199 1261679539
-0.103706 0.036576901 0.92637402 1261613746
0.046003599 -0.18373901 1.03513 1261679539
-0.104035 0.037176199 0.926094 1262074297
-0.096771099 0.0277286 0.933469 1260890023
0.113596 -0.28385699 1.1167001 1261087402
-0.173968 0.087698303 0.90661699 1261482160
-0.120046 0.063169397 0.91834301 1261547953
-0.121842 0.060153399 0.91861302 1261613746
-0.118927 0.062410802 0.91920501 1260824230
0.061477099 -0.20514999 1.0510499 1261811125
0.066952802 -0.23814 1.05068 1259179405
-0.093058601 0.0295185 0.94035399 1260824230
0.0894453 -0.248046 1.1016999 1261021609
0.106068 -0.265856 1.1120501 1261482160
-0.119983 0.063534103 0.918167 1260955816
-0.106894 0.043875199 0.92717397 1261613746
-0.117222 0.060508799 0.92022699 1261021609
-0.115195 0.053952299 0.92288601 1260824230
0.0987131 -0.25460601 1.11016 1261153195
0.089513198 -0.242147 1.10429 1261218988
-0.108247 0.050295301 0.92954302 1261876918
0.073316298 -0.22217 1.06354 1262140090
-0.0926001 0.0306012 0.94185299 1260758437
-0.109578 0.051958401 0.92895597 1261547953
0.074064396 -0.24126901 1.10753 1259376784
-0.097190604 0.037454601 0.93820602 1261876918
-0.111502 0.049876899 0.92537999 1261021609
0.076677799 -0.225923 1.07019 1261745332
0.19191401 -0.396052 1.18138 1261021609
-0.10858 0.0517378 0.93002498 1261942711
-0.10358 0.0425146 0.93238097 1261482160
-0.0985194 0.040235698 0.93812299 1261745332
0.090368398 -0.24405301 1.09808 1261416367
-0.102834 0.043227699 0.93272901 1261811125
-0.105298 0.049104199 0.93308598 1261350574
0.0846157 -0.235374 1.09454 1261153195
0.0775261 -0.22657999 1.07673 1261613746
0.0628286 -0.218104 1.02917 1260561058
-0.093942203 0.036238201 0.94169497 1261350574
-0.089065 0.022630701 0.94159001 1261021609
0.087407403 -0.272192 1.05125 1260692644
-0.17363299 0.089392297 0.90592301 1261416367
-0.089890197 0.0240047 0.94121498 1261153195
-0.174614 0.085415401 0.90842199 1261745332
0.044879202 -0.179602 1.06898 1260824230
-0.103658 0.0482799 0.93465197 1261745332
0.0777146 -0.22654501 1.08232 1261482160
-0.102764 0.047918901 0.93548501 1261876918
-0.022986099 -0.101348 1.02341 1259968921
-0.10456 0.047002401 0.93285298 1261547953
-0.102758 0.047399599 0.935588 1261745332
-0.096931703 0.032956399 0.93459898 1261153195
-0.096414201 0.041315701 0.94173902 1261811125
-0.101026 0.047476299 0.93747699 1262008504
-0.103665 0.046300799 0.93357599 1261811125
-0.096731797 0.0340496 0.93437499 1260890023
-0.098507397 0.044415999 0.93933398 1261679539
-0.10219 0.0495837 0.93738502 1261416367
-0.089871302 0.0362745 0.94726902 1261416367
-0.092097603 0.037285998 0.945104 1261416367
-0.102729 0.050639801 0.937096 1261811125
0.086175203 -0.23815601 1.06383 1261021609
-0.102611 0.046199199 0.93500102 1261679539
-0.086976103 0.034985598 0.95032102 1261547953
-0.100747 0.0499244 0.93917298 1261811125
-0.084533699 0.033342801 0.95255703 1261613746
-0.093049698 0.041618701 0.94454998 1261811125
0.173401 -0.37509501 1.13542 1261811125
-0.082163699 0.031906299 0.95489699 1261811125
-0.097306497 0.0481585 0.94248098 1261613746
-0.076858602 0.0282654 0.959499 1261613746
-0.0991465 0.0511421 0.94161701 1261547953
-0.226386 -0.081021398 1.01041 1261021609
-0.20428699 -0.020732 0.97719902 1261218988
0.076020204 -0.060887601 1.0487 1262008504
0.146212 -0.32303199 1.12295 1262074297
-0.074638799 0.0051099402 0.94905901 1261547953
0.25096101 -0.48611501 1.21531 1261811125
-0.11009 0.0392837 0.918006 1261482160
0.043323498 -0.17659999 1.03181 1260758437
-0.101376 0.050919902 0.938586 1262205883
-0.079756297 0.026632201 0.95697898 1261218988
0.232131 -0.44231501 1.20082 1261942711
-0.18064 0.059292901 0.91355801 1261745332
0.165609 -0.35815999 1.15895 1261811125
0.050918199 -0.137417 1.08285 1260561058
-0.234909 -0.120422 1.04444 1261087402
-0.201591 -0.287328 1.20354 1261416367
0.15501399 -0.31910199 1.21611 1261482160
-0.20784201 -0.032028001 0.99332702 1261087402
-0.180262 0.0607595 0.91351902 1261547953
-0.183082 0.056359101 0.91569501 1261284781
-0.078908697 -0.103855 0.97745901 1260297886
-0.179741 0.062623002 0.91321403 1261087402
0.198291 -0.35501799 1.24387 1260758437
-0.071886398 -0.121132 0.985452 1259837335
-0.064773999 -0.33211499 1.23578 1260100507
-0.065015502 -0.291269 1.20586 1259837335
0.254273 -0.41807801 1.26329 1260626851
0.017685801 -0.073029101 1.04792 1259442577
-0.0088952798 -0.069236703 1.04966 1261876918
0.24339999 0.0021363499 1.32199 1260363679
-0.255649 0.0084189503 1.26948 1260692644
-0.0404884 -0.11698 1.09436 1259310991
0.336909 0.0182875 1.20207 1261942711
-0.034122501 -0.406288 1.28263 1259771542
-0.058270399 -0.119058 1.09763 1259245198
-0.058383599 -0.117633 1.09642 1259310991
0.27966401 0.0283882 1.26241 1262271676
0.088941596 -0.187924 1.11788 1261021609
-0.058335502 -0.118605 1.0978301 1258850440
-0.058865901 -0.115088 1.09484 1258916233
-0.48986501 0.0341102 1.1134 1262403262
-0.050103199 -0.096308097 1.0786901 1258850440
-0.041176699 -0.130155 1.1154 1257567476
-0.201722 -0.14633299 1.12484 1260561058
-0.0565603 -0.108245 1.09802 1258324096
-0.0145488 -0.063369997 1.05041 1262403262
-0.019237701 -0.050606899 1.0465699 1260955816
-0.22257499 -0.111166 1.09677 1261876918
0.296808 0.038091999 1.35888 1262140090
-0.23024601 -0.103563 1.09136 1262008504
-0.058051601 -0.049646299 1.04714 1257567476
-0.20163199 -0.215679 1.18794 1260626851
0.33237299 0.034688201 1.25174 1262008504
0.063514799 -0.20754901 1.045 1261087402
-0.044198502 -0.085735202 1.07262 1259705749
-0.037764002 -0.051930901 1.04979 1259376784
-0.200789 -0.152114 1.14437 1259771542
-0.185311 -0.122391 1.1171499 1260034714
0.095084697 -0.0603121 1.3236099 1258587268
-0.181357 -0.11952 1.1145 1259705749
-0.17993499 -0.114667 1.1100301 1259837335
-0.121712 0.065332502 0.91709298 1260626851
-0.0393175 -0.089083202 1.07649 1259442577
-0.206871 -0.069335498 1.0695601 1259837335
-0.0079268496 -0.10273 1.0878299 1261087402
-0.118624 0.0570895 0.92043298 1261876918
-0.024168201 -0.065470003 1.05566 1261811125
-0.118618 0.061507199 0.919222 1261350574
-0.215975 0.036922701 1.29036 1260166300
-0.11837 0.0612179 0.91939402 1261482160
0.0433052 -0.27315101 0.98957402 1261811125
-0.115225 0.054040201 0.92216301 1261811125
-0.21673299 -0.24563301 1.2332799 1259639956
-0.213108 -0.115157 1.10324 1260232093
-0.115454 0.052790999 0.92275 1262205883
-0.123429 0.061679099 0.91586697 1260692644
-0.114471 0.052237399 0.92298198 1261350574
-0.129456 0.074064299 0.91295201 1260100507
-0.116785 0.060453299 0.92009997 1261613746
0.047309801 -0.270603 1.00554 1261416367
-0.123596 0.062318899 0.91659498 1261350574
-0.114189 0.051892798 0.92319101 1261547953
-0.124349 0.067348696 0.91538399 1260824230
-0.124132 0.067080498 0.91553003 1261021609
-0.227522 -0.0556859 1.05936 1260232093
-0.264281 -0.231866 1.22286 1260034714
-0.112622 0.051068299 0.924142 1260495265
-0.125025 0.069040202 0.91512001 1260890023
-0.11431 0.057258699 0.92208302 1261218988
-0.0038162901 -0.173537 0.98417598 1261482160
-0.110854 0.048209999 0.92545098 1261153195
-0.063411199 -0.0120232 0.93655699 1260758437
-0.123206 0.061609399 0.91762501 1261547953
-0.38109401 -0.079140797 1.29414 1261416367
-0.1228 0.0621101 0.91760302 1260890023
0.0667447 -0.19189499 1.18558 1258718854
-0.0215778 -0.13964801 0.977036 1261613746
-0.110378 0.054185599 0.92414802 1261679539
-0.177515 0.070721701 0.92232502 1260561058
-0.120879 0.0603825 0.91854501 1261416367
0.090437002 -0.207711 1.20196 1258784647
-0.106235 0.0442743 0.92835599 1260824230
0.18333 -0.400316 1.16687 1260034714
-0.103506 0.039863799 0.93024302 1261218988
-0.094974801 0.031502798 0.93505198 1262205883
-0.108917 0.054596402 0.92614102 1260955816
0.033916 -0.072973996 1.0805399 1259245198
-0.096320197 0.038102601 0.93267697 1261021609
-0.109309 0.0535294 0.925098 1261218988
-0.24354 0.0049051298 1.27433 1260561058
-0.101907 0.037995499 0.93118 1260824230
-0.10865 0.055106401 0.92666203 1261021609
0.15875401 -0.34341201 1.09059 1261087402
0.175024 -0.38103899 1.09059 1260297886
0.228469 -0.345985 1.15126 1261087402
0.230859 -0.33591199 1.15404 1261284781
0.234466 -0.52850598 1.17207 1258850440
0.188986 -0.39473501 1.11377 1259903128
0.073311903 -0.232925 1.0353301 1261153195
0.23491 -0.51300102 1.16607 1258093820
-0.104366 0.042697199 0.93002403 1260758437
-0.081047699 0.015085 0.94382602 1260824230
0.190412 -0.45743701 1.12392 1261679539
0.142994 -0.34676099 1.07985 1261284781
0.236632 -0.49109101 1.15705 1256383202
0.140486 -0.36160901 1.08722 1261482160
-0.095234297 0.0301739 0.93534398 1260758437
-0.50569898 -0.132751 1.3561701 1262074297
-0.028689399 -0.050243501 0.97294998 1261811125
-0.35424 -0.309131 1.2395999 1260363679
0.087413199 -0.31577 1.22453 1260363679
-0.43564999 -0.30538601 1.2401299 1260561058
0.26139799 -0.050783899 1.33377 1259442577
-0.063685499 -0.0080270804 0.95607501 1261613746
-0.0646955 -0.0051508001 0.95475298 1260692644
-0.34719801 -0.28936699 1.23611 1261613746
0.0797562 -0.230554 1.0578901 1261811125
0.194069 -0.43439701 1.15402 1261416367
-0.107652 0.0561359 0.92901498 1261547953
0.203779 -0.45244399 1.16344 1261284781
0.200147 -0.285137 1.21025 1260890023
0.26982799 -0.267151 1.15118 1260824230
0.246758 -0.28768301 1.21916 1262008504
0.15450799 -0.051278301 1.32645 1258455682
-0.37055799 -0.27166599 1.24084 1258521475
-0.26435599 0.068866 1.2546901 1259442577
0.120439 -0.287532 1.09647 1262074297
0.134039 -0.316663 1.11421 1262074297
0.27311 -0.25788501 1.15657 1260758437
0.15040299 -0.329514 1.12182 1261811125
-0.381257 -0.265459 1.2488101 1258718854
0.123166 -0.27778399 1.2458 1259047819
-0.27907199 -0.221183 1.09104 1260495265
-0.28879899 -0.26487699 1.25008 1258324096
-0.43378001 -0.26022899 1.25281 1260561058
0.18408 -0.37561199 1.14928 1261547953
0.250828 -0.27233699 1.23432 1259968921
-0.22056399 -0.26288101 1.24893 1259376784
-0.0087440796 -0.26478401 1.24278 1257172718
0.193179 -0.38910201 1.15808 1261876918
0.0271642 -0.26378599 1.2420501 1258455682
0.359983 0.056357902 1.21687 1259179405
-0.439046 -0.25352401 1.25367 1260692644
0.214854 -0.43334299 1.18642 1261547953
0.19740701 -0.263273 1.2371 1258982026
0.28149599 -0.229674 1.16792 1261153195
-0.246124 -0.216866 1.2513 1260429472
-0.086575098 0.021304199 0.94149202 1261547953
-0.41564301 -0.20705201 1.23716 1260955816
-0.124808 0.079412699 0.92120302 1261942711
0.191936 -0.398992 1.17589 1261876918
-0.129811 -0.199687 1.25923 1260166300
-0.067101799 -0.0034098299 0.954059 1262074297
0.251993 -0.060495399 1.34207 1257962234
0.0143217 -0.14501201 1.26678 1259179405
-0.0056092399 -0.14471801 1.26763 1258653061
0.28128701 -0.176865 1.2072901 1262140090
-0.0363313 -0.112842 0.96379203 1261547953
-0.42000201 -0.164526 1.27026 1261547953
0.27774099 -0.063075297 1.34403 1259047819
0.102484 -0.20314801 1.12875 1260561058
-0.120412 0.0592383 0.91914898 1261613746
-0.122206 0.065995902 0.91679502 1260758437
0.040886801 -0.162662 1.10221 1261679539
0.157214 -0.291242 1.1794699 1261416367
0.054957502 -0.142718 1.08763 1261153195
0.089574501 -0.15479501 1.27239 1260297886
-0.115538 0.0534488 0.92213398 1261021609
-0.082224399 -0.25284901 1.17602 1260034714
0.35267901 0.0514911 1.22505 1261350574
-0.075744897 -0.242439 1.16883 1259837335
0.123949 -0.30943501 1.05707 1259376784
0.0164629 -0.107997 1.06622 1261547953
0.25092199 -0.403685 1.26433 1261482160
-0.29039899 -0.130661 1.09317 1260890023
0.141985 -0.31670699 1.2060601 1261482160
0.100847 -0.205699 1.12843 1260232093
-0.118715 -0.170333 1.1197701 1259245198
-0.100227 0.034222402 0.932271 1261942711
-0.112459 -0.21142299 1.15175 1259508370
0.201287 -0.41998401 1.28399 1262469055
0.089458801 -0.24622899 1.1599801 1261942711
-0.43626699 -0.33729801 1.25994 1261153195
0.29116699 -0.0293945 1.33948 1259968921
-0.0093168002 -0.087326899 1.07451 1261745332
-0.035602901 -0.039680898 1.0357 1261153195
-0.096728504 -0.148416 1.13146 1258784647
-0.042055801 -0.0247935 1.02285 1262205883
-0.089891799 -0.098013699 1.0886199 1258521475
-0.049481601 -0.112697 1.1001101 1258093820
-0.060559999 0.0106028 0.99280298 1261218988
-4.7922102e-05 -0.145724 1.10911 1261350574
-0.161984 -0.104801 1.09594 1259442577
0.214368 -0.0533465 1.33518 1258521475
-0.0385371 -0.0132566 1.01376 1262337469
-0.0291273 -0.045635801 1.02996 1262074297
-0.069816999 -0.121179 1.10964 1257830648
-0.0304008 -0.017839201 1.0091799 1259442577
-0.040758099 -0.080529898 1.07342 1257304304
-0.043965299 -0.044952098 1.04269 1259705749
-0.039279301 -0.081511699 1.07427 1257435890
-0.19909699 -0.112707 1.09535 1260429472
0.0154024 -0.0618008 1.05615 1261021609
0.30880699 -0.046543501 1.25029 1261679539
0.0045516598 -0.0419631 1.03881 1261613746
0.33535799 0.102431 1.25456 1261547953
-0.059217799 -0.24728499 1.22159 1258850440
-0.036037698 -0.0063757198 1.0034 1259442577
-0.063702397 -0.10857 1.09902 1257830648
-0.203968 -0.063416399 1.05515 1260626851
-0.040387399 -0.017901 1.01859 1262600641
-0.205102 -0.180869 1.1563801 1260034714
-0.072748899 -0.27184701 1.2444299 1259442577
-0.066401698 -0.0482301 1.04067 1259837335
-0.069666699 -0.13395201 1.12218 1257172718
-0.227863 -0.091155 1.08057 1261679539
-0.048344001 -0.094194703 1.08667 1256646374
-0.210737 -0.098802298 1.08675 1260824230
-0.035587199 -0.050905 1.04945 1259705749
-0.028935101 -0.16573501 1.1418999 1258982026
-0.237262 -0.125036 1.12163 1259508370
-0.043015402 -0.083310701 1.07129 1259245198
-0.233586 -0.123331 1.12003 1259376784
-0.00014339401 -0.113577 1.09659 1261153195
-0.21905699 -0.32479 1.3040299 1259179405
-0.0156358 -0.090374596 1.07691 1261153195
-0.238515 -0.31103 1.2927099 1259113612
-0.0044022598 -0.091449499 1.07766 1261942711
-0.207223 -0.19729701 1.1885099 1259245198
-0.046157598 -0.0077916598 1.00642 1260626851
-0.210317 -0.257355 1.24342 1259705749
-0.22816201 -0.081427403 1.07313 1261679539
-0.198613 -0.21573 1.2052701 1259574163
-0.199301 -0.27642199 1.2607 1259508370
-0.00324416 -0.108056 1.09247 1260890023
-0.190614 -0.25598601 1.24195 1259442577
-0.0429888 -0.0118026 1.01016 1262140090
-0.140341 -0.113494 1.11129 1259639956
0.227597 0.072755098 1.31519 1259508370
-0.25747299 -0.26066801 1.24779 1259179405
-0.21888199 -0.111313 1.0998 1260626851
-0.24479 -0.227603 1.21741 1259771542
-0.233153 -0.0820572 1.07513 1261613746
-0.25637701 -0.34871599 1.3284301 1259968921
-0.22959401 -0.067573398 1.0628999 1261218988
-0.240329 -0.28802601 1.2727 1260034714
-0.17185 -0.264011 1.2500499 1259903128
-0.094717197 -0.090496004 1.08086 1259376784
-0.16596299 -0.27137101 1.25674 1259903128
-0.25463 -0.064497501 1.06935 1261482160
-0.164305 -0.264716 1.25063 1259903128
-0.33983701 -0.107339 1.29856 1261547953
-0.147457 -0.26762199 1.2531199 1260034714
-0.0107284 -0.0483872 1.05234 1259574163
-0.42066699 -0.217198 1.2459199 1261087402
-0.49548 -0.092910498 1.27591 1261745332
-0.120743 -0.114956 1.11301 1259179405
0.096190996 -0.23713399 1.22672 1258389889
-0.116754 -0.110445 1.10885 1258850440
0.0066927201 -0.095503896 1.09629 1258324096
-0.016081801 -0.21918 1.26098 1259310991
-0.131951 0.072227404 1.28019 1259442577
-0.40722701 -0.196456 1.22568 1261153195
0.082911499 -0.198553 1.192 1258093820
-0.264312 -0.23020101 1.22078 1259705749
-0.0024868499 -0.049453899 1.05419 1259376784
-0.25780201 -0.22344001 1.21455 1259442577
0.00026395899 -0.050194498 1.05484 1260297886
-0.058362901 -0.20634 1.19697 1256646374
0.00319731 -0.046047501 1.0509599 1261087402
0.161373 -0.085453197 1.32718 1260955816
-0.018234201 -0.20211799 1.2545201 1258389889
0.0137595 -0.257211 1.2430201 1255198928
0.070012301 -0.18046799 1.1761 1259113612
-0.26728299 -0.203344 1.19696 1259508370
0.080924504 -0.17462499 1.17058 1259179405
-0.26774499 -0.206374 1.1997401 1259376784
0.111223 -0.204785 1.1984299 1259376784
-0.069007397 0.043177199 0.96804899 1260955816
0.00098490703 -0.046925899 1.05226 1260495265
0.1251 -0.211354 1.20538 1259376784
0.32303199 0.0192538 1.2581 1261482160
0.095369004 -0.167069 1.16501 1259574163
0.0788728 -0.145069 1.14455 1259442577
-0.018484799 -0.0212525 1.02967 1259903128
0.25629899 -0.18689799 1.30212 1262008504
-0.051865801 -0.118565 1.12511 1257172718
-0.209971 0.070609003 1.26956 1259771542
-0.209529 0.029710701 0.98662502 1259771542
-0.35620299 -0.32602999 1.23022 1259245198
-0.34947899 -0.14662901 1.24063 1259705749
0.29403901 -0.026860399 1.28048 1261745332
-0.211356 0.029262001 0.98939902 1259639956
0.243581 0.072091401 1.32069 1259837335
-0.28712201 -0.15195 1.26144 1258718854
0.34036899 -0.0298633 1.21097 1259837335
-0.0192609 -0.284298 1.31424 1254277826
0.131007 -0.051692501 1.32368 1258587268
0.13459601 -0.314996 1.21882 1259705749
-0.033022601 -0.277448 1.30825 1253356724
-0.0353854 -0.28319001 1.31644 1254014654
-0.38456401 -0.062956199 1.32204 1257435890
0.217638 -0.306234 1.21639 1259968921
-0.20273 0.046277601 0.97408903 1259376784
-0.0394729 -0.274517 1.30966 1253751482
-0.267014 -0.14347801 1.26468 1259639956
0.167308 -0.28949699 1.23092 1261350574
-0.152707 -0.144025 1.25717 1259508370
-0.450638 -0.27013999 1.23242 1259310991
0.00836311 -0.148311 1.26028 1258455682
0.131662 -0.150885 1.2599 1259639956
0.31310999 0.100311 1.34996 1260297886
0.241289 -0.241974 1.2131 1262008504
0.235847 -0.241135 1.23965 1262140090
0.059943002 -0.15016399 1.2696 1259310991
0.243214 -0.22759201 1.22707 1262074297
-0.399257 -0.137024 1.26327 1260626851
0.291316 0.081227399 1.34746 1259047819
-0.381556 -0.134903 1.25976 1261087402
0.23671301 -0.22871201 1.25019 1261942711
-0.349985 -0.13751499 1.2674299 1261153195
-0.410377 -0.200763 1.23815 1261350574
-0.20560101 -0.139405 1.26265 1260890023
-0.411861 -0.170398 1.1715 1261482160
-0.53244102 -0.111019 1.20798 1261416367
-0.40904 -0.159049 1.16966 1261679539
0.14056499 -0.138933 1.27782 1261613746
0.17981499 -0.138238 1.2715501 1260692644
-0.212648 -0.12625501 1.26941 1260758437
-0.414051 -0.16722099 1.27395 1261350574
-0.18567599 -0.12624601 1.27389 1260363679
-0.13448 -0.167585 1.26109 1261021609
-0.158805 -0.129362 1.28469 1260758437
-0.35488001 -0.14820001 1.24295 1259837335
-0.022820501 -0.41741499 1.18128 1258093820
-0.39215201 -0.13816801 1.2714601 1261087402
0.0149083 -0.41713399 1.17829 1256777960
0.156801 -0.41409799 1.16286 1256909546
0.019722501 -0.14499301 1.26606 1259047819
0.168404 -0.41203299 1.16122 1257830648
-0.275307 -0.137539 1.27171 1261811125
0.21717501 -0.38757101 1.13343 1260166300
-0.114233 -0.137263 1.26863 1261021609
0.0725324 -0.135969 1.26607 1261613746
-0.49741301 -0.047390599 1.2796201 1259903128
-0.197694 -0.12793 1.27451 1260692644
0.24821401 -0.30157301 1.16459 1262008504
-0.38627499 -0.080554903 1.29287 1262140090
0.158418 -0.060942601 1.3174599 1258718854
-0.35942701 -0.079716198 1.2948 1261613746
0.13125899 -0.064444803 1.33654 1258784647
0.070672996 -0.32389599 1.22866 1259310991
-0.46018499 -9.8921402e-05 1.17751 1261745332
0.0773222 -0.32368201 1.22773 1259310991
0.23227599 -0.180391 1.3088 1261416367
-0.45378199 0.074211501 1.0058 1261416367
0.29054701 -0.0102924 1.30937 1260692644
0.26342201 -0.285611 1.14247 1261153195
0.142125 -0.311304 1.21433 1259903128
0.34713101 -0.00104626 1.2173001 1259903128
-0.076064199 -0.31227699 1.23528 1259968921
-0.0696133 -0.30801201 1.22905 1259574163
-0.082011104 -0.152785 1.27123 1259574163
-0.46822599 -0.30067199 1.25508 1260824230
-0.182777 -0.148022 1.26754 1259376784
0.0051595401 -0.153761 1.27403 1259574163
0.074172802 0.033576202 1.3148299 1260758437
-0.141141 -0.289754 1.23747 1259574163
-0.109397 -0.28795499 1.2349 1259376784
0.17537799 -0.154425 1.27563 1259508370
-0.092713401 -0.287963 1.23375 1259442577
-0.45198801 -0.26826701 1.2354 1258587268
-0.44308299 -0.140567 1.27714 1259968921
-0.381495 -0.270482 1.23575 1258324096
-0.415346 -0.0515875 1.3036 1258587268
-0.33134699 -0.27044699 1.23602 1258389889
-0.506374 0.0084400196 1.13723 1261745332
0.105248 -0.13600001 1.26752 1261811125
-0.40215901 -0.266936 1.24814 1258225406
-0.0067027202 -0.27399099 1.2376 1258225406
0.24301501 -0.140387 1.28 1260758437
-0.40681201 -0.26498899 1.2476799 1258982026
-0.44002301 -0.053319599 1.31464 1258982026
-0.385874 -0.26590201 1.24844 1258455682
0.310087 -0.118069 1.1971 1262008504
-0.35156 -0.26535401 1.24868 1258389889
-0.059219301 -0.19172201 1.26152 1259639956
0.063454002 -0.26450101 1.24189 1258093820
-0.40768 -0.161149 1.19118 1261745332
0.161982 -0.262364 1.23794 1259047819
-0.028673399 0.0274061 1.3226399 1260758437
0.124334 -0.143379 1.27152 1260166300
0.24467801 -0.26459199 1.24199 1261416367
-0.028376199 -0.12897 1.28676 1260626851
0.29676801 0.018753599 1.3425601 1262074297
-0.48324499 -0.051453099 1.2998 1258784647
-0.46963301 -0.059568498 1.29045 1259442577
-0.49195901 -0.102427 1.30042 1259968921
-0.36508301 -0.229303 1.24431 1260890023
0.265347 -0.213953 1.19969 1261811125
-0.0142079 -0.211968 1.26247 1259310991
-0.076282501 -0.39378601 1.23382 1259639956
-0.35559201 -0.139897 1.27575 1261087402
-0.179527 0.076661304 1.28232 1259376784
-0.364227 -0.328832 1.2080899 1260166300
0.355248 0.030899899 1.2170399 1259310991
-0.36133301 -0.31314901 1.22018 1258916233
0.0043115402 -0.36099699 1.20597 1258653061
0.0137467 -0.366337 1.23074 1258389889
-0.14003199 -0.317296 1.22561 1259179405
0.137575 -0.31786799 1.2112499 1259376784
0.16541401 -0.31940499 1.21287 1259376784
-0.19457 -0.324182 1.23 1258324096
-0.10089 -0.30806801 1.23241 1259574163
0.255665 -0.274268 1.176 1262205883
-0.121977 -0.26610401 1.25146 1257830648
-0.36261001 -0.261958 1.24339 1257699062
0.218125 -0.19095001 1.3199 1259310991
-0.198851 -0.27876499 1.2556 1257830648
-0.094414398 -0.217544 1.26188 1260297886
-0.150341 -0.150087 1.25985 1259508370
-0.17769299 -0.26430899 1.25515 1259837335
-0.098677002 -0.150883 1.26805 1256909546
-0.186637 -0.28423601 1.25086 1258455682
-0.30370301 -0.092427298 1.35077 1259113612
0.29462999 -0.163173 1.17414 1261416367
-0.41487101 -0.20818201 1.36968 1259442577
-0.33669701 -0.147351 1.24228 1259574163
-0.0073740901 -0.27107099 1.25371 1255593686
-0.154384 -0.26650599 1.25305 1258225406
0.195825 -0.26722401 1.23382 1255462100
-0.29861799 -0.27251601 1.24751 1258850440
-0.3222 -0.27116701 1.24805 1256646374
-0.239306 -0.31460401 1.22809 1259310991
0.169898 -0.138713 1.27437 1261021609
-0.28692999 -0.27809799 1.2563 1256646374
0.0054944898 -0.15746699 1.2710201 1254146240
-0.40657899 -0.314365 1.22998 1259705749
0.0178407 -0.15219 1.26428 1253488310
-0.091403298 -0.14559101 1.25536 1255725272
-0.101798 -0.14855599 1.25913 1256646374
-0.13099501 -0.148715 1.25922 1258587268
-0.14034399 -0.14908101 1.25965 1258916233
-0.14466199 -0.14895099 1.25947 1258389889
-0.32376999 -0.16094901 1.2741801 1256251616
-0.39972499 -0.163095 1.24097 1261021609
-0.15179799 -0.15016 1.2599 1259245198
-0.1568 -0.14988799 1.2595299 1259508370
-0.16812199 -0.14894301 1.25828 1258455682
