# .PCD v0.7 - Point Cloud Data file format
VERSION 0.7
FIELDS x y z rgb
SIZE 4 4 4 4
TYPE F F F U
COUNT 1 1 1 1
WIDTH 814
HEIGHT 1
VIEWPOINT 0 0 0 1 0 0 0
POINTS 814
DATA ascii
-0.23983 -0.404008 1.0687 1258784647
-0.0908188 -0.40630999 1.0748 1258718854
-0.079748698 -0.404643 1.07039 1258718854
-0.022123 -0.39443299 1.04338 1257962234
-0.24034201 -0.40290201 1.07098 1259442577
-0.025675399 -0.39368701 1.0465 1258718854
-0.011725 -0.39349601 1.04599 1258916233
0.0126286 -0.39232099 1.04287 1259245198
0.0282051 -0.39153099 1.0407701 1259442577
0.048872799 -0.390452 1.0379 1259245198
0.062615499 -0.389907 1.03645 1259442577
0.066035397 -0.389714 1.0359401 1259508370
0.069309302 -0.38872001 1.0333 1259508370
0.083064102 -0.38865399 1.03312 1259574163
0.090603396 -0.38957801 1.04066 1260034714
0.11188 -0.391242 1.04511 1259376784
0.151979 -0.37887299 1.0221 1259245198
0.157501 -0.37798801 1.0247999 1260100507
0.126921 -0.37020999 1.0399801 1258324096
0.155301 -0.37180001 1.04445 1258521475
0.156597 -0.37075001 1.0415 1259376784
0.139148 -0.368568 1.04074 1257435890
0.156727 -0.36509699 1.0309401 1257567476
0.160074 -0.36489701 1.03038 1257567476
0.210602 -0.363242 1.0257 1261284781
0.14146399 -0.366249 1.04504 1255725272
0.210425 -0.35916999 1.02484 1261350574
0.139798 -0.36452499 1.0456001 1257699062
0.141628 -0.36475301 1.04626 1257567476
0.153449 -0.36385599 1.04369 1256909546
0.234695 -0.42165601 1.2224 1261613746
0.16569901 -0.34885699 1.03335 1260034714
0.214194 -0.36932099 1.10602 1261876918
-0.315227 -0.31544799 0.97689003 1260429472
-0.30332601 -0.29469699 0.94488603 1260561058
0.51049101 -0.42168999 1.55367 1258653061
0.45321801 -0.314073 1.28794 1258324096
0.324839 -0.20397399 0.993644 1258093820
0.34796101 -0.200537 1.0226901 1255330514
0.337358 -0.197552 1.02671 1257041132
-0.31890699 -0.15813901 0.90855902 1261679539
0.249484 -0.12131 1.05282 1262863813
0.26613 -0.123335 1.0704 1262863813
0.26642099 -0.120692 1.06444 1262732227
0.27979499 -0.105405 1.06812 1260626851
0.091748998 -0.073546499 1.0341001 1260824230
0.0120395 -0.069332398 1.15381 1260100507
0.27900699 -0.064410701 1.0719301 1262271676
0.28169 -0.056711201 1.07535 1263126985
0.279562 -0.048747301 1.07406 1262929606
-0.41281399 -0.039121501 1.13826 1260232093
-0.40756699 -0.0497959 1.62326 1260890023
-0.446466 -0.032222498 1.1927 1260561058
0.29267201 -0.0053970399 1.08957 1262337469
0.57863998 0.0090126703 2.1149399 1262534848
0.28038999 0.016654599 1.09121 1262205883
-0.40651301 0.022956301 1.1056401 1261876918
-0.40544999 0.0230006 1.10777 1261679539
0.28251901 0.0267116 1.09242 1262074297
0.28867599 0.036839299 1.09507 1262600641
0.22200599 0.048269801 1.12701 1262140090
-0.0084909396 0.050051 1.07639 1260626851
0.173576 0.0540151 1.11735 1260890023
-0.0359147 0.054816101 1.09251 1260561058
-0.37996799 0.056028601 1.07737 1261284781
0.100619 0.058994599 1.13414 1260429472
0.10256 0.059024401 1.13471 1260626851
0.162305 0.056781702 1.09161 1260692644
0.189906 0.0574321 1.10409 1260429472
0.194236 0.0576258 1.10781 1260626851
0.202849 0.057452001 1.10446 1260363679
0.217291 0.0578693 1.11247 1260166300
0.22613101 0.058237799 1.11955 1260561058
-0.19586299 0.056162301 1.0430501 1260495265
-0.18178 0.0577618 1.0727201 1260034714
-0.161487 0.0575349 1.0685 1260232093
-0.137942 0.058113199 1.0792201 1259639956
-0.086867198 0.058830399 1.0925 1259771542
-0.084792003 0.058653399 1.08922 1260166300
-0.077041604 0.058279999 1.0822901 1260232093
-0.070355803 0.058718901 1.09043 1259442577
-0.046454001 0.058355 1.08366 1259968921
-0.0431442 0.058763701 1.0912499 1260034714
-0.025190201 0.0592882 1.10097 1260297886
0.066946499 0.058083098 1.07857 1260955816
0.106169 0.059944499 1.11309 1260692644
0.107774 0.059806801 1.11053 1260692644
0.211054 0.059721701 1.10891 1259508370
-0.18518101 0.060259201 1.08215 1259310991
-0.164552 0.059967101 1.0769 1259639956
-0.141923 0.060260601 1.08216 1258718854
-0.13006 0.060613099 1.08848 1259442577
-0.12577 0.060294501 1.08276 1259179405
-0.116101 0.060899399 1.09361 1259310991
0.026063601 0.061092801 1.09702 1259574163
-0.198191 0.0623709 1.08429 1259771542
-0.19047201 0.062209599 1.08149 1259442577
-0.079652697 0.0628969 1.09338 1259113612
0.172738 0.065375403 1.13633 1259837335
0.176607 0.065406598 1.13687 1259245198
0.23980901 0.066126898 1.14935 1258718854
-0.182873 0.064695798 1.08988 1260034714
-0.121667 0.064972997 1.09452 1259245198
-0.0603939 0.065750197 1.1075799 1259574163
-0.161226 0.0675174 1.10323 1260100507
-0.120101 0.067128301 1.0968699 1260166300
-0.104419 0.066450201 1.08579 1259771542
-0.0513441 0.068017296 1.1113501 1259771542
0.254372 0.070675001 1.1546299 1259771542
-0.17447799 0.0697001 1.1057 1260824230
0.20813601 0.079967797 1.19848 1259903128
-0.157051 0.075387798 1.09974 1260955816
0.0621107 0.0856103 1.15578 1260232093
0.144274 0.085246503 1.1508501 1261087402
0.153933 0.085288197 1.15141 1260495265
-0.39778399 0.0802918 1.05794 1259837335
0.156969 0.086961001 1.14557 1261416367
0.159275 0.087178797 1.14844 1261087402
0.26337099 0.088088498 1.16039 1261613746
0.060799699 0.087959997 1.13138 1260429472
0.064709999 0.088152803 1.13386 1261021609
-0.39333901 0.086698301 1.08956 1261350574
0.059438001 0.090839103 1.14143 1261350574
-0.37614101 0.089358203 1.09762 1262205883
0.208599 0.100983 1.21278 1261745332
0.248721 0.0990749 1.1641901 1262074297
-0.44469899 0.098445296 1.13254 1261482160
-0.43866 0.097521797 1.12192 1261679539
-0.43449399 0.102578 1.0880899 1261876918
-0.426263 0.102169 1.06304 1262074297
0.31866601 0.121675 1.09785 1262929606
-0.0796685 0.132276 1.17409 1259639956
-0.077025503 0.13449199 1.19374 1260034714
0.31833401 0.123564 1.0967 1263061192
0.31920201 0.127212 1.09342 1262863813
-0.43733901 0.129509 1.04716 1262469055
0.30239999 0.136712 1.10523 1262140090
0.310011 0.138033 1.09958 1262666434
-0.086844102 0.171423 1.34585 1260363679
0.327831 0.164057 1.0979199 1262600641
0.223968 0.174942 1.15654 1262600641
0.133424 0.17208999 1.12405 1261218988
0.23507001 0.190773 1.24603 1262403262
0.242788 0.193618 1.2646101 1262600641
-0.27476099 0.169539 1.0943201 1260955816
0.45624799 0.246397 1.59014 1262469055
-0.32494801 0.16920701 1.07939 1261547953
-0.31083399 0.17233799 1.08662 1261153195
-0.32172599 0.191782 1.20917 1260824230
-0.31237701 0.18977299 1.19651 1260692644
0.0300148 0.200426 1.2636 1260100507
-0.41511601 0.19155601 1.19393 1261416367
0.21531799 0.18641999 1.16184 1262140090
-0.48126701 0.18051399 1.1124099 1264048087
-0.21273901 0.199799 1.2311701 1260692644
-0.200707 0.19605801 1.20812 1261021609
-0.13073599 0.193758 1.19394 1259968921
0.31052899 0.179812 1.10797 1262271676
-0.30066001 0.18092 1.1023999 1260429472
0.095595703 0.173584 1.05766 1260626851
0.159858 0.18693601 1.13898 1260824230
0.330562 0.179695 1.0948499 1262534848
-0.40144801 0.18369 1.1069 1261745332
-0.26277599 0.208223 1.25466 1260692644
-0.092488497 0.20597801 1.24111 1260824230
-0.46609101 0.191842 1.14336 1262403262
-0.182835 0.212347 1.26548 1259837335
0.056767099 0.209785 1.25018 1259771542
0.0690547 0.209159 1.2464499 1260297886
0.32021999 0.185121 1.1032 1262929606
-0.100144 0.20925801 1.23356 1260297886
0.096811399 0.208626 1.22981 1259903128
0.107906 0.210288 1.2395999 1259903128
0.239897 0.21015701 1.2388099 1259771542
0.25000599 0.203274 1.1982501 1260955816
0.284354 0.212541 1.2528501 1261679539
-0.28908101 0.183991 1.07305 1259047819
0.13531201 0.210235 1.22601 1259310991
0.261978 0.208655 1.2167701 1260890023
0.29986399 0.215492 1.2566299 1260561058
0.32790801 0.21466801 1.25183 1261218988
-0.47632599 0.196087 1.13148 1260955816
-0.45824999 0.199709 1.15237 1260495265
-0.373252 0.20360599 1.17483 1258982026
-0.29607901 0.184752 1.06607 1258916233
-0.151444 0.21083599 1.2165101 1259113612
-0.091880597 0.213687 1.23295 1259245198
-0.064785801 0.212387 1.22545 1259179405
0.0066635502 0.21263801 1.22688 1259179405
0.036170501 0.20609801 1.18916 1258916233
0.0381318 0.205994 1.18855 1258916233
0.120651 0.208327 1.202 1258521475
0.191034 0.215453 1.2431 1259376784
0.2667 0.21469299 1.2387 1259639956
0.27626401 0.21734899 1.25402 1259508370
0.29288799 0.22203501 1.28105 1259639956
0.322335 0.217429 1.25448 1260232093
0.33476499 0.220107 1.26993 1260363679
-0.49099001 0.198762 1.1348799 1260561058
-0.47606301 0.198057 1.13085 1260166300
-0.44518 0.20112599 1.14837 1259771542
-0.43842399 0.20066001 1.14571 1259705749
-0.43239799 0.202306 1.1551 1259639956
-0.423316 0.20349 1.16186 1259442577
-0.41680801 0.20314801 1.1599 1259639956
-0.39302799 0.19798 1.13041 1259442577
-0.288001 0.20498 1.1703399 1258982026
-0.20356999 0.210399 1.20127 1258389889
-0.152418 0.214442 1.2243299 1258587268
-0.112259 0.21564899 1.23122 1258587268
-0.106549 0.216547 1.23634 1258389889
-0.098036103 0.215941 1.23288 1258521475
-0.093706898 0.21543001 1.22997 1258521475
-0.080955803 0.21421701 1.22304 1258455682
-0.074924201 0.21444499 1.22434 1258653061
-0.0056668199 0.21752 1.24189 1258455682
0.0025977599 0.216695 1.23717 1258455682
0.0046517798 0.216381 1.2353801 1258389889
0.035646401 0.21716601 1.2398601 1258093820
-0.45949599 0.2045 1.1555099 1258455682
-0.45782799 0.204614 1.15615 1258455682
-0.431445 0.20489 1.1576999 1258718854
-0.426568 0.205327 1.16017 1258455682
-0.42254299 0.206192 1.16506 1258389889
-0.36386499 0.207036 1.16982 1258324096
-0.214784 0.20608599 1.16443 1257830648
0.093384601 0.22652601 1.2667 1257962234
0.194713 0.231613 1.29512 1258653061
0.19922601 0.229357 1.28251 1258653061
0.212965 0.230354 1.28809 1258850440
0.276568 0.22972199 1.2845401 1259837335
0.284675 0.23285399 1.30205 1259508370
0.30255699 0.233265 1.30434 1260034714
0.32730699 0.235441 1.31651 1260100507
-0.192288 0.217842 1.2058001 1257435890
-0.190157 0.217702 1.20502 1258225406
-0.173816 0.21734799 1.20306 1257699062
-0.148661 0.218665 1.21035 1258225406
-0.144777 0.218889 1.2115901 1257699062
-0.120757 0.219249 1.21357 1257567476
-0.117116 0.220002 1.2177401 1258324096
-0.105221 0.22058 1.22094 1257962234
-0.095835596 0.222397 1.2309901 1258225406
-0.087807499 0.222837 1.23343 1257962234
-0.047100399 0.224663 1.24352 1258521475
0.0047519002 0.22803 1.26215 1258587268
0.0110628 0.228113 1.26261 1258587268
0.0131637 0.228076 1.2624 1258587268
0.0152479 0.227797 1.26086 1258718854
0.0233304 0.224729 1.24388 1258587268
0.070952997 0.22463199 1.24334 1258784647
0.106892 0.230685 1.27683 1258916233
0.108836 0.230298 1.27469 1258916233
0.11043 0.22919901 1.26861 1258916233
0.13130499 0.232489 1.28681 1259376784
0.135151 0.23173299 1.28263 1259113612
0.148836 0.229773 1.27178 1259310991
0.150796 0.229532 1.27044 1259047819
0.178142 0.232076 1.28452 1259310991
0.19786701 0.23517799 1.30168 1259639956
0.206678 0.23289099 1.2890199 1259639956
0.220241 0.233612 1.29301 1259771542
0.241901 0.235833 1.3053 1260034714
0.28734201 0.237452 1.31425 1260626851
0.28924701 0.23721901 1.31296 1260758437
0.298482 0.237607 1.31511 1260955816
0.30242801 0.235562 1.30379 1260626851
-0.47186199 0.204548 1.12087 1260034714
-0.458543 0.205273 1.12484 1258324096
-0.42110601 0.20713501 1.13503 1258324096
-0.411955 0.207287 1.13587 1258324096
-0.367199 0.209823 1.14975 1257962234
-0.36539301 0.209886 1.1501 1257962234
-0.362461 0.210407 1.1529599 1257962234
-0.35781699 0.21221 1.16283 1258093820
-0.291042 0.215838 1.1827 1258225406
-0.28631201 0.215244 1.17944 1258225406
-0.28352499 0.21462201 1.17603 1258225406
-0.27654999 0.21529201 1.1797 1258587268
-0.132065 0.223511 1.22471 1258916233
-0.11231 0.224802 1.23177 1259047819
-0.090272397 0.22613201 1.23906 1259113612
-0.043051202 0.227442 1.24623 1259245198
-0.036955301 0.22825301 1.25067 1259245198
0.0110403 0.229963 1.26003 1259442577
0.025402701 0.227019 1.24391 1259574163
0.080212198 0.22971199 1.2586499 1259968921
0.21853299 0.236471 1.29566 1260692644
0.26852599 0.24671701 1.3517801 1260955816
0.28655899 0.24673501 1.3518699 1261284781
0.33408201 0.24691001 1.3528301 1261350574
-0.46327001 0.20947801 1.13644 1259113612
-0.449094 0.205587 1.11533 1259245198
-0.45170599 0.209382 1.13592 1259310991
-0.42260101 0.211867 1.14938 1259376784
-0.376665 0.215156 1.16722 1259179405
-0.34665701 0.215841 1.17093 1259574163
-0.339026 0.21349099 1.15819 1259574163
-0.269447 0.216489 1.17444 1259508370
-0.092369698 0.22849201 1.2395101 1260297886
-0.090228498 0.22829799 1.2384599 1260034714
-0.0493677 0.230147 1.24848 1260232093
-0.0390498 0.230618 1.25103 1260100507
-0.034963299 0.23115399 1.25394 1260034714
-0.409338 0.216074 1.16063 1259903128
-0.39741701 0.21801899 1.17108 1260166300
-0.38862401 0.218559 1.17398 1260166300
0.136659 0.228195 1.20193 1259310991
0.325037 0.209004 1.10085 1262732227
0.12181 0.228833 1.19374 1259376784
0.12787201 0.23263 1.21354 1259245198
0.129976 0.232778 1.2143101 1258653061
0.32592601 0.215662 1.10386 1262600641
0.106195 0.22751901 1.15371 1258455682
0.096954703 0.221688 1.11377 1258982026
0.13202 0.20743699 0.98749101 1261087402
0.112214 0.26995301 1.24159 1259376784
0.139403 0.268832 1.22607 1260626851
-0.0109351 0.25501701 1.1439101 1260626851
-0.49631 0.252242 0.971398 1260100507
-0.48062801 0.26133901 0.99934697 1261284781
-0.48144501 0.26180899 0.99416101 1261350574
0.22778299 -0.33804101 1.05882 1260758437
0.307749 -0.17573801 0.86307299 1257435890
0.26824301 -0.150566 1.06065 1260166300
0.30840299 -0.110821 0.86637402 1252698794
0.26593301 -0.135096 1.05827 1261284781
0.135317 -0.11194 1.0404201 1261416367
0.149534 -0.112932 1.04761 1261284781
0.271804 -0.109279 1.0621099 1262271676
-0.112883 -0.11274 1.10382 1261021609
0.28524899 -0.039729699 1.06303 1261679539
0.29345199 -0.038216699 1.06865 1260429472
0.29529801 -0.032592501 1.06933 1260429472
0.28863099 -0.028476899 1.0632499 1261350574
0.231351 -0.031254701 1.19884 1260495265
0.29246399 -0.0116669 1.06533 1260955816
-0.056958798 0.00102507 1.1304801 1261350574
-0.070968904 0.00323028 1.12359 1261153195
0.0028959201 0.0085457796 1.15184 1261416367
0.29933801 0.0145344 1.07265 1261482160
0.24612699 0.015862601 1.15754 1262140090
0.305861 0.016411001 1.07165 1260100507
-0.222478 0.0278053 1.12466 1260561058
-0.020332299 0.027067799 1.13117 1260824230
0.055679701 0.0267822 1.11215 1260890023
-0.164671 0.033578798 1.11884 1261350574
-0.0214922 0.033022001 1.11666 1261087402
0.250606 0.032198399 1.1525199 1262337469
0.30283499 0.031530298 1.07332 1261613746
0.30938599 0.037162699 1.07251 1260100507
0.218273 0.040828101 1.17905 1261547953
0.30485401 0.042879399 1.07472 1261613746
0.090146899 0.045973901 1.0913 1261679539
0.244977 0.047010601 1.18095 1262008504
-0.38129199 0.056878701 1.06224 1261547953
0.306651 0.056120802 1.07532 1261679539
-0.174476 0.059922598 1.0676399 1259968921
-0.14189599 0.0601728 1.08024 1259245198
-0.0379407 0.060105901 1.0928 1259376784
-0.0095888199 0.059801601 1.08733 1260034714
0.00070231198 0.0600335 1.09601 1259837335
0.039463401 0.059851401 1.0957 1260297886
0.055509102 0.060023502 1.10344 1260363679
0.077688001 0.059388898 1.08653 1260166300
0.0843058 0.0591662 1.0802799 1259903128
0.12547299 0.060054 1.11429 1260692644
0.140918 0.059812099 1.1087199 1260824230
0.18652099 0.0610664 1.15501 1259574163
0.22914501 0.0596742 1.11698 1259508370
-0.137008 0.064480796 1.0941 1259376784
-0.104065 0.064026803 1.08551 1259179405
0.020027701 0.064315498 1.10972 1259442577
-0.158034 0.066854402 1.10302 1259705749
0.073556997 0.075796403 1.1526 1259903128
0.25155601 0.075170003 1.15789 1259310991
-0.405606 0.084752299 1.08419 1259903128
0.32092199 0.088332199 1.0782501 1259968921
0.31679499 0.109472 1.0822099 1262205883
-0.43098199 0.11499 1.05081 1262271676
-0.108306 0.199899 1.25801 1260758437
-0.0822009 0.218228 1.38929 1260034714
-0.175326 0.197264 1.22053 1260166300
-0.34909999 0.191615 1.15771 1259903128
-0.44015801 0.206698 1.13193 1258455682
-0.34145001 0.21411601 1.16989 1258389889
-0.243195 0.21653999 1.18952 1258093820
0.34234199 0.212718 1.08961 1261416367
0.353154 0.216864 1.10252 1259771542
0.340042 0.21787401 1.07646 1261613746
0.313456 0.22460499 1.09095 1262271676
-0.424651 0.223978 1.04451 1261218988
0.316118 0.232894 1.09454 1262337469
-0.15190101 -0.21008 0.91739202 1260429472
-0.194217 -0.26837799 0.752792 1262074297
-0.19385301 -0.26051399 0.75497001 1261942711
0.066258803 -0.38394001 1.09387 1259903128
-0.267515 -0.362003 0.887465 1260890023
-0.268417 -0.35958999 0.89135897 1261087402
-0.35376599 -0.55102199 1.01257 1260297886
-0.26347199 -0.364104 0.90035897 1261087402
-0.235468 -0.30189401 0.86121303 1261482160
-0.23143999 -0.27162001 0.84591901 1260890023
-0.245111 -0.289529 0.85822201 1260561058
-0.228424 -0.24204101 0.83281702 1260890023
0.055160701 -0.246185 0.86487299 1261679539
1.06388 -0.592682 2.27177 1261350574
0.42809299 -0.32882699 1.3726701 1261087402
0.43837401 -0.33405101 1.39042 1262074297
0.565166 -0.383039 1.5591201 1261350574
1.95673 -0.97921801 3.5664599 1261218988
0.083638899 -0.048883699 0.93132198 1261876918
1.99782 -1.0368299 3.59639 1261745332
0.40081799 -0.29131299 1.33444 1261350574
0.43331501 -0.31121501 1.37358 1261679539
0.284596 -0.248641 1.16671 1260824230
0.336918 -0.27713799 1.19491 1260232093
1.48726 -0.78221399 2.8698499 1261087402
0.35602099 -0.269288 1.27099 1261284781
1.3634599 -0.73137701 2.698 1261482160
0.53226298 -0.359602 1.51429 1261087402
0.63774198 -0.410521 1.6784199 1261350574
0.063051999 -0.039418101 0.89322001 1261613746
1.26222 -0.65326202 2.4133601 1260232093
2.0188501 -1.04671 3.6234901 1260758437
0.32095999 -0.27903801 1.22295 1261416367
0.4438 -0.32974499 1.38826 1260824230
1.98879 -0.98544103 3.6057799 1260758437
1.43629 -0.77594298 2.8194699 1260824230
5.6090698 -2.57514 8.6201 1260232093
2.23685 -1.13498 3.7686601 1260692644
0.385398 -0.30466801 1.3193001 1261613746
1.66549 -0.81521398 2.9120901 1259705749
-0.0319167 0.068798803 0.85115701 1253225138
1.91129 -0.90171802 3.2680299 1260166300
-0.191328 0.073562801 0.943735 1259968921
0.799523 -0.47777799 1.79125 1259639956
0.019370699 0.018788001 0.86628699 1261482160
0.53230202 -0.344987 1.4558001 1260626851
5.0076499 -2.3745999 7.78018 1260034714
0.455172 -0.32116199 1.35484 1260626851
0.46059701 -0.33238101 1.37536 1260824230
0.319435 -0.256681 1.21868 1261679539
12.0273 -4.80264 17.871901 1261153195
1.18625 -0.666439 2.42888 1260100507
0.33130699 -0.27823001 1.2429399 1260890023
4.8052201 -2.31201 7.1753101 1259968921
0.31490201 -0.27724499 1.21395 1261087402
0.33107501 -0.28409401 1.23587 1260824230
1.09849 -0.57984 2.2004099 1260297886
0.36022499 -0.27824301 1.22946 1260363679
0.46694601 -0.334456 1.3608201 1259837335
1.01615 -0.54796898 2.09009 1259968921
0.42008999 -0.31860301 1.37017 1260890023
0.543724 -0.354482 1.4708101 1260692644
0.073415503 -0.058148999 0.89907002 1261547953
0.081680298 0.046980999 0.90913397 1260561058
0.86063999 -0.49424699 1.86976 1259639956
0.82610101 -0.496272 1.93356 1260824230
-0.378721 -0.01629 1.23628 1260232093
0.612257 -0.257229 1.6273 1260561058
0.28800499 -0.27959999 1.13254 1259047819
11.4239 -5.2109399 16.1068 1260166300
0.29768801 -0.28463799 1.14584 1259245198
0.726978 -0.335637 1.79691 1260232093
4.1399598 -1.9577 6.3219399 1260232093
2.3447101 -1.1551501 3.9089501 1260166300
0.339084 -0.29187599 1.19633 1258850440
1.37448 -0.67968601 2.5266199 1258389889
1.30279 -0.69051301 2.5099299 1260100507
0.283905 -0.252841 1.16381 1261087402
0.28216299 -0.249837 1.17213 1260890023
0.34921601 -0.31143099 1.21351 1258982026
0.324999 -0.27156699 1.22202 1260758437
0.260203 -0.239151 1.1432199 1260495265
-0.36594701 -0.033313099 1.18538 1260890023
0.34707299 -0.270816 1.2046601 1259047819
4.5552301 -2.10743 7.12465 1260626851
0.27896899 -0.241147 1.16787 1260561058
0.31144899 -0.255687 1.20871 1260758437
-0.392885 0.25784701 1.30413 1259903128
-0.69318599 -0.0079157101 1.92388 1260100507
-0.40111801 0.206701 1.31214 1259968921
-0.52588499 0.0281321 1.54839 1259508370
0.024765501 0.0536329 0.87005502 1261218988
0.72084898 -0.42318401 1.72917 1260297886
0.796839 -0.467628 1.82622 1259903128
0.754255 -0.436021 1.77512 1260297886
0.80054498 -0.45596099 1.83872 1260626851
0.84708703 -0.48941699 1.9645 1260297886
0.94874001 -0.52121598 2.0382099 1260429472
0.89266998 -0.459806 1.90642 1258225406
0.188564 0.207744 0.93518299 1259771542
1.59172 -0.83217001 2.90519 1260232093
1.68726 -0.87325698 3.0353501 1260297886
0.120758 0.16166499 0.85853201 1260100507
0.109941 0.14960501 0.85345697 1260626851
3.12783 -1.57153 5.1894302 1260297886
3.9988899 -2.0046401 6.3762002 1260100507
2.82657 -1.28124 4.40731 1258653061
2.20418 -1.01448 3.7158 1260495265
0.82570499 -0.34655601 1.93258 1260890023
-0.19194999 0.156149 0.90423799 1261021609
-0.354433 0.0111199 1.16343 1260363679
-0.36169699 0.095736504 1.21134 1260758437
0.13382301 0.023992199 0.972489 1261153195
-0.38428801 0.033822 1.23295 1261021609
-0.383818 0.038234301 1.23193 1260955816
0.123072 0.0209803 0.95033699 1260955816
-0.35117999 0.053693 1.18048 1259903128
0.12968899 0.0244154 0.96490902 1260758437
1.51011 -0.81312901 2.92484 1260297886
0.27752599 -0.247336 1.16212 1261021609
0.335758 -0.26842499 1.23469 1261284781
0.40459499 -0.295196 1.28044 1259574163
0.44931999 -0.288598 1.33313 1258784647
0.068022899 -0.052959599 0.89252102 1261547953
0.66917598 -0.40877599 1.661 1260495265
1.44165 -0.79838502 2.8121901 1260297886
0.47203299 -0.260456 1.43617 1260100507
-0.348856 0.027694499 1.1662101 1261416367
-0.36211699 0.076261997 1.2027 1260890023
0.37843701 -0.289745 1.30296 1260297886
0.441082 -0.308202 1.35552 1261153195
-0.31153801 0.13577101 1.14975 1262469055
0.52275801 0.16163 4.23452 1259047819
0.46143901 -0.31670901 1.38161 1260758437
0.418203 -0.252074 1.35984 1260692644
-0.310417 0.10546 1.14121 1263126985
-0.30147299 0.098543301 1.11924 1262008504
0.46444699 -0.323901 1.41651 1260495265
0.442233 -0.308918 1.39169 1260495265
0.55849802 -0.36427099 1.51368 1260758437
-0.36164901 0.079652503 1.20943 1260758437
0.59133399 -0.38309699 1.5965101 1259837335
0.58456802 -0.37617701 1.6047699 1260561058
0.49295899 -0.32527301 1.4231499 1260561058
0.16607501 0.0092241699 1.0156 1260758437
0.470211 -0.32620999 1.42483 1260429472
-0.33913901 0.117332 1.16096 1259705749
0.36032 -0.27558601 1.22259 1259442577
-0.34874099 0.25961 1.20218 1261087402
-0.856062 0.474428 2.6073101 1261153195
-0.44600001 0.27030301 1.48762 1259639956
-0.39621899 0.21329001 1.29882 1260824230
-0.66227502 0.290647 2.08128 1261087402
-0.40180001 0.19935501 1.3112 1260429472
-0.250377 0.0817708 0.97272497 1260495265
-0.32450199 0.071167 1.1486501 1261087402
-0.38117301 0.16739599 1.3344899 1261876918
-0.38373101 0.152475 1.26999 1260297886
-0.36126199 0.147747 1.2792799 1262140090
0.32436299 -0.15523601 1.19692 1261021609
0.19647799 -0.067154497 1.01237 1260429472
0.105357 -0.0059348601 0.85933298 1259442577
0.085891202 0.0033384501 0.84084302 1260363679
0.090660401 0.0039542802 0.83972901 1259442577
-0.365219 -0.0235861 1.2017601 1260297886
0.43181601 -0.30219001 1.33617 1260232093
-0.43277201 0.222637 1.39397 1259903128
-0.38207799 -0.025917299 1.23976 1260824230
-0.41217801 0.208573 1.34513 1260232093
0.075183503 -0.064310499 0.90158498 1261350574
-0.35870799 0.155212 1.255 1260890023
-0.423471 0.16429099 1.36628 1260495265
-0.35347 0.149307 1.23314 1260955816
0.34196901 -0.239512 1.24731 1260232093
-0.40052801 0.146198 1.30958 1260166300
0.448751 -0.31402799 1.3964601 1259968921
-0.337374 0.134022 1.19919 1260824230
-0.486119 0.151583 1.47482 1260166300
-0.381069 0.12946799 1.2654901 1261745332
-0.34735101 0.118373 1.21953 1259310991
-0.38254601 0.121604 1.26586 1260626851
0.54987901 -0.35984299 1.54108 1259574163
-0.48378 0.130438 1.46743 1260232093
0.55445701 -0.36098301 1.5477 1259508370
-0.350263 0.116452 1.2282 1260297886
-0.36895001 0.110651 1.23248 1260561058
-0.45712 0.11573 1.40549 1260363679
0.34868899 -0.27196699 1.25659 1259903128
-0.31715399 0.102844 1.1374 1260890023
0.346571 -0.26366401 1.26494 1260100507
0.63723999 -0.39447001 1.67093 1260232093
-0.393713 0.105628 1.2628599 1260824230
-0.397448 0.102287 1.26993 1260363679
-0.32608101 0.061278801 1.15104 1261284781
-0.357584 0.099662498 1.20401 1260495265
-0.30040401 0.094429098 1.1005 1260232093
-0.38178501 0.094591603 1.25151 1261613746
0.073229499 -0.059310898 0.89991301 1261087402
-0.414491 0.089092903 1.30766 1260692644
-0.421334 0.087706603 1.32253 1260561058
-0.371611 0.068927497 1.23355 1260890023
-0.405141 0.064965203 1.30352 1260429472
-0.377599 0.066120103 1.24654 1260429472
-0.48268899 0.053249799 1.4558901 1259968921
-0.42089099 0.055559501 1.33917 1260363679
-0.468595 0.050364099 1.42567 1260758437
-0.42469099 0.0471959 1.34742 1260100507
-0.320501 0.0791841 1.14166 1259968921
-0.423567 0.029477799 1.32263 1260758437
0.105097 0.016925801 0.91591698 1261416367
-0.43912199 0.0051488099 1.35429 1259968921
0.0681355 0.0298026 0.85551202 1261547953
-0.194278 0.173316 0.90137798 1261218988
-0.0047004698 0.148986 0.95112902 1260561058
-0.191548 0.242495 0.91508901 1259639956
0.51797998 0.198219 1.33412 1259574163
0.50319803 0.196851 1.3654799 1260626851
-0.0049149301 0.275552 0.91764802 1252698794
0.169342 0.15058801 0.90842903 1259639956
-0.111986 0.294554 0.85520798 1250988176
0.114145 0.120977 0.84878701 1260890023
0.263486 0.16340899 1.00954 1259310991
0.105522 0.132029 0.847785 1259179405
0.105514 0.13321599 0.84878701 1259903128
-0.173666 0.25666401 0.88992703 1253883068
0.239242 0.128713 0.991108 1257567476
0.42967799 0.13457499 1.27226 1259639956
0.14953899 0.139393 0.90997303 1260363679
0.57084602 0.150382 1.4518 1260034714
0.606942 0.152759 1.49835 1260100507
1.44994 0.22731601 2.59969 1260297886
0.41958699 0.174208 1.24473 1260758437
-0.041884702 -0.28442201 1.15968 1258389889
0.38118699 0.20909099 1.18343 1259837335
-0.38499099 -0.173767 1.20228 1257962234
-0.31064999 -0.14511999 1.11773 1259113612
-0.139028 -0.112292 1.00249 1259245198
0.053612601 -0.178359 1.27167 1255067342
-0.0103421 0.12768 0.89514899 1257435890
-0.245103 -0.25304899 0.91089499 1261416367
0.267102 -0.184064 1.40951 1260232093
0.24243601 -0.12629899 1.19662 1260758437
0.30875501 -0.17991599 1.5115401 1260100507
0.30741 -0.127885 1.34724 1261350574
0.27460101 -0.119533 1.32109 1261416367
0.0590511 -0.040601399 1.02223 1256251616
0.0125825 -0.0531567 1.18362 1257830648
0.0805934 -0.034666799 1.0125901 1257962234
0.028161401 -0.024981899 0.91143203 1257435890
-0.085751899 -0.028064201 0.95181698 1258850440
-0.082311504 -0.029341299 0.96868098 1258718854
-0.071376801 -0.0274329 0.94413602 1258587268
-0.0557811 -0.0299206 0.978073 1257567476
-0.185983 -0.118414 2.2090001 1260232093
-0.075066499 -0.026417101 0.945786 1258587268
0.0078863399 -0.030588601 1.01879 1255988444
0.00240805 -0.0249207 0.97353601 1252961966
-0.040759899 -0.022901099 0.94711798 1253883068
-0.034000002 -0.023212399 0.95263898 1254804170
-0.025951199 -0.023702901 0.96126997 1253751482
-0.52780598 -0.702564 1.8048199 1261087402
-0.74912798 -1.0208 2.3413 1261087402
0.057849199 -0.28355101 1.13845 1257435890
-0.302257 -0.288019 1.16315 1259310991
-0.31978399 -0.32505 1.22892 1258850440
-0.207306 -0.18156999 0.97533 1259047819
-0.21087401 -0.24137001 1.26662 1260495265
0.243655 -0.25872201 1.17959 1261547953
-0.32052901 -0.35653701 1.10677 1259771542
-0.13028701 -0.121436 0.99235302 1260692644
-0.093496896 -0.122341 0.98339999 1259968921
0.21411499 -0.41566399 1.22363 1261218988
-0.089031696 -0.31400701 1.18322 1259837335
-0.396 -0.393379 1.20885 1260034714
0.39496899 -0.375833 1.49234 1261087402
-0.29698101 -0.27544701 1.1389 1258718854
-0.094707899 -0.094139099 0.97656697 1260100507
0.0315516 -0.094867103 0.985304 1259047819
0.25144199 -0.27149299 1.21043 1261547953
-0.022215599 -0.21964499 1.18637 1254672584
-0.238736 -0.242127 0.90051103 1261350574
1.10796 -0.752868 2.94524 1260824230
0.27482799 -0.22727901 1.33859 1260824230
-0.167034 -0.27485099 1.1424 1258653061
-0.40420499 -0.36792499 1.27203 1261021609
-0.51149797 -0.60304803 1.66289 1260495265
0.27265701 -0.194617 1.3224699 1257041132
0.183441 -0.132393 1.1322 1259442577
-0.398339 -0.16455799 1.23487 1260561058
-0.327355 -0.13443799 1.12595 1261021609
0.392243 -0.195141 1.4571199 1261021609
0.89779299 -0.36309999 2.2862101 1261284781
-0.13998701 -0.105961 1.01686 1260890023
0.0065528899 -0.104864 1.02305 1259245198
0.096270002 -0.14206199 1.1637 1259245198
0.110825 -0.102911 1.012 1259968921
-0.179774 -0.110141 0.997051 1259968921
0.093338303 -0.116921 1.02123 1256251616
3.80474 -2.3040299 5.9066701 1261284781
0.95468497 -0.649459 2.0983701 1260495265
1.86277 -1.2223901 3.3597701 1260758437
1.37185 -0.97274798 2.6594901 1260561058
1.32842 -0.96359402 2.6022501 1260758437
1.08513 -0.81500798 2.2682099 1260890023
1.0182 -0.77160501 2.1740201 1260626851
0.81612802 -0.62719899 1.87545 1261153195
-0.043027401 -0.28049701 1.17398 1258850440
0.214058 -1.01151 2.5645001 1256909546
0.112809 -0.56941003 1.71867 1256383202
-0.029813301 -0.294211 1.1955 1256383202
0.201373 -0.35600299 1.31556 1257041132
1.46975 -1.07042 2.6655099 1260495265
0.57035202 -0.479417 1.54136 1261416367
-0.26683399 -0.27864501 1.14847 1258587268
-0.142478 -0.33373901 1.2379 1259968921
-0.192148 -0.28955701 1.15721 1259113612
-0.69591898 -0.58132797 1.66927 1260626851
-0.0737921 -0.29151899 1.15275 1260166300
-0.270383 -0.36388099 1.2701499 1260232093
-0.434154 -0.44910499 1.40872 1260692644
-0.461528 -0.46553001 1.43654 1260890023
-0.515001 -0.51915902 1.52801 1260890023
-0.308525 -0.383477 1.29012 1260297886
-0.10197 -0.185715 0.924456 1260166300
-0.24505401 -0.247659 0.87368399 1260890023
-0.239577 -0.17271601 0.91371602 1260824230
-0.233551 -0.23025399 0.86466902 1261087402
-0.240574 -0.222064 0.860484 1261482160
0.323176 -0.33374101 1.16423 1260824230
-0.437675 -0.33085901 1.19951 1261087402
0.28479201 -0.35598001 1.2587301 1261679539
0.35483301 -0.35161701 1.26071 1261021609
0.90278101 -0.71109998 1.93147 1260561058
1.01284 -0.72707897 2.14217 1260890023
-0.085198902 -0.181256 0.91199899 1260890023
-0.12922999 -0.184488 0.91767299 1261284781
2.67752 -1.60639 4.4848099 1260495265
-0.096225299 -0.178441 0.90988398 1261021609
-0.057127699 -0.186262 0.92155498 1261350574
0.28760201 -0.316282 1.11508 1259310991
-0.10559 -0.22708499 0.98447901 1260363679
0.299447 -0.31496599 1.13459 1260890023
0.27794099 -0.303785 1.11913 1260297886
0.44251901 -0.42424899 1.30695 1259113612
0.29510099 -0.30876401 1.1289001 1260626851
0.37644699 -0.36664501 1.23154 1261087402
0.392858 -0.37744501 1.25135 1260758437
0.66367 -0.57531399 1.58067 1259113612
0.77651697 -0.650015 1.72019 1258784647
0.45333999 -0.41012701 1.3264101 1260363679
0.440777 -0.408804 1.32705 1260363679
-0.32486999 -0.39607799 1.30557 1260824230
0.294707 -0.31136101 1.1688499 1261613746
0.51725203 -0.45295101 1.40722 1260824230
-0.44032601 -0.340143 1.21332 1261284781
0.557679 -0.48035401 1.45684 1260495265
-0.38021201 -0.34128699 1.2229199 1261613746
-1.07232 -1.24735 2.7564499 1261153195
-0.49516401 -0.56982601 1.6102 1260824230
-0.73660302 -0.74373901 1.90882 1261087402
-0.43730599 -0.429591 1.37544 1261021609
0.104869 -0.35247001 1.24865 1258093820
-0.44326901 -0.425578 1.37157 1260955816
-0.17074201 -0.19310801 0.97563499 1260363679
-0.21143401 -0.31166199 1.18287 1260166300
-0.0582674 -0.188464 0.97140402 1259639956
-0.38169301 -0.58282298 1.65406 1259705749
-0.052297499 -0.33763799 1.23173 1259903128
0.301065 -0.31267899 1.1918 1260824230
0.28969699 -0.30014601 1.16995 1260561058
0.49952301 -0.437172 1.40977 1260824230
0.355941 -0.34574401 1.25234 1260890023
0.31246901 -0.31777701 1.20804 1260890023
0.74606901 -0.60271901 1.71798 1260297886
-0.378667 -0.403065 1.3629301 1259179405
-0.098144002 -0.17437699 0.95706898 1259442577
0.36745101 -0.34822899 1.27861 1261021609
-0.194479 -0.280321 1.15192 1259179405
-0.16044401 -0.29127201 1.1721801 1258982026
0.46096101 -0.41025099 1.39478 1260955816
-0.211163 -0.179189 0.96987301 1258653061
0.024660399 -0.419826 1.42406 1255067342
0.070642002 -0.52951598 1.62758 1254672584
-0.0484154 -0.275424 1.1602 1258389889
0.49276799 -0.42301601 1.45017 1260232093
1.09857 -0.80799001 2.1836801 1260626851
0.64188701 -0.52103603 1.6413701 1260626851
0.70870697 -0.56559801 1.7266901 1261876918
0.51189899 -0.43269601 1.47616 1260495265
0.57040399 -0.468519 1.55748 1260890023
0.701648 -0.55076098 1.7227401 1260626851
0.67524302 -0.527035 1.71551 1260166300
1.50624 -1.03968 2.80883 1260955816
1.09034 -0.77854002 2.2885399 1260824230
1.21594 -0.85218698 2.44416 1260561058
0.41617 -0.39991501 1.49946 1261482160
1.0958101 -0.76821798 2.2985499 1260429472
0.34119201 -0.33660799 1.37476 1261416367
2.2167001 -1.42699 3.7641201 1261482160
-0.060302 -0.149266 0.97459 1256646374
6.6423101 -4.0465798 9.7602196 1260100507
-0.083434403 -0.152674 0.98984402 1260034714
-0.0027817001 -0.075421497 0.95443702 1259705749
-0.25916001 -0.118532 0.97175097 1260758437
0.056764901 -0.10162 0.96836501 1256120030
0.090071604 -0.115051 1.01421 1256646374
1.72018 -1.10051 3.16066 1260495265
0.065922201 -0.095508099 0.982171 1259310991
0.065762803 -0.083856702 0.94376701 1260166300
-0.088309698 -0.24391299 1.4994 1259310991
0.177044 -0.148293 1.17812 1259771542
-0.13167 -0.126333 1.08702 1260890023
-0.0169231 -0.158749 1.20792 1258324096
0.0308153 -0.13410801 1.12352 1258324096
0.0500855 -0.105145 1.02218 1258916233
-0.0393718 -0.241551 1.50506 1258587268
-0.109432 -0.158604 1.20972 1260100507
-0.149891 -0.28142399 1.15007 1259903128
0.094124503 -0.099086501 0.97416699 1259047819
0.0635086 -0.094203703 0.975366 1258982026
0.107016 -0.104506 1.01322 1259442577
