# .PCD v0.7 - Point Cloud Data file format
VERSION 0.7
FIELDS x y z rgb
SIZE 4 4 4 4
TYPE F F F U
COUNT 1 1 1 1
WIDTH 87
HEIGHT 1
VIEWPOINT 0 0 0 1 0 0 0
POINTS 87
DATA ascii
5.6091399 -2.57511 8.6201096 1260232093
3.0789001 -1.4555 5.1625199 1260824230
5.00769 -2.3745699 7.78018 1260034714
12.0274 -4.8025699 17.871901 1261153195
16.870701 -7.52355 24.3346 1260297886
3.2046101 -1.58332 5.25735 1259837335
4.8050699 -2.3121099 7.1753001 1259968921
11.4236 -5.2111201 16.1068 1260166300
4.1399398 -1.95767 6.32195 1260232093
8.0075998 -3.84531 11.4685 1259837335
4.5552402 -2.10744 7.12464 1260626851
11.701 -5.3250899 17.146299 1259837335
14.3825 -6.4632602 21.0728 1260166300
10.7089 -4.9046798 15.8879 1260297886
4.6019101 -2.1647501 7.2272201 1259574163
4.53304 -2.14347 7.1646299 1259968921
3.12783 -1.57154 5.1894302 1260297886
3.9988699 -2.00457 6.3762202 1260100507
5.0855198 -2.47627 7.552 1260034714
5.6761498 -2.4276199 8.0954103 1258916233
3.68962 -1.82481 5.9880199 1260561058
18.727301 -7.8759799 27.526899 1261021609
7.41115 -3.2815299 11.2462 1261350574
6.01404 -2.7667999 9.1893196 1261153195
4.0851698 -1.9809099 6.5494099 1261087402
0.52274197 0.16161001 4.23452 1259047819
9.3442698 -4.1026301 13.9981 1261153195
3.7893801 -1.69575 6.1854 1261350574
4.4419398 -2.13887 7.0352001 1260363679
4.2582002 -2.0144 6.7402301 1259574163
7.8492498 -3.43539 11.978 1261218988
7.8186598 -3.3875 11.8179 1260429472
7.9577899 -3.4355099 12.124 1261284781
12.3927 -5.26229 18.2752 1260363679
19.210899 -7.9507899 27.9277 1260626851
10.815 -4.7593699 15.926 1260495265
5.2249799 -2.4524 8.2348804 1260692644
13.3186 -5.05235 19.632999 1260692644
-1.85155 -3.6040299 3.24736 1260890023
3.2686999 -1.4446599 5.3370199 1260758437
17.541401 -8.0110703 25.573299 1261284781
22.315701 -8.5862303 32.380402 1261087402
10.6666 -3.76789 15.2107 1262074297
10.918 -3.5234101 15.1109 1259968921
-1.17567 -2.1366899 2.24038 1261811125
6.1070399 -2.5774801 9.5176497 1260890023
3.46842 -1.53258 5.6721201 1260824230
3.2695799 -1.5258 5.4519701 1260890023
4.8688598 -2.2737601 7.72298 1261679539
4.25177 -1.9292099 6.7379098 1260297886
6.1070399 -2.61151 8.9937601 1260890023
3.9825201 -1.495 5.9221201 1259113612
-1.21697 0.48461601 3.5364101 1261811125
5.6654601 -2.38167 8.6732998 1262074297
4.76999 -1.99771 7.59342 1261284781
10.2838 -4.12994 15.2426 1260034714
3.4005301 -1.33453 5.5924301 1261021609
3.3452499 -1.1952699 5.2325501 1261153195
-1.7088701 -3.0135901 2.8187301 1260363679
-1.16547 -1.97013 2.0892601 1260363679
3.8410699 -1.62839 6.2209902 1261876918
8.1119204 -3.4462099 12.376 1261153195
10.344 -4.3306699 15.5486 1261679539
5.26651 -2.4032099 8.3129101 1261021609
-0.26033199 -1.03176 3.62463 1260166300
4.3449798 -1.42796 6.3747101 1258850440
4.3466301 0.68840802 5.9932699 1258850440
3.4281099 -1.60333 5.61691 1261153195
4.6329398 -2.0259399 7.0060301 1261416367
4.83499 -2.17699 7.6107302 1261482160
8.3892698 -3.5020001 12.6147 1260758437
5.28332 -1.87239 7.6089001 1259837335
3.28564 -0.97175902 5.0173001 1259047819
10.0313 -4.6015701 14.3105 1262337469
3.7217901 -1.78044 6.09166 1261482160
4.6399798 -2.1981299 7.32686 1261284781
6.0890498 -2.78388 9.2736101 1262008504
18.2528 -8.1480303 26.8834 1261350574
3.4065001 -2.78176 11.7464 1259508370
-0.17522401 -1.51054 3.13341 1259903128
3.98663 -1.0782599 5.9333401 1259113612
3.9502399 -1.02816 5.8860202 1259113612
-3.09867 -1.77114 9.3019896 1260495265
-14.957 -12.2934 37.6936 1259837335
4.6816201 -1.65229 10.0859 1261087402
3.80476 -2.30425 5.9065599 1261284781
6.6424098 -4.0466299 9.7601805 1260100507
