# .PCD v0.7 - Point Cloud Data file format
VERSION 0.7
FIELDS x y z rgb
SIZE 4 4 4 4
TYPE F F F U
COUNT 1 1 1 1
WIDTH 1120
HEIGHT 1
VIEWPOINT 0 0 0 1 0 0 0
POINTS 1120
DATA ascii
-0.15742099 0.13466001 0.81205702 1260034714
-0.147468 0.133154 0.80778497 1259903128
-0.278054 0.0080851903 1.02864 1260561058
-0.25068599 0.018290401 0.97927302 1261218988
-0.132772 0.13093799 0.79924297 1259376784
-0.156964 0.058028702 0.79507101 1261416367
-0.13135 0.059189599 0.77740902 1259639956
0.0115917 0.109241 0.73914099 1261745332
-0.119815 0.064933799 0.75253898 1258784647
-0.14224599 0.0608951 0.77975798 1259047819
-0.047267299 0.058697298 0.73620802 1259508370
-0.11937 0.129272 0.792593 1259442577
-0.114498 0.064320602 0.75391698 1258850440
-0.110654 0.127938 0.786457 1259376784
-0.049616002 0.058899499 0.73777902 1259245198
-0.144719 0.062943198 0.77630502 1259245198
-0.102787 0.061640099 0.75809097 1258718854
-0.091329597 0.071480103 0.71710199 1259047819
-0.15707099 0.059556499 0.79629201 1259574163
-0.100352 0.0607737 0.76095003 1258587268
-0.095634498 0.060976598 0.75764 1258389889
-0.095073402 0.060788099 0.75798202 1258389889
-0.084138699 0.060794499 0.75199401 1258850440
-0.082954504 0.060251102 0.75327098 1258982026
-0.073446803 0.0606451 0.74669802 1259113612
-0.040180702 0.018170699 0.768336 1260232093
-0.042417299 0.058800101 0.73627698 1258784647
-0.0383089 0.0589833 0.73335201 1258982026
-0.166831 0.059685901 0.80252397 1259574163
-0.079582497 0.0599332 0.75368702 1258982026
-0.0470884 0.058678601 0.74031103 1258653061
-0.022523999 0.056072999 0.73612303 1259508370
-0.021942999 0.056259301 0.73513502 1259771542
-0.0120825 0.054676101 0.736435 1261153195
-0.0110031 0.054529902 0.73636597 1261350574
-0.099813603 0.033161301 0.78007299 1260955816
-0.16998599 0.150555 0.86603498 1260561058
-0.266018 0.019431099 1.00641 1261284781
0.047144301 0.114839 0.76756299 1260034714
0.046044901 0.116463 0.77328801 1260166300
-0.291576 0.0099569596 1.06109 1261021609
0.046822399 0.117548 0.77401698 1260166300
-0.275994 0.017512601 1.03035 1260890023
-0.102896 0.053175699 0.799101 1258850440
0.048980299 0.11854 0.78107101 1260495265
-0.261222 0.023092 1.00673 1260955816
0.0528965 0.118108 0.772434 1260890023
0.0119347 0.088908203 0.759202 1260890023
-0.135756 0.054712601 0.81668597 1259179405
-0.132081 0.054380801 0.81581801 1259047819
-0.100267 0.055473901 0.79332203 1259179405
-0.089503497 0.055608898 0.78661197 1259442577
-0.0467817 0.055503801 0.76235902 1258653061
0.0509842 0.120033 0.77873403 1260232093
-0.30471599 0.0144281 1.07091 1260232093
-0.18508901 0.054490201 0.84773898 1260626851
-0.18657599 0.052091502 0.85781097 1259771542
-0.18754999 0.0522299 0.85969901 1260232093
-0.0615004 0.055640101 0.77301002 1259574163
-0.0576992 0.054294799 0.776007 1259376784
-0.13823 0.152413 0.827748 1259442577
-0.185919 0.0481354 0.87660301 1259310991
-0.17563599 0.050308399 0.86206698 1259639956
-0.16596299 0.050638199 0.855138 1259705749
-0.158485 0.051022999 0.84923601 1259705749
-0.15281101 0.0507464 0.84700698 1259639956
-0.138201 0.050145999 0.84075803 1259705749
-0.103781 0.056982599 0.793957 1260100507
-0.069422998 0.052761 0.79025501 1259837335
-0.075894997 0.143383 0.79650199 1259376784
-0.10008 0.056994699 0.79322201 1260297886
-0.094623499 0.052391 0.808065 1260561058
-0.093844898 0.057466801 0.78769398 1260626851
-0.0848023 0.052182101 0.80314302 1260561058
-0.063665897 0.052423 0.789671 1260166300
-0.047809798 0.052900702 0.779917 1259968921
-0.033834402 0.0531426 0.77068597 1259508370
-0.28572899 0.021465501 1.04856 1260824230
-0.186647 0.056784499 0.84874398 1260495265
-0.040701602 0.115471 0.75456202 1253883068
-0.15355401 0.15806 0.82579702 1259639956
-0.044751801 0.00437319 0.801642 1259968921
0.0244147 -0.0107697 0.81404102 1260429472
-0.0546204 0.0057033901 0.804187 1259245198
-0.21265499 -0.071938097 1.0664999 1259771542
-0.065234102 -0.00124574 0.83223999 1259179405
-0.143712 0.16052601 0.83557898 1260166300
-0.16997001 -0.024100799 0.93805403 1259179405
-0.235699 -0.0134654 0.93750799 1261613746
-0.146731 -0.025113801 0.93684298 1261087402
-0.00940709 -0.0079428302 0.84232098 1260495265
-0.0321257 0.025894901 0.76082098 1260232093
-0.17029899 -0.00310805 0.895724 1261416367
-0.171818 -0.00738945 0.90787202 1261745332
-0.31916401 -0.053362101 1.0930099 1260626851
-0.0974316 0.0125896 0.78365803 1260100507
-0.153677 0.020233801 0.82731998 1261613746
-0.29653701 0.0383325 1.07737 1260495265
-0.0151433 0.018747101 0.776326 1260890023
-0.025939099 0.086910903 0.71529299 1260561058
-0.27995199 -0.050688501 0.99281001 1260034714
-0.0150995 0.0250268 0.760171 1260297886
0.0031401699 0.0153703 0.77924901 1259903128
-0.247271 -0.011611 0.95655698 1260692644
-0.28016001 -0.048361801 0.992746 1259376784
-0.174567 0.0250326 0.828605 1261153195
-0.094886698 0.032504998 0.77747297 1260561058
-0.26109701 -0.0022392001 0.99126202 1260692644
-0.15966301 0.15734001 0.83649999 1260824230
0.0225957 0.224369 0.79535502 1243389084
0.0393342 0.190054 0.75286102 1257041132
-0.25198501 0.00824212 0.98096198 1262074297
-0.0895762 0.148607 0.81824601 1261679539
-0.140806 0.19278499 0.77093601 1260034714
-0.0482339 0.199141 0.85116798 1258718854
-0.29482701 0.00016459799 1.04694 1260561058
-0.254123 0.0115184 0.98821503 1261284781
-0.17642701 0.080656499 0.87701201 1258718854
-0.069085203 0.076901399 0.80948597 1261021609
0.0178011 0.066025697 0.79710001 1259113612
0.021967901 0.062915497 0.82594198 1259245198
-0.107264 0.0107964 0.80916798 1259705749
-0.13360199 0.077970304 0.84928399 1260890023
-0.269155 0.0106048 1.02505 1261745332
-0.13951699 0.077099897 0.86063403 1260034714
-0.147934 0.078176498 0.85914701 1260232093
-0.0399625 0.022325501 0.75720602 1259574163
0.0130698 -0.020486601 0.84193599 1259376784
-0.233955 -0.0191414 0.93163699 1262403262
-0.131033 0.056139398 0.78163898 1260692644
-0.0589085 0.017858099 0.77598602 1259179405
-0.30827099 0.0022489701 1.09987 1261811125
-0.11468 0.057705101 0.77340001 1260034714
-0.28940701 0.055884201 1.06827 1260495265
-0.33196399 0.0070273099 1.11604 1260692644
-0.140111 0.0606023 0.77794498 1259639956
-0.185839 0.065229401 0.86639702 1261350574
-0.149271 0.167431 0.72652 1261087402
-0.163403 0.0584497 0.80182803 1260363679
-0.144786 0.0606497 0.78183299 1259903128
-0.108069 0.060058001 0.76385701 1259574163
-0.307006 0.035252102 1.12466 1262008504
0.0191829 0.133955 0.76954597 1260232093
0.019623101 0.133211 0.77056199 1259771542
-0.0499685 0.057768799 0.74132401 1259310991
-0.0167637 0.0538112 0.73999399 1259705749
-0.14543401 0.061472699 0.78010499 1259310991
-0.26878899 0.0381536 1.01525 1261087402
-0.049147502 0.054456498 0.75672299 1258093820
-0.146759 0.25130001 0.73878402 1260758437
-0.021889901 0.17141899 0.738738 1257304304
-0.0273125 0.17395701 0.73922598 1254409412
-0.084238403 0.188345 0.76619101 1257699062
-0.073363803 0.186676 0.759148 1258587268
-0.017391 0.17314599 0.735021 1253488310
-0.146724 0.245253 0.75138098 1257041132
-0.163945 0.206452 0.76731902 1258718854
-0.14725301 0.244526 0.756253 1254672584
-0.163572 0.212313 0.77397102 1259574163
-0.16332699 0.212465 0.77478802 1258916233
0.027273299 0.175341 0.72960699 1257304304
-0.159023 0.195944 0.77332699 1260692644
-0.189882 0.0503598 0.86937702 1260100507
0.057179201 0.156082 0.75978899 1257830648
-0.050519399 0.211106 0.80221802 1255725272
-0.15253501 0.239077 0.76409602 1260429472
-0.061921801 0.213315 0.80091703 1251909278
-0.051584501 0.211394 0.79951799 1251514520
-0.036351901 0.21002699 0.80268401 1251119762
-0.099704303 0.22523101 0.82018399 1251514520
-0.155791 0.188116 0.76005203 1261482160
-0.041439701 0.229298 0.79266697 1250856590
-0.0121422 0.20386501 0.78887302 1250461832
0.052682001 0.21148901 0.78128499 1254804170
-0.035711601 0.23215599 0.80472702 1246020804
-0.00127426 0.20170499 0.78541797 1250067074
-0.0191167 0.023427499 0.763237 1259705749
-0.0057598399 0.20302799 0.78624302 1248126180
-0.27089801 -0.0214295 0.98511702 1260363679
0.0130346 0.19930901 0.78145897 1251119762
-0.170086 0.191641 0.802351 1262008504
0.031250499 0.186654 0.72061402 1254014654
0.041910999 0.195893 0.75891101 1256909546
0.030701701 0.194188 0.76595598 1252698794
-0.16299801 0.233629 0.80096102 1259310991
-0.142923 0.24899 0.728845 1256383202
-0.147001 0.24660601 0.730519 1263587536
-0.15088999 0.245974 0.74722999 1262403262
-0.096048899 0.15473901 0.80039603 1261613746
0.0461962 0.119366 0.774454 1260297886
0.0600405 0.116251 0.78237599 1260232093
-0.188381 0.17568199 0.879013 1261745332
0.034060299 0.136677 0.78295398 1259113612
0.016150801 0.14523099 0.75724697 1259574163
0.046749499 0.121328 0.777408 1260561058
0.025110001 0.14868601 0.75605702 1260890023
0.0224551 0.126131 0.79358399 1260363679
-0.158419 0.183832 0.775464 1262863813
-0.154965 0.240307 0.77454698 1261679539
0.0064894101 0.13086499 0.79072702 1259179405
-0.14754701 0.234118 0.769247 1258784647
-0.0375227 0.211734 0.74782598 1246283976
-0.060249999 0.21878999 0.76063901 1253093552
-0.149551 0.231167 0.76299298 1262600641
-0.159688 0.195859 0.77607101 1262074297
-0.14578 0.193019 0.77149999 1260561058
-0.135189 0.190681 0.76652098 1260429472
0.049053501 0.206294 0.77439702 1256777960
-0.097601697 0.18409599 0.76343399 1260495265
-0.039212 0.172271 0.74509197 1258225406
-0.160254 0.195851 0.77237898 1261416367
-0.097738303 0.184205 0.761374 1260692644
-0.080736399 0.180613 0.74957299 1260034714
-0.038243201 0.17267101 0.74195498 1257567476
-0.136553 0.14973301 0.83400398 1259047819
-0.15048 0.195366 0.77331197 1258718854
-0.165447 0.244597 0.82072902 1260297886
0.041743699 0.194232 0.758578 1257435890
0.039702602 0.191809 0.754448 1258093820
0.038905401 0.19068301 0.75271398 1257172718
0.0212765 0.197366 0.77214599 1246810320
-0.164395 0.23213699 0.80361098 1258521475
0.0321589 0.19413801 0.76898098 1254277826
-0.087398499 0.183047 0.75022799 1259442577
-0.074095301 0.17963199 0.74075598 1260034714
-0.046379201 0.176174 0.74897802 1258093820
-0.045483101 0.176037 0.74904799 1256909546
0.0363231 0.187627 0.748245 1257304304
-0.115598 0.18948799 0.76170897 1254540998
-0.086238302 0.18345501 0.75238502 1258389889
0.0278631 0.19201 0.76015103 1254540998
0.0175968 0.19873799 0.78312498 1251514520
-0.021036601 0.171497 0.74015301 1257567476
-0.013586 0.204382 0.79071897 1250856590
-0.031742699 0.174693 0.746144 1256251616
0.039168902 0.18288399 0.73841 1258521475
-0.0114421 0.203862 0.791601 1251251348
-0.017200099 0.20560201 0.79511899 1250593418
-0.017909801 0.20576 0.79532701 1250725004
-0.022559401 0.206112 0.79406297 1250725004
-0.043754298 0.210346 0.80026102 1252304036
-0.079912797 0.214779 0.80205202 1254804170
0.0323883 0.18276 0.740825 1257172718
-0.037084099 0.176936 0.75131297 1254277826
-0.0834722 0.21725599 0.811746 1256120030
-0.094083101 0.21736699 0.80762398 1254672584
-0.136911 0.226394 0.81875002 1251382934
-0.026926899 0.174605 0.74422199 1254277826
-0.149666 0.231453 0.83177203 1252830380
-0.16466901 0.224078 0.79249698 1259442577
-0.104574 0.192302 0.77497602 1258093820
-0.092757002 0.21681701 0.809816 1258389889
-0.158353 0.196601 0.771689 1258653061
-0.13585199 0.22413699 0.82322699 1258982026
-0.13822301 0.225471 0.82748199 1258982026
-0.140388 0.225656 0.82688498 1258850440
-0.16696399 0.233091 0.84402698 1257435890
0.031791899 0.174201 0.72470498 1259113612
-0.070230298 0.185908 0.76444602 1257304304
0.0079295002 0.169351 0.72687298 1257435890
-0.16323499 0.207268 0.76740497 1259508370
0.0192871 0.16808601 0.72761798 1259245198
0.0038824501 0.170862 0.72961003 1254935756
-0.060056899 0.18364801 0.75587398 1256251616
0.0156458 0.16780099 0.72601998 1259968921
-0.047508702 0.178827 0.76410699 1258093820
-0.021791499 0.171616 0.73813301 1257172718
-0.042578898 0.175337 0.74189401 1255330514
-0.037427299 0.173116 0.739254 1255593686
-0.0474208 0.175889 0.74423701 1257304304
-0.088282198 0.183493 0.749632 1258587268
-0.0803992 0.181124 0.74312699 1258455682
-0.073326796 0.180215 0.74465197 1258653061
-0.073710002 0.180565 0.74640203 1258916233
0.0275768 0.13005599 0.78551102 1259047819
-0.161624 0.158682 0.82338202 1259442577
0.0218997 0.125789 0.79458499 1260429472
0.035472199 0.130072 0.75903201 1260561058
-0.091801703 0.14777701 0.79710603 1260890023
0.024239801 0.125917 0.79161298 1260429472
0.053662699 0.120762 0.78409499 1260955816
0.026283801 0.12607799 0.78893203 1259705749
0.0264141 0.12607899 0.78849602 1259442577
-0.162384 0.16840801 0.80568898 1261482160
-0.121767 0.15354 0.808438 1260495265
0.027418001 0.126333 0.787413 1258916233
0.066363104 0.118762 0.789621 1260429472
0.087787896 0.11335 0.811625 1259113612
-0.091972798 0.148939 0.796628 1260626851
0.0030924601 0.131339 0.787673 1259705749
0.035528399 0.133992 0.78624099 1258850440
-0.091834597 0.148671 0.81412703 1260758437
0.0057588499 0.131589 0.78755701 1260166300
0.0176508 0.128886 0.79548299 1260034714
0.054676 0.12244 0.784688 1260166300
-0.16319001 0.16224299 0.82142001 1260692644
0.023219399 0.129335 0.77472198 1258389889
0.067118198 0.120149 0.79048502 1259705749
-0.17614999 0.163266 0.85685802 1260692644
0.043325499 0.12606201 0.77113599 1261021609
0.0589642 0.122209 0.78826302 1261482160
0.028524499 0.13701899 0.77037603 1256646374
-0.137935 0.158724 0.81169701 1261876918
0.056135401 0.123338 0.78407401 1261613746
-0.164689 0.16307101 0.83456099 1260561058
-0.143526 0.160744 0.81596202 1261547953
0.046820499 0.126637 0.77554399 1261482160
0.0798968 0.119309 0.799591 1258653061
0.049186699 0.126526 0.77615601 1260297886
-0.123066 0.15806501 0.80672002 1261284781
0.028676899 0.14080501 0.77528101 1261153195
-0.16120701 0.165342 0.81360102 1261613746
-0.159683 0.16572601 0.805767 1262469055
-0.116508 0.157387 0.81154799 1261613746
0.0073024398 0.140743 0.76325399 1260297886
0.026482901 0.13712201 0.76912498 1258389889
0.0373214 0.13522001 0.79069799 1259310991
-0.119188 0.164416 0.78798002 1261745332
-0.0044802502 0.14377999 0.74596798 1261745332
0.0286467 0.137438 0.76891297 1256251616
0.028024901 0.13792101 0.76773 1253883068
-0.076505497 0.0595746 0.75097001 1258784647
0.031971298 0.13745999 0.78114599 1260824230
0.0392108 0.13628501 0.75913101 1260561058
0.027754299 0.14629 0.76376498 1261087402
-0.18069001 0.176348 0.861175 1262534848
0.0283149 0.138574 0.76731002 1256383202
-0.0608996 0.055429101 0.76194203 1258718854
-0.0591547 0.054307699 0.76595402 1258916233
0.018993501 0.140999 0.76394498 1260692644
-0.13793699 0.15084299 0.83127099 1259179405
0.0208799 0.197053 0.77439398 1250988176
0.0342164 0.18308599 0.74250799 1256777960
-0.097544 0.21911401 0.80977702 1251514520
-0.1136 0.221325 0.814125 1253225138
-0.114114 0.18392301 0.762604 1260824230
-0.15074299 0.166171 0.73296601 1261482160
0.020353001 0.156876 0.74209499 1261153195
-0.0406156 0.154689 0.809268 1261218988
0.031869601 0.140946 0.74824101 1260626851
-0.142382 0.189311 0.76736999 1262205883
0.0304593 0.141773 0.76906401 1260363679
0.0504294 0.156941 0.768929 1261087402
-0.18377499 0.054455198 0.84240901 1260100507
-0.121319 0.169706 0.78335798 1262798020
-0.093825698 0.164627 0.77466297 1257172718
0.039314799 0.14036401 0.75701398 1259376784
-0.149776 0.053123299 0.82874501 1258784647
-0.153942 0.193332 0.770437 1262074297
-0.058482401 0.15883701 0.790227 1260626851
0.044421799 0.139918 0.76492101 1260232093
0.00678758 0.159816 0.72156602 1260824230
-0.162608 0.196942 0.778368 1261284781
-0.156004 0.194994 0.77258801 1260890023
-0.00120314 0.148699 0.77744597 1260824230
-0.095283501 0.166894 0.78812599 1260166300
-0.094507702 0.166664 0.78413999 1259837335
-0.092031099 0.16595601 0.77236497 1259837335
-0.038906801 0.17165101 0.744322 1258521475
0.061007299 0.138634 0.776389 1260297886
-0.107287 0.168991 0.77125102 1261547953
-0.137977 0.19174699 0.76642102 1259903128
0.036274001 0.143218 0.75310802 1260100507
0.045095898 0.14191601 0.76393801 1260100507
-0.15713599 0.196003 0.771308 1259310991
-0.147504 0.19431099 0.77069098 1259047819
-0.14165001 0.192904 0.76782203 1259113612
0.0155528 0.148091 0.758838 1260626851
0.035533801 0.145055 0.77523398 1260692644
0.021937599 0.147651 0.769705 1260561058
0.029073199 0.14624999 0.765396 1260890023
0.041245099 0.143995 0.76182002 1260561058
0.047614101 0.142983 0.76629603 1261087402
-0.154512 0.19573499 0.77019399 1258093820
0.030626999 0.14708599 0.76624399 1259310991
-0.148608 0.19470499 0.76986903 1258225406
0.043191001 0.14503799 0.761509 1260692644
0.0520547 0.143554 0.763502 1260429472
-0.124169 0.18941499 0.761792 1258521475
0.0342732 0.148453 0.79690802 1261021609
-0.068681799 0.054848298 0.77685398 1259442577
-0.067562498 0.054898798 0.77597803 1259442577
-0.14553501 0.194254 0.76807499 1257567476
-0.097878002 0.18335199 0.748667 1260363679
0.051100701 0.145078 0.76164401 1260692644
-0.080656201 0.180445 0.74830002 1260363679
0.039142601 0.14766601 0.75735199 1260297886
0.054766499 0.161296 0.76920402 1260363679
-0.13755 0.192828 0.76526803 1257172718
0.048565999 0.147213 0.76669103 1260166300
-0.131365 0.191544 0.763605 1256646374
0.026541101 0.15087099 0.756661 1260363679
0.0203411 0.151876 0.74392498 1258587268
-0.120168 0.189456 0.760023 1256383202
-0.083956197 0.18089201 0.74371898 1259376784
-0.100971 0.175345 0.76227099 1261350574
-0.115038 0.188786 0.759076 1255067342
-0.083129801 0.18099301 0.74330401 1259113612
-0.109391 0.177653 0.76525497 1261679539
0.0205626 0.15383001 0.74479502 1259639956
-0.117635 0.189162 0.75676602 1254935756
-0.103327 0.17691 0.76485801 1261547953
-0.11189 0.188162 0.75641698 1254146240
0.046824999 0.151399 0.76402903 1260100507
-0.0875182 0.182955 0.74906999 1259047819
-0.156196 0.187521 0.77222103 1262008504
-0.0663784 0.18003801 0.75249898 1259310991
-0.065973103 0.180116 0.75337303 1259179405
-0.046948701 0.17584699 0.74637502 1258225406
0.028733401 0.15612 0.757487 1260363679
-0.043114498 0.174942 0.74469298 1257041132
0.043005999 0.15548 0.75757903 1260232093
-0.15694401 0.201851 0.79265398 1256909546
-0.134046 0.187419 0.768704 1262271676
-0.12580299 0.186414 0.76591802 1261942711
0.044998001 0.157381 0.76191902 1260824230
0.048797101 0.157013 0.76463401 1260166300
-0.068767101 0.180141 0.748752 1259179405
-0.068073601 0.180208 0.74984598 1259179405
0.0078880703 0.160106 0.72253799 1260824230
-0.0361761 0.17325699 0.739456 1255856858
-0.0138353 0.168937 0.73548502 1258784647
-0.12789799 0.191715 0.77109599 1256909546
-0.112994 0.18790101 0.76032698 1257962234
0.016408499 0.215516 0.77291799 1240000744
0.0157566 0.23528799 0.815189 1244704944
0.0100173 0.239721 0.82334602 1246020804
0.020697 0.23965999 0.82686698 1246547148
0.0425556 0.194052 0.75907803 1257172718
-0.175128 0.253106 0.84748203 1258093820
-0.13127901 0.191953 0.76597899 1256646374
-0.074972697 0.22711299 0.84081203 1250198660
-0.123309 0.1902 0.76249897 1256383202
-0.109684 0.220663 0.81235999 1252698794
-0.13389599 0.225151 0.820364 1252961966
-0.13513 0.224573 0.82222402 1256777960
-0.109763 0.187563 0.75927103 1257567476
-0.108425 0.18740501 0.75974101 1257567476
-0.058651 0.18196701 0.76001698 1254014654
-0.124712 0.18969899 0.76492101 1259047819
-0.128691 0.188732 0.76559001 1260232093
-0.158438 0.195544 0.77626801 1261876918
-0.1391 0.193736 0.76729798 1255330514
-0.040057901 0.110291 0.77270103 1257304304
-0.115742 0.189521 0.76428699 1255067342
-0.16373 0.131179 0.80305302 1259639956
-0.109238 0.18787301 0.75982797 1256120030
-0.089040101 0.183423 0.751077 1258850440
-0.158755 0.177351 0.78452998 1262403262
-0.0151416 0.1102 0.74816 1258389889
-0.01002 0.1101 0.74524897 1259179405
-0.070494004 0.11977 0.76925701 1258653061
-0.00497982 0.109764 0.74157298 1259837335
0.015669201 0.164198 0.72527897 1260297886
-0.067346402 0.119809 0.76555502 1258521475
-0.064113297 0.180756 0.75677103 1258324096
-0.049929898 0.118417 0.74306703 1255725272
-0.00017756999 0.109994 0.738608 1259310991
0.030410901 0.103289 0.75081003 1260824230
0.0059641199 0.109444 0.73470801 1259771542
-0.16170301 0.173912 0.79754299 1262074297
-0.0050210399 0.111317 0.75364 1258653061
-0.051862001 0.147563 0.75733501 1259047819
-0.161173 0.168235 0.80294001 1262403262
0.071824603 0.12952299 0.80567002 1260561058
0.076653801 0.12867101 0.81112099 1259376784
-0.161616 0.16763 0.80411601 1261613746
0.0716414 0.126316 0.80421299 1260561058
-0.12700599 0.196272 0.78754801 1254277826
-0.164114 0.16340999 0.81906003 1261218988
0.034589 0.112706 0.76404798 1260626851
0.020884201 0.127027 0.79086697 1259245198
0.040001601 0.112038 0.76659602 1260955816
0.053583499 0.110923 0.77646399 1259639956
-0.126385 0.196339 0.78609103 1255330514
-0.13479599 0.152851 0.81204998 1260166300
-0.121254 0.194895 0.78175801 1253619896
-0.14692 0.152355 0.79948699 1259771542
-0.043185402 0.177074 0.74530798 1254935756
-0.020036301 0.172249 0.73773998 1255725272
0.0185239 0.164755 0.72892702 1260824230
0.057026401 0.163359 0.763111 1260166300
-0.146098 0.201325 0.79600698 1255856858
-0.131584 0.197284 0.78422201 1257041132
-0.112682 0.193729 0.78075302 1255462100
-0.108426 0.192779 0.77893698 1255462100
-0.0466993 0.17872301 0.75062603 1254277826
-0.030337101 0.175441 0.74619198 1254540998
-0.118707 0.19464 0.77781397 1255198928
-0.117128 0.194332 0.77745199 1254804170
-0.100359 0.191368 0.77569503 1256514788
-0.097197302 0.190678 0.77446997 1256646374
-0.096888602 0.19062699 0.77446097 1256646374
-0.093445599 0.189896 0.773251 1256120030
-0.115212 0.19401 0.77493298 1255462100
-0.103301 0.192013 0.774409 1257699062
-0.091205701 0.18967301 0.77176398 1256909546
-0.087505601 0.189099 0.771927 1256646374
-0.084736504 0.188454 0.77057999 1256383202
-0.0116791 0.171501 0.73547798 1255988444
-0.089295298 0.189427 0.76979601 1257567476
-0.080397598 0.18793499 0.76938999 1256909546
-0.080096699 0.187857 0.76919299 1256777960
-0.0146073 0.17278901 0.738877 1254804170
-0.0086095296 0.17101499 0.73346299 1255856858
-0.042805601 0.070250303 0.79493898 1258850440
0.0093120197 0.093495697 0.75176501 1261218988
-0.17273 0.12222 0.80194497 1261942711
-0.0734846 0.186626 0.76573998 1256909546
0.023397399 0.093025804 0.74060702 1260561058
0.0248187 0.092579998 0.74170297 1258916233
0.0064771702 0.098503403 0.72840899 1260561058
0.00655013 0.098869704 0.72762799 1259705749
-0.0990941 0.113289 0.773462 1259574163
0.00555804 0.099111103 0.72923398 1261021609
-0.140494 0.119814 0.78702903 1261482160
-0.063760802 0.108356 0.76169598 1261350574
-0.00170299 0.100195 0.73352402 1261679539
0.0055588 0.0993976 0.72913402 1261350574
0.0066263899 0.099828601 0.72849798 1261218988
-0.0030193001 0.170726 0.73342502 1257435890
0.0294345 0.089214496 0.777345 1261021609
0.0093816603 0.099485703 0.73106802 1259903128
0.024389399 0.0953269 0.73987103 1258850440
0.020308601 0.096911103 0.73853898 1259968921
0.0076531 0.10056 0.73185402 1260824230
0.0084272297 0.100861 0.73047298 1260692644
-0.16753 0.126616 0.79892403 1261350574
-0.16395301 0.20887101 0.80610901 1259574163
-0.167276 0.127435 0.79487199 1261153195
0.0222515 0.097425997 0.74074501 1260363679
-0.15897501 0.12706301 0.78774399 1260100507
-0.148563 0.12500601 0.78801799 1260429472
-0.11178 0.120127 0.769894 1259508370
-0.149142 0.12616099 0.78509003 1259376784
-0.145697 0.125477 0.78522497 1259574163
-0.137309 0.124115 0.783032 1259705749
-0.13388801 0.123572 0.78199703 1259047819
-0.124326 0.122516 0.77546501 1258916233
0.0098014502 0.16932 0.72780299 1256646374
-0.0196792 0.101909 0.778238 1260495265
0.0185245 0.099569999 0.736552 1260100507
-0.095799997 0.119224 0.75964397 1259047819
0.0112306 0.101702 0.73303801 1259639956
-0.151898 0.12750199 0.783921 1258521475
-0.144123 0.125865 0.78505802 1258784647
-0.143438 0.12578399 0.78465199 1258784647
-0.093836904 0.119296 0.75840402 1258982026
0.0092274798 0.169339 0.72552103 1256251616
-0.089387901 0.118538 0.76014298 1259179405
-0.084684797 0.116211 0.772322 1259310991
-0.046434101 0.108393 0.77605498 1259574163
-0.0071026599 0.101792 0.767515 1262205883
0.020079499 0.099901602 0.73874998 1261021609
-0.118238 0.123059 0.77189898 1257699062
-0.0462793 0.10911 0.77252197 1259376784
0.00837107 0.101897 0.74352199 1260955816
0.0126463 0.102084 0.73474598 1259903128
0.0236701 0.16703901 0.71191603 1260232093
-0.11371 0.122744 0.76973701 1257304304
-0.082008101 0.117648 0.76088899 1258916233
-0.071891397 0.115506 0.762595 1259376784
-0.060084399 0.113667 0.76158202 1259508370
-0.037345398 0.107742 0.77550399 1259442577
-0.036844701 0.108072 0.77174503 1259310991
-0.0269104 0.106946 0.76463199 1259639956
0.0075591002 0.102206 0.74774098 1261153195
0.0121821 0.102479 0.73714399 1261416367
-0.171599 0.129384 0.81658202 1258389889
-0.103117 0.121399 0.76931101 1256514788
-0.061326999 0.114302 0.76084298 1258982026
-0.0607839 0.114224 0.76064003 1259047819
-0.026849501 0.107363 0.76375997 1259310991
0.012848 0.102559 0.73800403 1261482160
0.0133278 0.102656 0.73620099 1260824230
0.024178499 0.100182 0.73983699 1260034714
0.023292501 0.10036 0.74256802 1260561058
-0.15698799 0.127827 0.81215799 1257830648
-0.156791 0.127739 0.812626 1257304304
-0.0114508 0.106098 0.754089 1261021609
0.0111853 0.103111 0.741368 1261350574
-0.134055 0.124506 0.80559301 1257304304
-0.1277 0.123125 0.80722398 1256251616
-0.079272904 0.118756 0.76015699 1256909546
-0.069188297 0.11714 0.75715703 1256646374
-0.067660697 0.116566 0.759893 1256777960
-0.13947199 0.125802 0.80669999 1257567476
-0.137935 0.125625 0.805574 1257435890
-0.119852 0.122362 0.80374599 1256383202
-0.113199 0.121792 0.796902 1255856858
-0.110722 0.121174 0.79824001 1255988444
-0.066243999 0.116656 0.759417 1256120030
-0.0541525 0.113682 0.76594901 1257699062
-0.14931799 0.12801699 0.80714601 1258784647
-0.129822 0.125862 0.79160398 1257962234
-0.131304 0.125117 0.80174899 1257699062
-0.115724 0.122659 0.79672098 1256909546
-0.112767 0.122144 0.796242 1256646374
-0.054742999 0.11428 0.76435101 1257041132
0.0119926 0.103819 0.74177903 1261482160
-0.150685 0.129783 0.795672 1259639956
-0.144871 0.127892 0.80362397 1259179405
-0.144363 0.127883 0.80285197 1259047819
-0.118429 0.124422 0.787799 1258324096
-0.107969 0.121872 0.79339403 1257567476
-0.106639 0.122601 0.783454 1257435890
-0.103793 0.121064 0.79357702 1257435890
-0.0189454 0.108077 0.76142299 1258718854
0.012951 0.104609 0.73501801 1260100507
-0.134611 0.12673301 0.79926598 1259047819
-0.122564 0.124779 0.79583102 1258521475
-0.035352301 0.111662 0.75999099 1256251616
0.0262993 0.101289 0.745974 1260034714
-0.092313796 0.120365 0.785649 1257962234
-0.087904803 0.119652 0.78437001 1256909546
-0.0294425 0.111388 0.75450701 1256383202
0.0115634 0.105389 0.735668 1260626851
0.028700899 0.10121 0.74535203 1260626851
-0.097605698 0.12176 0.78531998 1258982026
-0.082558103 0.119167 0.78248501 1257567476
-0.080381297 0.118797 0.78198802 1257041132
-0.078862101 0.118588 0.78112102 1256646374
-0.076429799 0.118231 0.78000498 1256251616
-0.042747099 0.114194 0.75486302 1254935756
0.0082868896 0.106338 0.73535401 1261416367
0.0082826102 0.106633 0.73524803 1262074297
-0.0819977 0.12005 0.77930099 1259179405
-0.078627698 0.119481 0.77854103 1258521475
-0.020568499 0.111019 0.75042599 1256646374
0.0134821 0.105909 0.73563498 1260495265
-0.0601882 0.118362 0.75559098 1256251616
-0.0121979 0.11022 0.745103 1258718854
-0.00586206 0.109444 0.74376601 1260100507
0.00104765 0.108322 0.741615 1261350574
-0.00818606 0.110194 0.74362803 1259508370
-0.0019706001 0.109223 0.74128699 1260429472
0.0057218401 0.107791 0.741036 1261021609
0.037546899 0.100498 0.75632799 1260495265
-0.056521401 0.119103 0.749511 1257699062
-0.050025001 0.118362 0.74371499 1255462100
-0.0116702 0.11126 0.742338 1257172718
-0.0103477 0.110982 0.74268198 1258225406
-0.00856057 0.110679 0.742257 1258521475
-0.0066449102 0.110423 0.741032 1258850440
0.015619 0.106268 0.74074203 1261021609
-0.065636501 0.121451 0.74553299 1258587268
-0.00170198 0.109873 0.74002099 1259245198
0.0026999901 0.109075 0.73967898 1260034714
0.00318041 0.109034 0.73905498 1260100507
0.0060590999 0.108672 0.736817 1260824230
-0.084124498 0.121926 0.78691101 1260100507
-0.043041799 0.117261 0.74844801 1256120030
-0.031778399 0.114787 0.752967 1254935756
-0.022612499 0.113339 0.75354397 1254804170
-0.039127398 0.117775 0.73985702 1255988444
0.0222745 0.105834 0.74585998 1259903128
-0.0264709 0.115096 0.74811399 1256777960
0.0215197 0.106275 0.74598998 1259639956
-0.177644 0.136631 0.84485102 1260561058
-0.0077603501 0.111452 0.754426 1257830648
-0.0022165801 0.110457 0.75383902 1257172718
-0.0053584501 0.111384 0.75357699 1258225406
0.00046173501 0.110306 0.75350201 1258225406
0.0031982099 0.109802 0.75339502 1258093820
0.0063454001 0.109284 0.75239098 1257435890
0.0193744 0.107678 0.74520898 1260955816
-0.161616 0.13739599 0.80874097 1260824230
-0.00215196 0.111546 0.75183201 1259639956
0.0090404795 0.109456 0.75195903 1258982026
0.0101646 0.109296 0.75125402 1258587268
0.0104091 0.109293 0.75063801 1258455682
0.0116755 0.10915 0.74921799 1258653061
0.032009002 0.105148 0.75256503 1261218988
0.038182002 0.103747 0.75639802 1260955816
0.031177901 0.192011 0.76195502 1255330514
-0.16171201 0.13776299 0.809187 1260955816
-0.0037432599 0.112218 0.751001 1260100507
0.00268004 0.111023 0.75101298 1259903128
0.0061593801 0.110364 0.751167 1259574163
-0.166141 0.138289 0.82624799 1259968921
-0.065197803 0.122153 0.78460902 1258587268
0.01062 0.110278 0.74961102 1260100507
-0.170711 0.238547 0.81431198 1260626851
0.0149788 0.109595 0.75290501 1260429472
0.024647599 0.10832 0.74977702 1261218988
0.0120549 0.111096 0.74762201 1260561058
0.024891101 0.108456 0.75224203 1261547953
0.0118836 0.111747 0.74757499 1260890023
-0.16917101 0.242498 0.816526 1260495265
0.028769201 0.109263 0.75482702 1261087402
0.037769899 0.107828 0.75749201 1259968921
0.032801099 0.10904 0.75834602 1260890023
0.0149594 0.11284 0.75357401 1261218988
0.040061001 0.108276 0.76150697 1261021609
0.0118439 0.222468 0.82396102 1246020804
-0.17486399 0.145624 0.85122102 1260890023
0.041326601 0.109407 0.762694 1260758437
0.042050399 0.109285 0.76227999 1260166300
-0.088861696 0.226675 0.78084397 1250988176
0.043536201 0.110034 0.76385701 1260232093
0.039183602 0.111843 0.76561803 1261284781
-0.085634701 0.244734 0.83587003 1249178868
0.036440499 0.112677 0.76652902 1260955816
-0.162513 0.148899 0.81910801 1260626851
0.042822301 0.113299 0.769804 1261482160
0.018724101 0.118021 0.76228899 1261153195
0.046240799 0.113375 0.77672601 1261153195
-0.16623101 0.15146799 0.84131098 1260495265
0.034557801 0.116276 0.76319098 1260100507
-0.160724 0.15093599 0.84204799 1259376784
-0.13228101 0.146008 0.80326402 1260034714
-0.152275 0.23950499 0.76348901 1261284781
-0.160944 0.15843301 0.83608598 1261153195
-0.0456158 0.136411 0.76007599 1256514788
0.0056702099 0.128675 0.79952198 1257435890
0.0049861702 0.128498 0.78915501 1258225406
0.0058152801 0.128327 0.78778601 1258587268
0.011223 0.127459 0.79036599 1259310991
0.011537 0.12740199 0.79029298 1259442577
0.017601401 0.126976 0.78441697 1259639956
0.016617101 0.126995 0.77936202 1259968921
0.017055999 0.126873 0.778216 1259968921
0.0220061 0.12643801 0.77907598 1259310991
0.048302501 0.12218 0.775231 1259705749
0.0198237 0.127617 0.770217 1258784647
-0.0144446 0.13339099 0.75118399 1257304304
-0.0064584301 0.13245299 0.76128101 1257962234
-0.0053501101 0.13224301 0.76091701 1257304304
-0.091479197 0.148917 0.798603 1260429472
-0.0040709702 0.131999 0.752756 1258587268
-0.148141 0.244323 0.75785798 1258982026
-0.106088 0.254861 0.77751201 1249442040
-0.151527 0.24354 0.75451398 1262534848
0.082237199 0.122181 0.81041902 1259639956
-0.165509 0.16574401 0.81981498 1261153195
-0.15906399 0.16504 0.81920397 1261547953
-0.146905 0.16264699 0.81347299 1262074297
-0.12668701 0.15894 0.80827099 1261547953
-0.16497301 0.16673601 0.817366 1261745332
-0.13997599 0.162102 0.81039703 1262469055
-0.122715 0.159036 0.80763102 1261416367
-0.117373 0.15804499 0.80613202 1261482160
0.089387201 0.124309 0.81924897 1261153195
-0.149388 0.242882 0.74517697 1262074297
-0.146415 0.24515399 0.749856 1257304304
-0.147268 0.240348 0.735425 1259113612
0.053981502 0.128846 0.78507 1260297886
-0.148229 0.242736 0.73867798 1260955816
-0.14524899 0.24552 0.74417102 1256251616
-0.103548 0.157271 0.805049 1261876918
-0.163643 0.16837899 0.80955899 1261021609
0.103278 0.126148 0.836052 1260824230
-0.039943099 0.14504699 0.76287299 1257830648
-0.144881 0.24671701 0.742118 1254409412
-0.047297999 0.146798 0.76530701 1258225406
-0.052339699 0.147697 0.762088 1258587268
-0.0180857 0.14182401 0.75504798 1258324096
0.081217296 0.131529 0.82054698 1260561058
-0.16276699 0.170656 0.805565 1261942711
-0.036560498 0.145853 0.75875902 1258916233
0.085536502 0.131787 0.82622898 1260626851
-0.147503 0.245497 0.73111898 1260890023
-0.15997501 0.170357 0.80294502 1262337469
-0.14843599 0.24724901 0.732427 1260692644
-0.00052248698 0.14034399 0.75562298 1258982026
-0.16258401 0.171489 0.80231202 1261218988
-0.0091893701 0.142377 0.75512397 1259047819
0.00200787 0.140356 0.75300598 1259310991
-0.100403 0.16082899 0.78870499 1261087402
-0.0223349 0.14474601 0.75403398 1259113612
-0.00280069 0.14127401 0.75098503 1260034714
0.0075993598 0.138768 0.74257398 1259113612
-0.0263051 0.177931 0.81895202 1259113612
-0.100755 0.18327799 0.75476301 1261021609
-0.0142937 0.143309 0.74936301 1259310991
0.0035395001 0.14158601 0.757599 1260100507
0.00290637 0.141344 0.75417799 1258982026
0.0095477598 0.14092 0.76064599 1259639956
-0.16163699 0.172814 0.79795998 1261416367
-0.118923 0.16472401 0.78650397 1261613746
-0.112646 0.163397 0.78350699 1262600641
-0.160081 0.196125 0.77490002 1261218988
-0.086948201 0.159841 0.77548599 1260758437
-0.161296 0.174657 0.794698 1261350574
-0.16083699 0.174916 0.794357 1262534848
-0.156854 0.19588999 0.77455997 1259968921
-0.14572699 0.193794 0.772407 1259903128
-0.101883 0.184227 0.75318998 1260034714
-0.046428099 0.156941 0.78082502 1258521475
-0.094179101 0.163515 0.770127 1257699062
-0.122629 0.17160299 0.79524899 1262798020
-0.102096 0.165709 0.77475399 1260824230
-0.160064 0.177228 0.78739601 1261547953
-0.159918 0.177524 0.78706098 1261153195
-0.093378097 0.16504399 0.77212697 1256120030
-0.0942339 0.165461 0.77162898 1258225406
-0.121382 0.224264 0.81755602 1249935488
-0.056245301 0.211078 0.802912 1257041132
-0.120384 0.17167901 0.77929002 1262666434
-0.159872 0.17973401 0.78497797 1262008504
-0.080275901 0.21486799 0.80218703 1255067342
-0.076322302 0.213725 0.79992801 1255725272
-0.075516097 0.213925 0.80120999 1255725272
-0.0695384 0.212055 0.797207 1256514788
-0.052916002 0.211337 0.80415303 1256514788
-0.0470731 0.210529 0.80435401 1257172718
-0.16759101 0.22536901 0.79124498 1260232093
-0.068072103 0.212084 0.79646897 1256120030
-0.155918 0.180646 0.76854903 1261416367
-0.16355599 0.222666 0.77986002 1259245198
-0.164599 0.22764701 0.79890001 1258455682
-0.164803 0.231365 0.813411 1256514788
-0.10317 0.22431 0.82108903 1251251348
-0.15736499 0.184039 0.76962101 1261811125
-0.160283 0.187411 0.776061 1260495265
-0.10099 0.176539 0.76382601 1261153195
-0.000310034 0.152631 0.71582502 1259771542
-0.16080301 0.188757 0.77550203 1260824230
-0.158664 0.189889 0.767959 1261284781
-0.133111 0.18746001 0.76907802 1261679539
-0.142424 0.18967099 0.77138197 1261284781
-0.118086 0.184955 0.763147 1261350574
-0.115848 0.18486901 0.75990099 1260626851
-0.014649 0.204154 0.792611 1251909278
-0.10991 0.184949 0.76236802 1259837335
0.046549398 0.126647 0.81517398 1260429472
0.019323699 0.157354 0.72285998 1260890023
-0.149737 0.19390699 0.77317703 1260758437
-0.0358219 0.17210799 0.75000203 1256646374
-0.145482 0.193446 0.77233899 1259837335
-0.138265 0.191778 0.76970702 1260363679
-0.096586697 0.18097299 0.74978799 1259837335
-0.0524376 0.1806 0.77356499 1257699062
0.030296801 0.13367 0.77909499 1259179405
-0.0098507004 0.17128401 0.727301 1255330514
-0.0078650899 0.17078599 0.72531497 1256646374
-0.14218999 0.193437 0.77000701 1258982026
-0.114818 0.18723699 0.76067102 1258587268
-0.110995 0.18625601 0.75891697 1258850440
-0.110757 0.186326 0.75932801 1258718854
-0.084280297 0.15745801 0.774863 1261811125
-0.120053 0.189228 0.76430899 1258225406
-0.00332722 0.17024601 0.72344297 1257830648
-0.027774399 0.173981 0.75523299 1255593686
-0.116657 0.18810301 0.76044601 1258389889
-0.105674 0.18749 0.76405001 1259771542
-0.099870898 0.186763 0.76437902 1260495265
0.00087237399 0.16889 0.71835297 1258916233
-0.0456701 0.21309599 0.79884303 1251777692
-0.100773 0.18431599 0.753079 1258784647
0.0113617 0.168211 0.72029102 1259508370
-0.163697 0.150713 0.826316 1261021609
-0.089709997 0.182685 0.751495 1258718854
-0.119324 0.21136899 0.80092901 1257304304
-0.166972 0.210545 0.77310002 1258389889
-0.093242899 0.183495 0.75147599 1258916233
-0.120462 0.21277601 0.80238801 1256120030
-0.033166699 0.218251 0.80950397 1247599836
-0.082748301 0.18321 0.754695 1257435890
-0.067087702 0.18385901 0.76538998 1255725272
-0.0654632 0.18375801 0.765881 1256777960
-0.050388701 0.179887 0.75912797 1253883068
-0.047256 0.17919099 0.75813699 1254540998
-0.043545 0.17474 0.74323303 1257435890
-0.026807699 0.172775 0.74458498 1257172718
-0.0096607497 0.168226 0.73637301 1258982026
-0.0093974201 0.21364 0.80336398 1244968116
-0.0059287902 0.21345501 0.80383801 1248126180
-0.078058302 0.185858 0.76585197 1256646374
-0.059543401 0.181435 0.758865 1253883068
-0.0226194 0.17197201 0.742513 1257567476
-0.0078611802 0.17000701 0.74282002 1258521475
-0.079105303 0.18470301 0.75967002 1255856858
-0.0780285 0.184231 0.75846201 1254277826
-0.133637 0.228324 0.82433802 1256251616
-0.132779 0.22804099 0.82380402 1256383202
-0.12791701 0.226843 0.82210398 1257041132
-0.16358399 0.24157199 0.851695 1250198660
-0.054825298 0.183194 0.76657701 1253356724
-0.045995701 0.17843001 0.75334698 1255462100
-0.0458913 0.178223 0.75263298 1256514788
-0.0226766 0.172051 0.74157298 1256383202
-0.136841 0.22882 0.82162899 1252172450
-0.052458599 0.18074299 0.75735998 1252040864
-0.048670799 0.179998 0.75525999 1253093552
-0.0357255 0.177082 0.75108802 1253488310
-0.036366198 0.177185 0.74990898 1253619896
-0.0077239298 0.16960099 0.73542398 1258718854
-0.031395901 0.175877 0.74522102 1254277826
-0.0093499096 0.170601 0.73708397 1257699062
-0.0087973 0.16867299 0.73041499 1259705749
-0.0085922899 0.16860899 0.730281 1260166300
-0.0276001 0.17540701 0.74421698 1254277826
-0.087394699 0.189495 0.76414597 1258653061
-0.016987 0.17275999 0.73765802 1254935756
-0.0131314 0.17196199 0.73669201 1256251616
-0.0185884 0.173676 0.73898798 1252435622
-0.020605899 0.17441601 0.73949897 1253356724
-0.0165934 0.17315599 0.73700398 1252830380
-0.115648 0.221604 0.81548101 1253093552
-0.110673 0.22048201 0.81405997 1253225138
-0.17046601 0.224728 0.802948 1257041132
-0.0874485 0.219946 0.80910701 1254146240
-0.121833 0.22365101 0.81783903 1252435622
-0.121435 0.223535 0.81764799 1251909278
-0.119483 0.22305 0.81695902 1252304036
-0.100776 0.232278 0.85071898 1256251616
-0.093623899 0.217026 0.80902803 1256514788
-0.089879498 0.216684 0.80942303 1255330514
-0.089118399 0.216787 0.80999899 1256777960
-0.087208502 0.21686199 0.81093103 1256646374
-0.00093033898 0.204372 0.78643602 1250330246
-0.00040958801 0.204414 0.786744 1250461832
0.0144191 0.16762701 0.70543402 1259771542
0.0307953 0.171317 0.722233 1259639956
0.0162344 0.201754 0.78411299 1251251348
-0.17051101 0.224903 0.80226398 1258784647
-0.144069 0.230785 0.828978 1248915696
-0.141372 0.230419 0.82890898 1250461832
0.0109003 0.202621 0.78336298 1246283976
-0.135232 0.224586 0.81431001 1249935488
-0.12785301 0.225998 0.8211 1248915696
-0.123811 0.22479101 0.81909698 1248389352
-0.12191 0.22449499 0.81893802 1248915696
-0.119106 0.223621 0.81744301 1250067074
-0.116204 0.222314 0.81473398 1251777692
-0.112671 0.22114401 0.81265002 1251119762
-0.106267 0.219813 0.81115502 1253093552
-0.093559302 0.21724901 0.80841202 1254935756
-0.091324903 0.216924 0.80829901 1255330514
0.032322101 0.17186999 0.72351098 1257830648
0.039749499 0.183134 0.736386 1258718854
-0.105444 0.22001199 0.81075197 1252040864
-0.094982602 0.21783 0.80829799 1253883068
-0.084787801 0.21754199 0.81119102 1254409412
0.0137278 0.202645 0.780828 1245231288
0.021983899 0.197337 0.768902 1249705212
0.022843899 0.19624101 0.76613498 1251514520
0.0149209 0.20016 0.77311403 1244704944
0.054191101 0.19419201 0.79482198 1258916233
0.0115157 0.168331 0.70485801 1259903128
-0.10015 0.219448 0.80979502 1251909278
-0.0904634 0.2173 0.80715197 1251777692
-0.087459199 0.217281 0.80818999 1251251348
-0.0633232 0.214665 0.80943799 1250856590
-0.0567712 0.20966201 0.79749399 1250461832
-0.086265303 0.217614 0.80830002 1250330246
-0.0621594 0.213815 0.80615503 1248652524
-0.166824 0.23119301 0.79070801 1258389889
-0.053546499 0.210006 0.79842401 1249442040
-0.0468034 0.210025 0.79964298 1250067074
-0.042253099 0.20940299 0.79952699 1250198660
-0.039880399 0.210326 0.802975 1250330246
-0.0347066 0.20928399 0.801884 1251646106
-0.169431 0.227561 0.804371 1257567476
-0.045763101 0.210665 0.80058199 1248126180
-0.0420486 0.210013 0.80007499 1248389352
-0.031612299 0.209702 0.802885 1250330246
0.0333382 0.174353 0.72648603 1258225406
-0.051467299 0.21100201 0.79827601 1244968116
-0.048366498 0.210122 0.796924 1246283976
-0.037565999 0.21123099 0.80380702 1246283976
-0.026700599 0.20816401 0.79781902 1248389352
-0.023982 0.207396 0.79662901 1248389352
-0.018065801 0.20596001 0.794698 1249178868
-0.0102533 0.203963 0.79186702 1249935488
-0.029092699 0.209186 0.79859799 1246283976
0.018138301 0.19799 0.78395498 1252172450
0.045409199 0.1899 0.77100903 1256514788
-0.148148 0.218224 0.78143603 1251646106
-0.0123801 0.20475 0.79091001 1246810320
-0.0056575499 0.20340399 0.78951401 1247863008
-0.00309435 0.20297401 0.78921098 1248389352
0.00297157 0.20182399 0.78812897 1249442040
0.0082610799 0.20078 0.78707099 1250067074
0.0166506 0.199093 0.78530401 1251382934
0.017529899 0.195839 0.77665901 1254672584
0.0373023 0.192361 0.773857 1258455682
0.0555862 0.187714 0.767344 1255856858
-0.170377 0.242357 0.83884299 1254672584
-0.14798801 0.218026 0.779921 1252961966
0.0252761 0.102688 0.73994601 1259574163
-0.026139701 0.209327 0.797566 1242599568
-0.0193114 0.20667601 0.792642 1243652256
-0.017666399 0.20619901 0.791897 1243915428
-0.0114058 0.204818 0.79024702 1244704944
-0.0089417798 0.20397399 0.78877801 1245757632
-0.0059406301 0.20355199 0.78864199 1246547148
-0.0031649999 0.20296299 0.78797799 1248652524
0.0323155 0.180353 0.73821598 1256909546
-0.174264 0.237946 0.82423598 1258850440
0.00095189398 0.202418 0.78671497 1246020804
0.0168356 0.198892 0.78248501 1249442040
0.0113372 0.200103 0.78277397 1247336664
0.018056899 0.197652 0.77839601 1250856590
-0.17422301 0.24095 0.82986099 1257304304
0.0055005499 0.201942 0.78464198 1246020804
-0.153044 0.22091299 0.73851597 1258916233
-0.17457201 0.24232 0.832178 1257041132
0.0616097 0.21907701 0.79303902 1256383202
0.022558801 0.19524799 0.771213 1252172450
0.025154199 0.19428299 0.76948702 1252567208
0.025847699 0.193955 0.768852 1254409412
0.028793 0.193599 0.76885802 1255725272
0.0297554 0.19381601 0.76975501 1255856858
0.033858702 0.183117 0.74247301 1256251616
0.039625201 0.18062299 0.73769599 1258521475
0.016971899 0.199132 0.778651 1244178600
0.021518299 0.196906 0.77421403 1249442040
0.0229729 0.19557101 0.77113402 1250988176
0.024948699 0.194749 0.76959002 1251514520
0.0303821 0.19381399 0.768884 1254540998
0.045170099 0.193477 0.77279502 1254409412
0.018333999 0.198237 0.77561897 1244178600
0.018903701 0.198052 0.77531201 1245757632
0.0275594 0.194581 0.76893097 1252435622
0.0361288 0.185147 0.745785 1257699062
-0.146962 0.229783 0.74930501 1259771542
-0.157774 0.212162 0.75360602 1260626851
-0.17522 0.24611899 0.83701098 1257962234
-0.148029 0.22026099 0.77794898 1250593418
-0.147154 0.219375 0.77590799 1249935488
-0.175281 0.248588 0.84217101 1256909546
0.036288001 0.186315 0.74701202 1257567476
0.040785901 0.183227 0.74039298 1258587268
-0.144428 0.226677 0.73607701 1258521475
0.041706599 0.183686 0.740973 1257041132
-0.14485399 0.23596901 0.75294203 1255330514
-0.178495 -0.035601199 0.78916198 1261218988
-0.17551 0.25047401 0.84443498 1257699062
-0.157061 0.21248101 0.75137699 1259903128
-0.182208 -0.034990702 0.79003 1261350574
-0.144609 0.23659401 0.75019598 1257172718
-0.0086402697 -0.115922 0.80261099 1259771542
-0.175056 0.25306499 0.84612101 1258718854
-0.17649201 0.25773701 0.85618502 1257435890
-0.144592 0.237626 0.74894601 1255593686
-0.15722799 0.213361 0.74958301 1260758437
-0.156985 0.213338 0.74959397 1260363679
-0.157646 0.218289 0.76095498 1259508370
-0.145564 0.181704 0.716658 1261153195
-0.136718 0.190598 0.76605803 1261876918
-0.113853 0.18602601 0.75904298 1260561058
0.043023501 0.194767 0.760019 1256646374
-0.123936 0.18838499 0.76146197 1260561058
-0.156746 0.218426 0.757469 1259442577
0.045748401 0.198791 0.765769 1257567476
-0.155929 0.21861701 0.75424498 1259376784
0.046721 0.201092 0.76861799 1255856858
-0.15597899 0.218454 0.75308102 1259837335
0.047028098 0.202006 0.76989198 1255462100
-0.15575799 0.216094 0.74612099 1260297886
-0.159999 0.226873 0.769346 1257172718
-0.155569 0.19684701 0.77248198 1259705749
-0.102628 0.184983 0.75430602 1260297886
-0.154541 0.21780799 0.74826598 1259310991
-0.15091699 0.19566 0.76866102 1260100507
0.049837001 0.20618699 0.77550203 1254804170
-0.155406 0.216469 0.74424201 1259113612
-0.132851 0.19171999 0.76146698 1259245198
-0.15444 0.218426 0.74756098 1259968921
-0.099857703 0.23392101 0.79595 1247863008
-0.041017599 0.224875 0.79062498 1245231288
0.0513473 0.209545 0.77962101 1254804170
-0.154415 0.21879201 0.74698502 1259771542
0.176562 -0.25478199 1.07865 1260495265
0.177947 -0.24554799 1.06161 1261153195
0.052748799 0.194942 0.790043 1258521475
-0.15265 0.235166 0.82745898 1246547148
-0.141371 0.234 0.82847899 1248126180
-0.121083 0.228367 0.81963199 1247336664
-0.112567 0.22555301 0.81456602 1248915696
-0.106904 0.224879 0.81480902 1250198660
-0.104499 0.223849 0.81267202 1251514520
-0.100818 0.224222 0.81527698 1252961966
-0.098382302 0.222505 0.81107199 1252304036
-0.096160203 0.223004 0.81347197 1251251348
-0.071539998 0.233925 0.801211 1251514520
-0.065068498 0.236105 0.80776101 1251514520
-0.088142402 0.22043601 0.80894399 1253225138
-0.206395 -0.145913 0.80935502 1260890023
-0.179161 -0.242705 1.08134 1258850440
0.064612798 0.212961 0.78868997 1258225406
-0.062568299 -0.23488601 1.06514 1258093820
-0.093703397 0.242236 0.81322402 1248126180
-0.353212 -0.232914 1.0659699 1257962234
0.046382502 0.188678 0.76722598 1255856858
0.034438699 0.17673901 0.72636497 1257435890
-0.067406498 0.23067699 0.84658903 1251909278
0.051656101 0.211541 0.78123897 1255988444
-0.233923 -0.23540901 1.06973 1257304304
-0.223473 -0.23595899 1.07069 1257699062
-0.041056599 0.218404 0.81882501 1251119762
-0.200041 -0.23735701 1.07319 1257304304
-0.0317409 0.212819 0.804497 1249178868
0.090798497 -0.230322 1.06681 1254540998
-0.15485799 0.222976 0.75195497 1258225406
-0.018095899 0.207765 0.79355901 1251514520
-0.02321 0.208691 0.79300302 1247336664
-0.0155382 0.207261 0.79177999 1250461832
-0.0067463499 0.20565601 0.790479 1251646106
-0.34796801 -0.224519 1.06315 1256120030
-0.33286399 -0.224701 1.06339 1256383202
-0.178404 0.25206801 0.85860801 1255330514
-0.0183249 0.213218 0.76309597 1244441772
-0.0122946 0.206972 0.79090899 1249178868
-0.00422851 0.22121701 0.78305298 1245757632
-0.0045064501 0.22058401 0.78159797 1245231288
-0.15562101 0.222298 0.74821001 1259574163
0.037023202 0.11276 0.76216799 1261021609
0.00193179 0.217049 0.77457201 1243652256
0.00349749 0.213716 0.76773697 1244441772
-0.156635 0.223381 0.74962401 1260363679
-0.146523 0.231144 0.76876199 1254540998
-0.150795 0.23160601 0.76796699 1260955816
0.047173899 0.114591 0.76689398 1259705749
0.0176105 0.230584 0.80554599 1243915428
-0.155661 0.222792 0.74724001 1260034714
-0.14847399 0.227474 0.75678003 1259245198
-0.150794 0.237754 0.77792698 1260363679
