# .PCD v0.7 - Point Cloud Data file format
VERSION 0.7
FIELDS x y z rgb
SIZE 4 4 4 4
TYPE F F F U
COUNT 1 1 1 1
WIDTH 1163
HEIGHT 1
VIEWPOINT 0 0 0 1 0 0 0
POINTS 1163
DATA ascii
-0.44390199 -0.0121333 0.98437202 1259968921
-0.40392801 -0.0109704 1.04647 1261613746
-0.43296099 -0.0066147801 0.97086799 1262337469
0.29267201 -0.0053969501 1.08957 1262337469
-0.440961 -0.0031242899 0.99624902 1261745332
-0.430886 -0.0031588201 1.00761 1261613746
0.19949999 -0.00354459 1.13782 1259968921
0.215294 -0.0014093301 1.10224 1259771542
-0.42999801 0.00053643202 0.99392098 1262732227
-0.41984099 0.00238119 1.00128 1262271676
0.578641 0.0090125902 2.1149399 1262534848
-0.43481901 0.0058783698 0.97140503 1261745332
0.20862301 0.0068993801 1.13591 1261547953
-0.442361 0.0077394899 0.98095298 1262205883
-0.44367301 0.0078801503 0.99861598 1261547953
-0.43305799 0.0132641 0.989564 1262995399
-0.44674101 0.0148785 0.97624201 1259639956
-0.43454 0.0153695 1.0082999 1262074297
-0.42034799 0.0152202 0.99852598 1261482160
0.28038999 0.0166547 1.09121 1262205883
-0.43733701 0.0165626 0.96981299 1261942711
-0.44323301 0.016912101 0.990201 1261613746
-0.423172 0.0171024 1.0012701 1262732227
-0.44555399 0.0184852 0.97720498 1261153195
-0.43503201 0.0208715 1.00555 1261745332
-0.40651301 0.022956301 1.1056401 1261876918
-0.40544999 0.023000799 1.10777 1261679539
-0.44500899 0.0218894 0.96892899 1259903128
0.28251901 0.026711401 1.09242 1262074297
-0.434488 0.026280999 1.00045 1261284781
-0.44079399 0.0286387 1.01887 1262403262
-0.449451 0.0293025 0.97860098 1260890023
-0.44777399 0.0298436 0.99663502 1261811125
-0.42437601 0.0299506 1.00018 1261745332
-0.448753 0.0317447 0.998815 1261942711
-0.43721199 0.031752601 0.99905401 1261942711
-0.44058499 0.032604799 0.96985 1261679539
0.28867701 0.036839399 1.09507 1262600641
-0.44142199 0.037884898 0.96814102 1262008504
-0.444895 0.038465001 0.982939 1261284781
0.22200599 0.048269801 1.12701 1262140090
-0.45071799 0.043497499 0.97429103 1260561058
-0.44532001 0.043604899 0.97668898 1261416367
-0.44031799 0.0449223 1.00615 1261613746
-0.44069701 0.045133099 1.01086 1262008504
-0.45422399 0.0453141 0.97485101 1259376784
-0.44128299 0.047053501 1.01221 1262403262
-0.00849084 0.050050799 1.07639 1260626851
-0.44453201 0.0469396 0.97141302 1261547953
-0.447707 0.047797799 0.98915201 1261942711
0.173576 0.054015301 1.11735 1260890023
-0.035914902 0.054816101 1.09251 1260561058
-0.37996799 0.056028601 1.07737 1261284781
0.100619 0.058994502 1.13414 1260429472
0.10256 0.059024099 1.13471 1260626851
0.162305 0.056781799 1.09161 1260692644
0.189906 0.057432 1.10409 1260429472
0.194236 0.0576257 1.10781 1260626851
0.202849 0.057452001 1.10446 1260363679
0.21729 0.0578692 1.11247 1260166300
0.22613101 0.058237702 1.11955 1260561058
-0.43110299 0.053853899 1.00032 1262600641
-0.331049 0.055810802 1.03658 1260100507
-0.22411001 0.0571636 1.06164 1260363679
-0.19586299 0.056162201 1.0430501 1260495265
-0.18178 0.0577618 1.0727201 1260034714
-0.161487 0.057534799 1.0685 1260232093
-0.137942 0.058113199 1.0792201 1259639956
-0.086867198 0.058830298 1.0925 1259771542
-0.0847921 0.0586535 1.08922 1260166300
-0.077041604 0.058280099 1.0822901 1260232093
-0.070355803 0.058718901 1.09043 1259442577
-0.046454001 0.058354702 1.08366 1259968921
-0.043143898 0.058763798 1.0912499 1260034714
-0.0251901 0.059288099 1.10097 1260297886
0.066946402 0.058083199 1.07857 1260955816
0.106169 0.059944499 1.11309 1260692644
0.107775 0.059806801 1.11053 1260692644
0.211054 0.059721701 1.10891 1259508370
-0.29941499 0.057609599 1.03466 1259705749
-0.18518201 0.0602591 1.08215 1259310991
-0.164552 0.059967101 1.0769 1259639956
-0.141923 0.060260601 1.08216 1258718854
-0.13006 0.060612898 1.08848 1259442577
-0.12577 0.060294598 1.08276 1259179405
-0.116101 0.0608995 1.09361 1259310991
0.026063601 0.0610926 1.09702 1259574163
-0.43241999 0.057706598 1.0033799 1262534848
-0.23936801 0.061809599 1.07456 1259705749
-0.209819 0.062070601 1.07908 1259837335
-0.198191 0.062371001 1.08429 1259771542
-0.19047201 0.062209599 1.08149 1259442577
-0.079652697 0.0628969 1.09338 1259113612
0.172738 0.065375403 1.13633 1259837335
0.176607 0.065406702 1.13687 1259245198
0.23980799 0.066126697 1.14935 1258718854
-0.446632 0.057713501 0.972462 1261416367
-0.43327999 0.059669401 1.00537 1262205883
-0.245904 0.064088702 1.07968 1260626851
-0.226494 0.0641945 1.08146 1260297886
-0.222616 0.064115196 1.08012 1260232093
-0.182873 0.064695902 1.08988 1260034714
-0.121667 0.064973101 1.09452 1259245198
-0.0603939 0.065750301 1.1075799 1259574163
-0.44376799 0.061811499 1.01019 1262205883
-0.161226 0.0675174 1.10323 1260100507
-0.120101 0.067128301 1.0968699 1260166300
-0.104419 0.066450298 1.08579 1259771542
-0.0513441 0.068017103 1.1113501 1259771542
0.254372 0.070674904 1.1546299 1259771542
-0.312933 0.0681623 1.08137 1259245198
-0.17447799 0.0697001 1.1057 1260824230
-0.31022301 0.073344097 1.1305701 1260692644
-0.32372901 0.072946601 1.0935 1259574163
0.20813601 0.079967901 1.19848 1259903128
-0.450064 0.066919103 0.97639197 1261679539
-0.44235799 0.068240501 0.99565101 1261679539
-0.157051 0.075387798 1.09974 1260955816
-0.43423599 0.070638202 1.00371 1261679539
-0.45282501 0.071457699 0.98953301 1261745332
-0.444924 0.072864302 1.00899 1262732227
-0.434838 0.0723048 1.00125 1262534848
-0.45161799 0.0728155 0.98331499 1261021609
0.0621108 0.0856103 1.15578 1260232093
0.144274 0.085246302 1.1508501 1261087402
0.153933 0.085288301 1.15141 1260495265
-0.44100299 0.074767098 0.98521399 1261942711
-0.39778399 0.080291599 1.05794 1259837335
0.156969 0.086961001 1.14557 1261416367
0.159275 0.087178797 1.14844 1261087402
0.26337099 0.088088498 1.16039 1261613746
-0.33801499 0.085392497 1.09849 1261745332
0.0607998 0.087960102 1.13138 1260429472
0.064710103 0.0881529 1.13386 1261021609
-0.456321 0.079052202 0.993554 1261876918
-0.44166899 0.078506798 0.98670101 1261876918
-0.43407899 0.079222001 0.99567997 1262534848
-0.39333999 0.086698301 1.08956 1261350574
-0.31795001 0.0874286 1.0987099 1262337469
0.059438001 0.0908392 1.14143 1261350574
-0.453372 0.080064602 0.98356599 1261087402
-0.37614101 0.0893583 1.09762 1262205883
-0.47608599 0.082975902 0.996822 1259047819
-0.440642 0.081638597 0.98075902 1262403262
0.208599 0.100983 1.21278 1261745332
-0.44436499 0.0844597 0.99272501 1261876918
-0.44861901 0.085908502 1.00974 1262271676
-0.43419999 0.084735297 0.99595797 1261679539
0.248721 0.099074997 1.1641901 1262074297
-0.44469899 0.098445296 1.13254 1261482160
-0.43866 0.097521797 1.12192 1261679539
-0.43622899 0.090302899 0.99680197 1262403262
-0.451527 0.089568198 0.96905899 1261613746
-0.45674399 0.091256902 0.98731399 1261350574
-0.43449399 0.102578 1.0880899 1261876918
-0.45867401 0.095286898 0.99148399 1261876918
-0.43455201 0.0954303 0.992971 1262074297
-0.42626399 0.102169 1.06304 1262074297
-0.45361999 0.098577201 0.970083 1261284781
-0.46224201 0.100478 0.971223 1260363679
-0.444691 0.101644 0.98248303 1261613746
-0.450178 0.111028 1.0019799 1262337469
0.31866601 0.121675 1.09785 1262929606
-0.079668298 0.132276 1.17409 1259639956
-0.0770256 0.134491 1.19374 1260034714
0.31833401 0.123564 1.0967 1263061192
-0.436674 0.114757 0.98655403 1262600641
0.31920201 0.127212 1.09342 1262863813
-0.46289301 0.11412 0.96582901 1259968921
-0.44487801 0.115289 0.97571403 1261942711
-0.45948899 0.117493 0.97914398 1261613746
-0.45923901 0.118387 0.97171301 1261613746
-0.43704101 0.119846 0.98368102 1262337469
-0.43733901 0.129509 1.04716 1262469055
0.30240101 0.136712 1.10523 1262140090
-0.44810501 0.12335 0.98279101 1261679539
0.310011 0.138033 1.09958 1262666434
-0.45992199 0.124367 0.97659999 1261416367
-0.086843997 0.171423 1.34585 1260363679
-0.463772 0.127676 0.96098298 1259968921
-0.46184301 0.131115 0.96030003 1261350574
-0.439165 0.13575999 0.981103 1262929606
-0.46485001 0.139881 0.959903 1260824230
-0.46446401 0.140247 0.96241599 1261942711
-0.46063101 0.140545 0.96445799 1261679539
-0.45723 0.146135 1.0028 1262337469
-0.47062799 0.141941 0.96190703 1259047819
-0.46432 0.14148299 0.958808 1261021609
-0.46368399 0.14305 0.95749497 1261284781
-0.45235899 0.146617 0.981363 1261613746
0.327831 0.164057 1.0979199 1262600641
-0.44128001 0.148543 0.98217303 1262008504
0.223968 0.174942 1.15654 1262600641
-0.464479 0.14631601 0.95584798 1260495265
-0.46295699 0.146339 0.95599401 1261613746
-0.452306 0.149666 0.97771698 1261942711
0.133424 0.17208999 1.12405 1261218988
0.23507001 0.190773 1.24603 1262403262
0.242788 0.193618 1.2646101 1262600641
-0.464306 0.148018 0.95549101 1261087402
-0.45576099 0.15372699 0.992329 1261679539
-0.27476099 0.169539 1.0943201 1260955816
0.45624799 0.246397 1.59014 1262469055
-0.46463901 0.14988101 0.956177 1260824230
-0.46058801 0.151695 0.96774399 1261613746
-0.32494801 0.16920701 1.07939 1261547953
-0.45162499 0.16242801 1.0241801 1262469055
-0.405817 0.180787 1.13989 1262469055
-0.40532601 0.183139 1.1547101 1262403262
-0.31083399 0.17233799 1.08662 1261153195
-0.32172599 0.191782 1.20917 1260824230
-0.31237701 0.18977299 1.19651 1260692644
0.030014699 0.200426 1.2636 1260100507
-0.41511601 0.19155499 1.19393 1261416367
0.21531799 0.18641999 1.16184 1262140090
-0.48126701 0.18051399 1.1124099 1264048087
-0.21273901 0.199799 1.2311701 1260692644
-0.200707 0.19605801 1.20812 1261021609
-0.13073599 0.19375899 1.19394 1259968921
0.31053001 0.179812 1.10797 1262271676
-0.46722099 0.156708 0.95494401 1259705749
-0.442518 0.160441 0.977678 1262929606
-0.408131 0.189916 1.15721 1260692644
-0.30066001 0.18092 1.1023999 1260429472
0.095595598 0.173584 1.05766 1260626851
0.159858 0.18693601 1.13898 1260824230
0.330562 0.17969599 1.0948499 1262534848
-0.46095699 0.15959901 0.96178597 1261547953
-0.45028201 0.162101 0.97685701 1261613746
-0.40144801 0.18369 1.1069 1261745332
-0.26277599 0.208223 1.25466 1260692644
-0.092488401 0.20597801 1.24111 1260824230
-0.46183199 0.16167299 0.96361202 1261350574
-0.438041 0.166042 0.98963702 1261679539
-0.46609101 0.191842 1.14336 1262403262
-0.182835 0.212347 1.26548 1259837335
0.056767002 0.209785 1.25018 1259771542
0.0690547 0.209159 1.2464499 1260297886
0.32021999 0.185121 1.1032 1262929606
-0.45431 0.166573 0.98204702 1261284781
-0.100144 0.20925801 1.23356 1260297886
0.096811399 0.208626 1.22981 1259903128
0.107906 0.210288 1.2395999 1259903128
0.239897 0.21015701 1.2388099 1259771542
0.25000599 0.203274 1.1982501 1260955816
0.284354 0.212541 1.2528501 1261679539
-0.456359 0.16974799 0.99003899 1262337469
-0.444251 0.168285 0.981507 1261745332
-0.28908101 0.18399 1.07305 1259047819
0.13531201 0.210235 1.22601 1259310991
0.261978 0.208655 1.2167701 1260890023
0.29986301 0.215492 1.2566299 1260561058
0.32790801 0.21466801 1.25183 1261218988
-0.46823499 0.16528 0.95376801 1260363679
-0.47632599 0.196087 1.13148 1260955816
-0.45824999 0.199709 1.15237 1260495265
-0.41430801 0.20073999 1.1583101 1260100507
-0.373252 0.203605 1.17483 1258982026
-0.29607901 0.184752 1.06607 1258916233
-0.151444 0.21083599 1.2165101 1259113612
-0.091880701 0.213688 1.23295 1259245198
-0.064785801 0.212387 1.22545 1259179405
0.0066636 0.21263801 1.22688 1259179405
0.036170602 0.20609801 1.18916 1258916233
0.0381319 0.205993 1.18855 1258916233
0.120651 0.208327 1.202 1258521475
0.191034 0.215453 1.2431 1259376784
0.2667 0.21469299 1.2387 1259639956
0.27626401 0.21734899 1.25402 1259508370
0.29288799 0.22203501 1.28105 1259639956
0.322335 0.217429 1.25448 1260232093
0.33476499 0.220108 1.26993 1260363679
-0.463774 0.16771699 0.95767802 1261876918
-0.49099001 0.198762 1.1348799 1260561058
-0.47606301 0.198057 1.13085 1260166300
-0.44518 0.20112599 1.14837 1259771542
-0.43842399 0.20066001 1.14571 1259705749
-0.43239799 0.202305 1.1551 1259639956
-0.423316 0.20349 1.16186 1259442577
-0.41680801 0.20314801 1.1599 1259639956
-0.39302799 0.19798 1.13041 1259442577
-0.380878 0.204605 1.16821 1258455682
-0.288001 0.20498 1.1703399 1258982026
-0.20356999 0.210399 1.20127 1258389889
-0.152418 0.214442 1.2243299 1258587268
-0.112259 0.21564899 1.23122 1258587268
-0.106549 0.216547 1.23634 1258389889
-0.0980362 0.215941 1.23288 1258521475
-0.093706802 0.21543001 1.22997 1258521475
-0.080955803 0.21421701 1.22304 1258455682
-0.074924096 0.21444499 1.22434 1258653061
-0.0056667002 0.21752 1.24189 1258455682
0.0025977299 0.216695 1.23717 1258455682
0.0046517299 0.216381 1.2353801 1258389889
0.035646401 0.21716601 1.2398601 1258093820
-0.46875101 0.1684 0.95159 1259574163
-0.44437599 0.172475 0.97460902 1262666434
-0.45949599 0.2045 1.1555099 1258455682
-0.45782799 0.204615 1.15615 1258455682
-0.431445 0.20489 1.1576999 1258718854
-0.426568 0.205327 1.16017 1258455682
-0.42254299 0.206192 1.16506 1258389889
-0.36386499 0.207036 1.16982 1258324096
-0.214784 0.20608599 1.16443 1257830648
0.093384698 0.22652601 1.2667 1257962234
0.194713 0.231612 1.29512 1258653061
0.19922601 0.229357 1.28251 1258653061
0.212965 0.23035499 1.28809 1258850440
0.276568 0.22972199 1.2845401 1259837335
0.284675 0.23285399 1.30205 1259508370
0.30255699 0.233265 1.30434 1260034714
0.32730699 0.235441 1.31651 1260100507
-0.46250799 0.171933 0.95178902 1261811125
-0.192288 0.217842 1.2058001 1257435890
-0.190157 0.217702 1.20502 1258225406
-0.173816 0.21734799 1.20306 1257699062
-0.148661 0.218665 1.21035 1258225406
-0.144777 0.218889 1.2115901 1257699062
-0.120758 0.219249 1.21357 1257567476
-0.117116 0.220002 1.2177401 1258324096
-0.105221 0.22058 1.22094 1257962234
-0.095835596 0.222397 1.2309901 1258225406
-0.087807499 0.222838 1.23343 1257962234
-0.047100399 0.224663 1.24352 1258521475
0.0047516702 0.22803 1.26215 1258587268
0.0110629 0.228113 1.26261 1258587268
0.0131638 0.228076 1.2624 1258587268
0.0152478 0.227796 1.26086 1258718854
0.023330299 0.224728 1.24388 1258587268
0.070953101 0.22463199 1.24334 1258784647
0.106892 0.230685 1.27683 1258916233
0.108836 0.230298 1.27469 1258916233
0.11043 0.22920001 1.26861 1258916233
0.13130499 0.232489 1.28681 1259376784
0.135151 0.23173299 1.28263 1259113612
0.148836 0.229773 1.27178 1259310991
0.150796 0.229532 1.27044 1259047819
0.178142 0.232076 1.28452 1259310991
0.19786701 0.23517799 1.30168 1259639956
0.206678 0.23289099 1.2890199 1259639956
0.220241 0.233612 1.29301 1259771542
0.241901 0.235834 1.3053 1260034714
0.28734201 0.237452 1.31425 1260626851
0.28924701 0.23721901 1.31296 1260758437
0.298482 0.237607 1.31511 1260955816
0.30242801 0.235562 1.30379 1260626851
-0.463393 0.175824 0.96351898 1261613746
-0.47186199 0.204548 1.12087 1260034714
-0.458543 0.205273 1.12484 1258324096
-0.42110601 0.20713501 1.13503 1258324096
-0.411955 0.207287 1.13587 1258324096
-0.39963201 0.208757 1.1439199 1258324096
-0.39745399 0.209618 1.14864 1258389889
-0.39579999 0.209756 1.14939 1258389889
-0.38812599 0.209747 1.14934 1258324096
-0.38082901 0.20994601 1.15043 1258225406
-0.367199 0.209823 1.14975 1257962234
-0.36539301 0.209886 1.1501 1257962234
-0.362461 0.210408 1.1529599 1257962234
-0.35781699 0.21221 1.16283 1258093820
-0.291042 0.215838 1.1827 1258225406
-0.28631201 0.215244 1.17944 1258225406
-0.283526 0.21462201 1.17603 1258225406
-0.27655101 0.21529201 1.1797 1258587268
-0.132065 0.223511 1.22471 1258916233
-0.11231 0.224802 1.23177 1259047819
-0.0902723 0.22613201 1.23906 1259113612
-0.043051202 0.227442 1.24623 1259245198
-0.036955301 0.22825301 1.25067 1259245198
0.0110402 0.229963 1.26003 1259442577
0.025402701 0.22702 1.24391 1259574163
0.080212198 0.22971199 1.2586499 1259968921
0.21853299 0.236471 1.29566 1260692644
0.26852599 0.24671701 1.3517801 1260955816
0.28655899 0.24673501 1.3518699 1261284781
0.33408201 0.24691001 1.3528301 1261350574
-0.444143 0.180204 0.97766799 1261350574
-0.46327001 0.20947801 1.13644 1259113612
-0.449094 0.205587 1.11533 1259245198
-0.45170599 0.209382 1.13592 1259310991
-0.42260101 0.211867 1.14938 1259376784
-0.406093 0.212244 1.15143 1259310991
-0.40186399 0.213053 1.15582 1259310991
-0.390091 0.21398801 1.16088 1259508370
-0.38775101 0.213764 1.15967 1259310991
-0.376665 0.215156 1.16722 1259179405
-0.34665701 0.21584 1.17093 1259574163
-0.339026 0.21349099 1.15819 1259574163
-0.269447 0.216489 1.17444 1259508370
-0.092369698 0.22849201 1.2395101 1260297886
-0.090228401 0.22829799 1.2384599 1260034714
-0.0493678 0.230147 1.24848 1260232093
-0.0390498 0.230618 1.25103 1260100507
-0.034963202 0.23115399 1.25394 1260034714
-0.46602499 0.17852899 0.95902801 1261284781
-0.456871 0.18318599 0.98403698 1261811125
-0.409338 0.216074 1.16063 1259903128
-0.39741701 0.21801899 1.17108 1260166300
-0.38862401 0.218559 1.17398 1260166300
0.136659 0.228195 1.20193 1259310991
0.325037 0.209004 1.10085 1262732227
-0.47306499 0.182832 0.95389497 1259968921
0.121809 0.228833 1.19374 1259376784
0.12787201 0.23263 1.21354 1259245198
0.129976 0.232778 1.2143101 1258653061
-0.46485201 0.185748 0.95990199 1260955816
-0.454669 0.189503 0.97929502 1262666434
-0.46622801 0.186782 0.95616603 1261547953
-0.44687101 0.190759 0.97651201 1262008504
0.32592601 0.215662 1.10386 1262600641
-0.45654401 0.191155 0.96942198 1261547953
0.106195 0.22751901 1.15371 1258455682
0.096954897 0.221688 1.11377 1258982026
-0.46364099 0.195822 0.95740199 1261811125
-0.45521301 0.199111 0.97347999 1261745332
-0.47261801 0.197098 0.94663399 1260166300
-0.457892 0.202792 0.96545303 1262140090
0.13202 0.20743699 0.98749101 1261087402
-0.458058 0.20569301 0.96242398 1261876918
-0.45616299 0.208491 0.97551203 1262732227
-0.45958701 0.208886 0.96902698 1261416367
0.112214 0.26995301 1.24159 1259376784
-0.45945999 0.213138 0.97217298 1261153195
0.139402 0.268832 1.22607 1260626851
-0.46713999 0.21036001 0.95153397 1260890023
-0.46829399 0.212633 0.95388502 1261153195
-0.010935 0.255016 1.1439101 1260626851
-0.46967101 0.213567 0.95024103 1261613746
-0.45903999 0.21931 0.96787298 1261087402
-0.450243 0.220727 0.96629202 1262929606
-0.467884 0.21945301 0.953049 1261416367
-0.460237 0.22189 0.96362901 1261482160
-0.47775099 0.2199 0.94743198 1260495265
-0.453356 0.226641 0.97646397 1261811125
-0.462515 0.22576 0.96503299 1261876918
-0.46179599 0.226987 0.97027701 1261021609
-0.47247699 0.22714099 0.95591801 1261153195
-0.43388399 0.224473 0.94469303 1260429472
-0.472238 0.228782 0.95543402 1261350574
-0.46208099 0.230064 0.96078598 1261876918
-0.480591 0.229442 0.943712 1258982026
-0.479689 0.229763 0.945032 1259837335
-0.47435099 0.23177101 0.95328403 1261350574
-0.46262699 0.235503 0.96863198 1261153195
-0.46370199 0.236187 0.964158 1261811125
-0.47463101 0.23462801 0.950665 1261876918
-0.46344101 0.237004 0.96028799 1262205883
-0.49631 0.25224301 0.971398 1260100507
-0.48062801 0.26133901 0.99934697 1261284781
-0.48144501 0.26181 0.99416101 1261350574
-0.33801299 -0.35402 1.06723 1260758437
-0.35846701 -0.336061 1.0334001 1261416367
-0.37231699 -0.32505 1.0129499 1260955816
0.22778299 -0.33804199 1.05882 1260758437
-0.35887301 -0.328982 1.03474 1260626851
0.23118199 -0.320952 1.05905 1260561058
-0.344926 -0.324523 1.07797 1260692644
0.0088219196 -0.31671301 1.0600801 1258784647
0.227501 -0.30727601 1.04082 1261153195
-0.38841301 -0.29902199 1.01227 1259968921
-0.0089920498 -0.31705999 1.07832 1259574163
0.00207168 -0.30757001 1.05548 1257962234
0.0089839399 -0.30466601 1.05252 1257699062
0.0193238 -0.295376 1.0414701 1259508370
-0.392681 -0.285119 1.01495 1260100507
-0.31656301 -0.27578199 1.00385 1260429472
0.23616999 -0.29044601 1.05897 1261284781
-0.0296249 -0.302223 1.10593 1259639956
-0.34949499 -0.298913 1.09707 1260166300
0.23812699 -0.28324801 1.06033 1261482160
-0.37110701 -0.27252701 1.02878 1261613746
0.0313293 -0.282487 1.06762 1259574163
0.120028 -0.28422701 1.0746599 1259705749
-0.32639101 -0.283369 1.0721101 1260100507
-0.30443999 -0.280967 1.06434 1259310991
-0.26932999 -0.28077 1.06417 1259113612
-0.177696 -0.279219 1.06022 1258784647
-0.166454 -0.280619 1.06508 1258389889
-0.050192401 -0.28100401 1.0679801 1258850440
-0.043405201 -0.281708 1.0704401 1259376784
0.048637901 -0.280577 1.06792 1259047819
0.069495402 -0.28130499 1.07065 1259310991
0.079648502 -0.279908 1.0661 1259245198
0.100465 -0.28041101 1.0680799 1259047819
-0.149413 -0.274423 1.0573699 1259639956
-0.125074 -0.27403 1.05637 1259837335
-0.104001 -0.273067 1.05338 1259771542
0.0158691 -0.27373701 1.0573 1259442577
0.0623019 -0.275233 1.06302 1259179405
-0.39162499 -0.26291701 1.02125 1261153195
-0.23478501 -0.27340701 1.0592999 1260034714
-0.22487999 -0.27400199 1.06146 1259968921
-0.20134801 -0.272735 1.0574501 1260034714
-0.089700103 -0.26970199 1.0485801 1260034714
0.091311403 -0.27224299 1.0597399 1260100507
0.122517 -0.273422 1.0642 1259903128
0.16336 -0.272585 1.06189 1259179405
0.241289 -0.27154201 1.0593801 1260495265
-0.28907099 -0.273644 1.066 1260034714
-0.28514001 -0.27322599 1.06461 1259705749
-0.241238 -0.270971 1.05744 1260166300
0.18785299 -0.26594001 1.06568 1259837335
-0.096315302 -0.263919 1.06156 1259113612
0.149708 -0.26317301 1.06216 1260692644
-0.30079001 -0.26205599 1.05908 1260692644
-0.37535399 -0.244876 1.02344 1261876918
0.0108277 -0.25038999 1.05548 1259837335
-0.39312699 -0.23859499 1.01373 1261153195
0.02447 -0.256203 1.08427 1260034714
0.063070901 -0.25585699 1.08346 1260232093
0.11072 -0.25695899 1.08815 1261218988
0.174409 -0.25121599 1.06766 1261218988
0.19218899 -0.243788 1.0403301 1260363679
-0.074666098 -0.246326 1.05345 1259508370
-0.0561524 -0.236395 1.01659 1259705749
-0.043949701 -0.246694 1.0552 1259771542
-0.0284501 -0.24627601 1.05384 1259837335
0.134293 -0.252341 1.07851 1261218988
-0.37856799 -0.24766 1.06185 1261218988
-0.358659 -0.247162 1.06023 1260758437
-0.34542301 -0.246398 1.05752 1261416367
-0.28277999 -0.246262 1.05778 1261284781
-0.19169299 -0.243064 1.05405 1260232093
-0.180015 -0.24582 1.06464 1259574163
-0.0032188899 -0.242695 1.0695699 1259639956
0.21063 -0.249568 1.09855 1262600641
-0.32787099 -0.23865101 1.05749 1261350574
0.14646301 -0.24263801 1.0786 1260626851
-0.29462501 -0.235108 1.0515701 1259968921
-0.34201401 -0.23312099 1.0582401 1259968921
-0.054524001 -0.22514801 1.0603 1258093820
-0.037294298 -0.225076 1.06019 1257830648
0.0056567602 -0.225409 1.06203 1258093820
0.113853 -0.22537 1.06309 1258324096
0.16002101 -0.22518399 1.06285 1258389889
0.191836 -0.22415701 1.0590301 1258455682
0.30774701 -0.17573901 0.86307299 1257435890
-0.37347001 -0.225895 1.06766 1258916233
-0.33088601 -0.225564 1.06677 1258324096
-0.19851799 -0.22415601 1.06247 1258718854
0.101751 -0.223133 1.0616 1259376784
0.24621201 -0.220296 1.05156 1261745332
-0.29513901 -0.223075 1.06488 1259574163
-0.250862 -0.222479 1.0628999 1259574163
0.204253 -0.21773601 1.07208 1261876918
-0.400884 -0.202694 1.00973 1261613746
0.234137 -0.208893 1.08426 1261745332
-0.414635 -0.177737 1.00413 1260363679
-0.36943901 -0.18722001 1.04961 1261416367
-0.0327066 -0.18966401 1.0734 1258784647
-0.0154624 -0.188577 1.07763 1259047819
-0.353852 -0.184378 1.06379 1260692644
-0.193213 -0.187492 1.08034 1260626851
-0.041666601 -0.179447 1.0514801 1257172718
0.060111601 -0.188345 1.09621 1260626851
-0.40105599 -0.162018 0.98909599 1261482160
-0.35122201 -0.175322 1.05696 1261679539
-0.16821501 -0.18131299 1.08873 1260692644
-0.108735 -0.174086 1.08218 1260561058
-0.056545999 -0.17122801 1.0676301 1259771542
-0.018282801 -0.16850901 1.06366 1258324096
-0.041638199 -0.169397 1.0784 1257435890
-0.0251639 -0.166602 1.06364 1257172718
0.260611 -0.163054 1.0566601 1262008504
-0.0578021 -0.16461501 1.0839601 1259837335
0.067691498 -0.158911 1.06387 1260495265
0.24329001 -0.162945 1.08725 1261679539
-0.123005 -0.156701 1.07188 1260429472
-0.42099699 -0.142685 1.0011801 1260824230
-0.41513401 -0.144242 1.01013 1261679539
0.26824301 -0.150566 1.06065 1260166300
-0.34281901 -0.144251 1.05413 1261153195
0.24568 -0.147175 1.07412 1261876918
0.30840299 -0.11082 0.86637402 1252698794
-0.35019401 -0.13648 1.06516 1261350574
0.26593301 -0.135096 1.05827 1261284781
-0.411255 -0.12456 1.02475 1262074297
-0.31080499 -0.12871701 1.05221 1260100507
-0.14757299 -0.131956 1.07379 1260363679
0.016125601 -0.13255399 1.07805 1260232093
0.030074799 -0.133301 1.0829901 1260100507
0.0546593 -0.133927 1.08714 1260363679
0.0671205 -0.13466799 1.09203 1260495265
0.104057 -0.134642 1.09194 1260232093
0.142952 -0.132608 1.0786901 1260297886
0.15647 -0.13432699 1.08998 1259837335
0.193744 -0.134859 1.09355 1261284781
-0.28476501 -0.12675101 1.05181 1260297886
-0.129289 -0.129233 1.06856 1259968921
-0.065229997 -0.1295 1.07046 1259837335
-0.0204679 -0.130597 1.0778 1259179405
0.113787 -0.131229 1.08225 1259771542
0.137614 -0.130486 1.07737 1259771542
0.14445201 -0.13037699 1.07666 1259574163
-0.41039401 -0.110297 0.96549201 1260890023
-0.192551 -0.124621 1.06322 1259837335
-0.044445202 -0.12578 1.07129 1259179405
-0.231279 -0.124047 1.07239 1259310991
-0.210495 -0.123093 1.06585 1259771542
0.042056501 -0.122973 1.0652601 1259442577
0.17285 -0.125411 1.08217 1259179405
-0.41226101 -0.106428 0.96284503 1259574163
-0.395143 -0.108048 0.97415203 1262074297
-0.224016 -0.120946 1.06423 1260166300
0.084060296 -0.115059 1.04948 1261087402
-0.42011601 -0.11152 1.03758 1262403262
-0.23238701 -0.115055 1.06317 1261679539
-0.0898064 -0.11231 1.04318 1261087402
-0.0231514 -0.114931 1.06218 1261350574
0.046951801 -0.113522 1.05193 1261482160
0.053424198 -0.111979 1.04074 1261416367
0.0652183 -0.112223 1.0425 1261482160
0.119037 -0.115098 1.0633399 1261811125
0.135318 -0.11194 1.0404201 1261416367
0.149533 -0.112932 1.04761 1261284781
0.200596 -0.116297 1.0720299 1260034714
-0.329743 -0.113746 1.06769 1261482160
0.172823 -0.114093 1.06985 1261613746
-0.41768199 -0.099326096 0.974608 1260626851
0.271804 -0.109279 1.0621099 1262271676
-0.16467699 -0.111187 1.09202 1261218988
-0.112882 -0.112738 1.10382 1261021609
-0.18111999 -0.108344 1.08522 1261021609
-0.0109879 -0.111445 1.10895 1260955816
0.0412427 -0.113799 1.1271501 1261350574
-0.40203699 -0.106682 1.10384 1262271676
-0.227217 -0.100734 1.07107 1261350574
-0.281997 -0.085520998 1.07321 1261876918
-0.075564399 -0.087531596 1.0901999 1260166300
0.259615 -0.087114699 1.08377 1261942711
0.237138 -0.084157102 1.0924799 1261416367
-0.433231 -0.071175203 0.99129701 1260824230
0.16265 -0.0812824 1.08408 1262271676
-0.433222 -0.0676146 0.99140197 1261416367
0.089115597 -0.070834599 1.07637 1261021609
0.068086103 -0.072329797 1.11392 1260955816
-0.176926 -0.068130001 1.0928299 1259376784
0.0518746 -0.070087403 1.1113 1260297886
0.131969 -0.073223002 1.14505 1261416367
0.161465 -0.073311798 1.14563 1261942711
0.25279999 -0.069405302 1.10076 1262798020
-0.434854 -0.065098599 1.0846 1262337469
-0.32074299 -0.066710897 1.10118 1262008504
-0.298215 -0.0664915 1.09837 1261679539
-0.280099 -0.065934598 1.09174 1261284781
-0.157875 -0.066468798 1.09593 1257699062
0.025015499 -0.066257402 1.0907 1260955816
0.23807301 -0.067136601 1.09742 1263455950
-0.32264799 -0.065236501 1.10711 1261811125
-0.15738299 -0.065159999 1.1035399 1259639956
0.101153 -0.065604798 1.1522501 1260429472
-0.43184501 -0.0504159 0.999448 1261811125
-0.184365 -0.0592167 1.10391 1259771542
-0.136967 -0.060851 1.12331 1260100507
-0.42908299 -0.056264099 1.0965101 1262600641
-0.0446872 -0.059843 1.13419 1260297886
0.068991601 -0.058173198 1.13641 1260166300
-0.43525401 -0.0515109 1.086 1261679539
-0.38045299 -0.052076999 1.09229 1260824230
-0.34722999 -0.052320201 1.09479 1260626851
-0.0494968 -0.055038899 1.12432 1259113612
0.176797 -0.0563679 1.13693 1260297886
0.194263 -0.056032602 1.1320601 1260824230
0.196592 -0.055415999 1.1238 1260824230
0.22277801 -0.0551407 1.1195199 1260890023
0.26822299 -0.054287899 1.1071301 1262271676
-0.249908 -0.0503917 1.09303 1259179405
0.233363 -0.050476 1.10958 1260166300
-0.41677099 -0.0405683 1.0979 1258784647
-0.375034 -0.040924001 1.1022 1258587268
-0.36098799 -0.041030899 1.10342 1258587268
-0.34501299 -0.041122701 1.10437 1258587268
-0.30404899 -0.0409743 1.10076 1258850440
-0.221487 -0.041198 1.1016901 1258455682
-0.120358 -0.041902501 1.10957 1258850440
-0.066553198 -0.042141099 1.11165 1258521475
0.0539698 -0.042970698 1.12088 1258455682
0.089846097 -0.042823698 1.11746 1258324096
0.093461797 -0.0428527 1.11781 1258324096
0.122519 -0.043145999 1.1215 1258521475
0.20732599 -0.0434497 1.12362 1258718854
0.28524899 -0.0397305 1.06303 1261679539
-0.057160199 -0.039870899 1.10675 1259968921
0.078903399 -0.040605601 1.11414 1259639956
0.114945 -0.040855199 1.11698 1259705749
0.29345199 -0.038216598 1.06865 1260429472
0.270742 -0.033593401 1.08796 1262403262
0.29529801 -0.032592699 1.06933 1260429472
0.28863099 -0.0284773 1.0632499 1261350574
0.23134799 -0.031258699 1.19884 1260495265
0.23469301 -0.028152799 1.1355799 1260495265
-0.43743399 -0.016919101 0.97521299 1261021609
-0.413807 -0.018185999 1.0007499 1261284781
0.202654 -0.0207495 1.10642 1260561058
-0.441158 -0.0126766 0.99961001 1261613746
-0.41466799 -0.0107976 0.99571103 1262337469
-0.149223 -0.0113452 1.08938 1260561058
0.27773201 -0.0124722 1.0886 1262205883
0.292465 -0.0116669 1.06533 1260955816
0.234423 -0.0063187298 1.08005 1260824230
-0.445483 0.0021546399 0.982373 1260692644
-0.44293699 0.0017487 0.997024 1261547953
0.21911199 -0.00129421 1.10982 1259771542
-0.19655301 0.00225529 1.09606 1260758437
-0.056958299 0.00102293 1.1304801 1261350574
-0.392497 0.0057322299 1.05374 1261482160
-0.206912 0.0042781699 1.09455 1260758437
-0.070967697 0.00323224 1.12359 1261153195
0.20517901 0.00241164 1.12204 1260232093
-0.110496 0.0054377001 1.11956 1261021609
0.24571601 0.00379856 1.14596 1261482160
0.0028965301 0.0085384799 1.15184 1261416367
-0.228424 0.0128718 1.0457799 1260824230
0.29933801 0.0145344 1.07265 1261482160
0.24612699 0.0158631 1.15754 1262140090
0.305861 0.016411301 1.07165 1260100507
-0.449202 0.0233195 0.97767901 1260034714
-0.123519 0.0254754 1.097 1260561058
-0.222471 0.027807901 1.12466 1260561058
-0.0203337 0.027068 1.13117 1260824230
0.055678301 0.026783301 1.11215 1260890023
-0.43680301 0.032145198 1.00587 1262337469
-0.18302 0.031582698 1.1010799 1260758437
-0.155086 0.031448498 1.09461 1260955816
-0.16466799 0.0335784 1.11884 1261350574
-0.0214944 0.033019599 1.11666 1261087402
0.25060701 0.0321978 1.1525199 1262337469
0.30283499 0.031530201 1.07332 1261613746
0.23535299 0.0340547 1.1210901 1261745332
0.30938599 0.0371629 1.07251 1260100507
0.218271 0.0408266 1.17905 1261547953
0.30485401 0.042879902 1.07472 1261613746
0.090150803 0.045971099 1.0913 1261679539
0.244977 0.0470124 1.18095 1262008504
-0.45299399 0.054717701 0.97362 1260890023
-0.43793899 0.0553548 0.99877203 1262666434
-0.38129401 0.0568786 1.06224 1261547953
-0.26452401 0.055654299 1.03681 1260758437
-0.244293 0.0557447 1.04318 1260561058
-0.21697 0.0558016 1.04948 1260363679
-0.309439 0.056491502 0.99605298 1260166300
0.306651 0.0561205 1.07532 1261679539
-0.174474 0.059923299 1.0676399 1259968921
-0.14189599 0.060173299 1.08024 1259245198
-0.0379421 0.060107101 1.0928 1259376784
-0.0095906397 0.059807099 1.08733 1260034714
0.000703322 0.060032099 1.09601 1259837335
0.039462499 0.059851699 1.0957 1260297886
0.0555089 0.0600251 1.10344 1260363679
0.077689499 0.0593899 1.08653 1260166300
0.084303997 0.059163701 1.0802799 1259903128
0.125471 0.060051199 1.11429 1260692644
0.14092 0.059810001 1.1087199 1260824230
0.186519 0.061066199 1.15501 1259574163
0.22914501 0.059673999 1.11698 1259508370
-0.263872 0.062541902 1.07713 1260363679
-0.29524001 0.065193497 1.09372 1260232093
-0.137007 0.064481601 1.0941 1259376784
-0.104065 0.064029798 1.08551 1259179405
0.020029601 0.064314403 1.10972 1259442577
-0.32534999 0.066862702 1.08236 1259442577
-0.158034 0.066856101 1.10302 1259705749
-0.45367801 0.066590101 0.96607101 1259705749
0.073556103 0.075788699 1.1526 1259903128
0.251555 0.075169899 1.15789 1259310991
-0.40560499 0.084751002 1.08419 1259903128
-0.45591599 0.080500104 0.96781403 1260758437
-0.433366 0.082004502 0.99702197 1261547953
-0.38023001 0.087006502 1.0922101 1261547953
-0.33405501 0.087405197 1.10365 1261942711
0.13612901 0.086559199 1.13167 1261547953
0.204574 0.086751498 1.14147 1260692644
0.222516 0.0865805 1.1400501 1260429472
0.25135899 0.087378703 1.15711 1260363679
0.12423 0.087960601 1.1202101 1261745332
0.213254 0.088580102 1.13902 1261087402
-0.41817901 0.090907998 1.08891 1261284781
0.069408201 0.091420799 1.14047 1261153195
0.32092199 0.0883324 1.0782501 1259968921
-0.151576 0.099295698 1.11965 1261416367
0.29690999 0.095441297 1.09793 1262403262
0.30155399 0.097196199 1.09575 1262403262
-0.457367 0.094117798 0.964975 1260561058
-0.46955699 0.102818 1.08824 1260824230
-0.405294 0.101281 1.07128 1262008504
-0.40134001 0.102701 1.09187 1262469055
0.185587 0.102841 1.11186 1261416367
0.31781101 0.0997881 1.07954 1261613746
-0.45056099 0.107207 0.99958199 1260890023
0.316796 0.109472 1.0822099 1262205883
-0.43097901 0.114988 1.05081 1262271676
0.26718301 0.116852 1.12114 1260495265
0.32098499 0.118644 1.07906 1261876918
-0.43350199 0.121997 1.04526 1262600641
0.28313899 0.12894399 1.16803 1260692644
-0.62205201 0.16952799 1.5202399 1262271676
-0.33546099 0.139928 1.17823 1262008504
0.26886901 0.14076801 1.16231 1261416367
-0.43993601 0.13757899 1.03395 1262469055
-0.43595701 0.14457799 1.09881 1261942711
-0.031648401 0.141949 1.08117 1260890023
0.32644799 0.141458 1.0807199 1261942711
0.282924 0.15978099 1.15154 1262008504
0.31171101 0.160529 1.09602 1262469055
0.32967901 0.158402 1.08043 1261745332
0.0909146 0.168607 1.1313601 1260824230
0.29033601 0.16600101 1.1221499 1261942711
0.095171504 0.17588399 1.1716501 1260561058
0.096575104 0.17487399 1.16413 1260626851
0.32968399 0.16218901 1.08052 1261876918
-0.279506 0.180694 1.17214 1260758437
-0.401629 0.18355601 1.1562001 1262074297
-0.37746301 0.18000799 1.1317 1261811125
-0.36756 0.181824 1.14546 1261416367
0.213606 0.183304 1.1868 1262271676
-0.255299 0.18712801 1.17478 1260429472
-0.0061102002 0.204596 1.31312 1260166300
0.15717401 0.188581 1.20679 1260561058
-0.10831 0.19988801 1.25801 1260758437
-0.0821964 0.218238 1.38929 1260034714
0.0141154 0.190872 1.2005 1259968921
0.031427499 0.189153 1.18915 1260232093
0.046382301 0.202952 1.2877001 1260034714
-0.34820199 0.18371101 1.11684 1260495265
-0.345808 0.188924 1.15345 1260363679
-0.275561 0.19314501 1.18659 1260429472
-0.196364 0.196839 1.21657 1260363679
-0.185893 0.197871 1.22428 1260100507
-0.17533199 0.197253 1.22053 1260166300
0.33302 0.173482 1.0805 1261547953
-0.349098 0.191618 1.15771 1259903128
-0.091609202 0.221497 1.34424 1260100507
-0.066577598 0.20654701 1.24488 1260561058
-0.041536201 0.20926601 1.2644399 1260100507
-0.0020634199 0.20423 1.2325 1260034714
0.0133661 0.212796 1.27582 1259771542
0.241052 0.195519 1.17232 1261416367
0.31150699 0.18347099 1.0957 1262403262
0.059066601 0.206448 1.22159 1260034714
0.329916 0.18312 1.08173 1261942711
0.082882904 0.20325799 1.18799 1259771542
0.20425899 0.204175 1.20004 1260034714
-0.39124501 0.201456 1.13952 1258455682
-0.338016 0.204992 1.16485 1258324096
-0.30006301 0.20470899 1.16492 1258389889
-0.294025 0.205525 1.17044 1258521475
-0.27496499 0.205368 1.1704 1258521475
-0.16925099 0.212339 1.22043 1258718854
-0.148514 0.21115801 1.21386 1258850440
-0.142243 0.210705 1.2112401 1258850440
0.121597 0.20637199 1.19647 1259047819
0.273736 0.21061601 1.23127 1260890023
0.312756 0.218178 1.28179 1261218988
0.336005 0.214761 1.26098 1261942711
-0.45789701 0.179572 0.98444402 1262008504
-0.440162 0.206696 1.13193 1258455682
-0.34144899 0.21411701 1.16989 1258389889
-0.326792 0.21634901 1.18428 1258455682
-0.31237501 0.215735 1.18124 1258389889
-0.29383501 0.217131 1.1907099 1258324096
-0.26080999 0.218097 1.19823 1258324096
-0.243196 0.21654201 1.18952 1258093820
-0.233723 0.216608 1.1903501 1258093820
-0.173106 0.220985 1.22019 1257830648
-0.33961099 0.218206 1.18216 1259245198
-0.069750398 0.224848 1.23553 1258587268
0.0573139 0.22266801 1.22841 1258587268
0.11261 0.22720399 1.2586 1258225406
0.199784 0.229626 1.27746 1258455682
0.310471 0.199259 1.09858 1261547953
-0.024365 0.228425 1.24604 1259771542
0.0257635 0.226955 1.23963 1259376784
-0.424288 0.19704799 1.0168999 1260824230
0.30996501 0.20471101 1.09679 1261482160
0.109813 0.226364 1.16629 1259310991
-0.47558001 0.195476 0.95548201 1260955816
-0.466133 0.22643 1.12851 1260561058
0.34234101 0.212717 1.0896 1261416367
0.35315499 0.216864 1.10252 1259771542
-0.47685999 0.2005 0.95514101 1260626851
0.248541 0.213054 1.04644 1261679539
0.340042 0.217875 1.07646 1261613746
0.0845282 0.217124 1.0509 1258982026
0.31345499 0.22460701 1.09095 1262271676
-0.42466 0.223984 1.04451 1261218988
0.33992001 0.22719701 1.0762399 1262140090
-0.44891301 0.214672 0.96817702 1262469055
0.31612 0.23289201 1.09454 1262337469
-0.15312999 0.238234 1.06276 1260429472
-0.46707499 0.219503 0.94931799 1261482160
0.326547 0.246243 1.09506 1261745332
-0.150959 0.254612 1.06085 1260429472
-0.41427901 0.26183799 1.06531 1260297886
-0.495377 0.247456 0.96738899 1259837335
-0.49270201 0.24869999 0.96549398 1261218988
-0.187674 0.258093 0.99601001 1260034714
-0.45270401 0.231157 0.97303998 1261153195
-0.471138 0.225593 0.95411998 1261153195
0.31753901 0.246038 1.09369 1261745332
0.293374 0.2304 1.28669 1259047819
0.26138899 0.227797 1.26933 1258916233
0.235983 0.234962 1.3116 1258587268
0.31716901 0.196119 1.0914 1262074297
-0.21975701 0.21764199 1.19739 1258093820
-0.27268001 0.217077 1.19136 1258324096
-0.27928299 0.216415 1.187 1258324096
-0.41591701 0.20998199 1.14089 1258982026
-0.430132 0.20632499 1.13011 1258521475
0.28410101 0.21974801 1.26197 1259508370
-0.0099400701 0.215121 1.23217 1259179405
-0.145156 0.211807 1.20447 1258324096
0.30918899 0.189915 1.1001 1261876918
0.242061 0.212275 1.24035 1259508370
0.035871401 0.211014 1.26512 1259903128
-0.218402 0.19880401 1.19938 1260363679
-0.241579 0.19885799 1.19848 1260955816
-0.31882599 0.189873 1.17611 1259903128
-0.30853301 0.188274 1.1801701 1260495265
-0.32620499 0.18429799 1.1507699 1261218988
-0.415979 0.18679 1.16389 1261482160
0.207157 -0.35225701 1.08727 1261021609
0.18919399 -0.35764 1.10742 1261218988
0.209062 -0.31668299 1.0687701 1260758437
-0.46573699 0.14015301 0.96148902 1260758437
0.213892 -0.30572799 1.0766701 1261087402
-0.0287441 0.153062 1.12787 1261218988
-0.42487699 0.14307299 1.0856 1262140090
-0.439913 0.136107 1.03747 1262469055
-0.38499701 -0.28012601 1.01686 1260890023
0.158299 -0.28775001 1.04917 1260495265
0.32300699 0.122523 1.08025 1261482160
0.00539428 -0.28198999 1.0656 1259574163
0.30433601 0.121973 1.09361 1262140090
-0.461483 0.114458 0.96148902 1259639956
0.107395 -0.28049701 1.06846 1259047819
-0.0083240103 -0.275397 1.06262 1259574163
0.077526703 -0.27180201 1.05804 1260232093
0.12589601 -0.273251 1.06366 1259837335
0.0074432702 0.0865153 1.11911 1261021609
0.066915199 -0.26741201 1.04933 1260495265
-0.0568965 -0.268776 1.06563 1260100507
0.219409 -0.26886901 1.0696501 1261153195
-0.352406 -0.27514601 1.09085 1259639956
0.14069 -0.26392999 1.058 1260626851
-0.12634701 0.0663765 1.094 1259310991
0.239208 0.0628407 1.09635 1259508370
0.043351799 0.064506702 1.1181999 1259508370
-0.192099 0.0625102 1.08584 1259310991
0.24601901 -0.24084 1.05818 1261087402
-0.38602901 -0.232338 1.02518 1261942711
-0.058013201 0.0597721 1.0793999 1259442577
-0.39942601 -0.218298 1.01352 1261350574
-0.378878 0.0587194 1.0606101 1260429472
-0.30250701 -0.225282 1.06593 1258784647
-0.217649 -0.224197 1.06242 1258718854
-0.352653 -0.22413699 1.06864 1259310991
-0.345236 -0.22387099 1.06762 1259310991
-0.321785 -0.223398 1.06592 1259639956
-0.30954301 -0.223398 1.0660599 1259968921
-0.31488001 0.054782499 0.99758399 1260166300
-0.27394301 -0.222863 1.06424 1259508370
0.091180101 -0.220117 1.05689 1259968921
0.306656 0.048554402 1.0752 1261284781
0.23376 -0.21823099 1.09105 1261613746
0.25254199 -0.20475 1.0576299 1261811125
0.288625 0.043233398 1.09166 1262337469
0.253187 -0.192449 1.05314 1261745332
0.21450999 -0.19894999 1.1012 1261679539
0.244339 -0.18934201 1.0835201 1262403262
-0.043349698 -0.181243 1.05102 1259047819
-0.043394402 -0.179519 1.0518399 1258389889
-0.24034201 0.021850299 1.12253 1260626851
0.25169101 0.0119703 1.13955 1262008504
0.27335301 0.0047712 1.09238 1261679539
-0.41135299 -0.150649 1.00518 1261679539
0.29026201 -0.0209652 1.06317 1261416367
-0.43470901 -0.0210931 1.02433 1262205883
-0.105019 -0.129292 1.069 1259771542
0.19831499 -0.13228101 1.08939 1260626851
0.198623 -0.127877 1.0601701 1260429472
-0.103081 -0.125249 1.0676 1258916233
0.101095 -0.126331 1.07522 1259837335
-0.32173899 -0.11526 1.06469 1260890023
-0.26932499 -0.115247 1.06458 1261613746
0.16005699 -0.043096501 1.11956 1259047819
0.151214 -0.0431506 1.12069 1258982026
0.12564801 -0.114787 1.06108 1261613746
0.270147 -0.116932 1.0765899 1262732227
-0.079304598 -0.042210001 1.1131099 1258521475
-0.43092701 -0.083865002 0.99286699 1260495265
0.26579499 -0.047658298 1.09649 1262008504
-0.43153301 -0.0459264 1.0900199 1260034714
0.211926 -0.055070899 1.11887 1261284781
-0.13519301 -0.060883701 1.12366 1260034714
-0.32466999 -0.33760801 1.00718 1260034714
0.28843501 -0.26847899 0.85632199 1253225138
0.223501 -0.33724099 1.04409 1260100507
0.22367799 -0.33389601 1.04511 1261021609
-0.32442999 -0.32295001 1.01683 1260955816
0.22880501 -0.32497099 1.04632 1259771542
-0.37702799 -0.30936 0.99971497 1260692644
-0.323686 -0.32190001 1.0385799 1261021609
0.179368 -0.343532 1.10439 1261087402
-0.32280499 -0.32091501 1.04101 1260890023
0.0043587899 -0.31564301 1.05278 1259639956
-0.31852201 -0.286145 1.01237 1260890023
0.17895199 -0.314973 1.10211 1260495265
0.211698 -0.29501501 1.06206 1261087402
-0.38885099 -0.27282801 0.99924898 1259574163
0.159069 -0.285467 1.04445 1260495265
0.23588701 -0.285117 1.05004 1260232093
0.21146899 -0.28708699 1.06102 1260758437
-0.017758099 -0.281344 1.0632401 1259376784
-0.0059187999 -0.282002 1.0654 1259310991
0.000893738 -0.28202799 1.06558 1259310991
0.12849499 -0.282695 1.06942 1259639956
0.151558 -0.27895999 1.0642 1259113612
-0.33203799 -0.28294599 1.07541 1260034714
-0.136797 -0.27497 1.05961 1260034714
-0.133315 -0.27483299 1.05924 1260034714
-0.1181 -0.27513599 1.06038 1259903128
-0.046755102 -0.27606699 1.06423 1259310991
-0.039584201 -0.27441099 1.05924 1259574163
0.04171 -0.27478001 1.0615 1259442577
-0.110578 -0.271676 1.0556901 1260232093
0.0888879 -0.27207801 1.05968 1260495265
0.098553501 -0.270078 1.05362 1260429472
-0.392757 -0.25259501 0.998384 1260100507
-0.212919 -0.27239999 1.06247 1260824230
-0.37625 -0.25684199 1.01758 1261547953
-0.37953699 -0.25950801 1.03768 1262534848
-0.37948301 -0.25259101 1.02165 1261745332
-0.29944101 -0.26334801 1.06311 1261021609
-0.39533401 -0.241494 0.99759501 1260100507
-0.35069001 -0.261859 1.07013 1260429472
-0.36497599 -0.258825 1.06639 1260626851
-0.34196401 -0.25761801 1.07547 1261218988
0.172952 -0.25152799 1.06157 1260955816
0.106883 -0.253833 1.07473 1261087402
0.20142099 -0.24117699 1.03374 1260824230
-0.217337 -0.244911 1.0474401 1260495265
-0.133104 -0.245359 1.04994 1259705749
-0.086971201 -0.243843 1.04541 1259376784
0.178269 -0.241796 1.04168 1260626851
0.185129 -0.23930199 1.03341 1261218988
-0.29084501 -0.24514499 1.05374 1261679539
-0.262999 -0.244663 1.05244 1261087402
0.0367641 -0.237121 1.05591 1259245198
0.150405 -0.24059901 1.06918 1260429472
0.106625 -0.23138 1.0497299 1259113612
0.092701301 -0.23409399 1.06575 1258455682
-0.247168 -0.234607 1.07084 1258718854
-0.230019 -0.227375 1.04531 1258850440
-0.22127099 -0.228929 1.05092 1258225406
-0.36916199 -0.22913399 1.0569299 1259310991
-0.38564301 -0.215665 1.01516 1261482160
-0.39656499 -0.21140601 1.0062701 1261482160
-0.071128897 -0.22459 1.0572 1258324096
-0.057363201 -0.223846 1.0546401 1257435890
-0.0438895 -0.223893 1.05494 1257699062
-0.0153201 -0.224273 1.05659 1258093820
-0.25483501 -0.22439501 1.06165 1258521475
0.026766 -0.222395 1.0570101 1259245198
0.075394697 -0.222095 1.05638 1259047819
-0.387586 -0.201876 1.03264 1261350574
-0.35168201 -0.204188 1.04916 1261416367
0.21209501 -0.212439 1.08556 1262271676
-0.397003 -0.19129001 1.02008 1262140090
-0.31094101 -0.19758099 1.06092 1261284781
-0.35392201 -0.190749 1.05608 1261679539
0.25499299 -0.18306901 1.05075 1261679539
0.244059 -0.181642 1.07674 1261745332
0.210714 -0.182668 1.09804 1262469055
-0.043485399 -0.17131799 1.0808901 1258093820
0.21098401 -0.175309 1.0998 1261745332
-0.102284 -0.172483 1.09509 1260890023
-0.171867 -0.16223601 1.05617 1260561058
-0.0100934 -0.163938 1.06433 1259442577
-0.345063 -0.14256699 1.0059299 1261613746
0.30899599 -0.112453 0.87319398 1255198928
-0.076658897 -0.146778 1.05396 1260100507
0.32147101 -0.113488 0.88595098 1254804170
0.261801 -0.14304399 1.0533201 1261679539
-0.341351 -0.129161 1.00157 1261613746
-0.33948699 -0.11848 1.00175 1261350574
0.26558 -0.13132 1.06996 1262534848
-0.32787901 -0.128004 1.06517 1259968921
-0.297351 -0.12647399 1.0563999 1259903128
-0.17723501 -0.128814 1.06888 1260034714
-0.0102649 -0.13025001 1.076 1259310991
0.082390301 -0.132853 1.0901 1260034714
0.162135 -0.13176399 1.0835299 1259310991
-0.41287401 -0.113067 0.99173701 1261482160
-0.15939599 -0.124468 1.0656 1260232093
-0.13586301 -0.124888 1.06786 1259771542
-0.10183 -0.12509 1.0688 1259245198
0.21598201 -0.128729 1.1099 1260166300
-0.27900699 -0.118403 1.06422 1260692644
0.25638399 -0.12202 1.08135 1262271676
-0.133148 -0.114666 1.05194 1261218988
-0.35206899 -0.11556 1.0706 1260955816
-0.31211799 -0.11479 1.06558 1261284781
0.00077433698 -0.112891 1.05124 1261218988
0.178894 -0.114571 1.05981 1260824230
-0.072586998 -0.111624 1.10337 1260955816
0.0501424 -0.112655 1.10852 1261547953
0.32393399 -0.081647798 0.90613502 1256251616
-0.196292 -0.100807 1.0719399 1260297886
0.21206801 -0.105584 1.0981899 1261547953
0.275594 -0.090509102 1.0581501 1261876918
-0.28026 -0.087931 1.07646 1262205883
-0.39409801 -0.079336204 1.05705 1261350574
0.26582399 -0.083229698 1.08723 1262600641
-0.43286699 -0.059485599 0.98684698 1261284781
0.245395 -0.073661 1.0867701 1262337469
-0.175978 -0.071234703 1.09377 1260232093
-0.16914199 -0.072458901 1.1039 1260100507
-0.327797 -0.066404402 1.08973 1262403262
0.26677501 -0.067819998 1.08462 1262534848
-0.25651801 -0.063668199 1.08049 1260890023
0.025896801 -0.065217599 1.08559 1261087402
-0.146845 -0.063333802 1.10882 1260692644
0.057526998 -0.064804897 1.1155601 1259837335
0.104679 -0.0672976 1.13682 1260495265
-0.41797599 -0.057935499 1.08595 1262863813
0.28724101 -0.057739299 1.06013 1260495265
-0.090466 -0.0615771 1.12721 1260232093
0.28161299 -0.055594299 1.05738 1261547953
0.115957 -0.060357802 1.16643 1259310991
-0.37009901 -0.047182102 1.07275 1259245198
-0.33079201 -0.048003301 1.07951 1259376784
-0.32770601 -0.048131801 1.08068 1259376784
-0.30334601 -0.048253901 1.08095 1259179405
-0.26448399 -0.048229899 1.0791399 1258653061
-0.25621 -0.048408698 1.0806 1258718854
-0.195198 -0.049296301 1.08718 1258587268
-0.077452503 -0.051623698 1.1060899 1258389889
-0.0603824 -0.0522811 1.1121 1258324096
-0.36452699 -0.045664102 1.07647 1258455682
-0.141863 -0.047939301 1.09073 1257830648
-0.13335299 -0.0480926 1.09197 1257699062
-0.115402 -0.0489932 1.1005599 1257699062
-0.0213986 -0.050167698 1.10876 1257962234
-0.0109466 -0.050420702 1.11092 1257830648
0.036479801 -0.0511408 1.11643 1257830648
0.068444997 -0.0520324 1.12432 1258225406
0.086120799 -0.052068699 1.12395 1258521475
0.103903 -0.052299701 1.12561 1258521475
0.128462 -0.052220799 1.12374 1257830648
0.135736 -0.052465599 1.126 1258093820
0.145239 -0.053109702 1.13227 1258389889
0.16723999 -0.052425299 1.12424 1258718854
0.22820801 -0.052452698 1.12194 1259376784
0.290263 -0.044879701 1.05966 1259903128
-0.328008 -0.040064901 1.0975 1259376784
-0.217254 -0.040780399 1.10014 1258982026
-0.20656 -0.040785201 1.0996701 1258982026
-0.194387 -0.0409072 1.10044 1258916233
-0.12622599 -0.041458599 1.1033 1258850440
0.043487702 -0.0429058 1.11129 1258587268
0.102907 -0.0431716 1.1113501 1258455682
0.138032 -0.043574899 1.11418 1258455682
0.15539099 -0.043595899 1.11357 1258521475
