# .PCD v0.7 - Point Cloud Data file format
VERSION 0.7
FIELDS x y z rgb
SIZE 4 4 4 4
TYPE F F F U
COUNT 1 1 1 1
WIDTH 1108
HEIGHT 1
VIEWPOINT 0 0 0 1 0 0 0
POINTS 1108
DATA ascii
0.42033401 0.046974 0.74197102 1243947286
0.42133901 0.0480415 0.74197 1244013337
0.40787199 0.042283501 0.71651697 1249341794
0.406901 0.043313101 0.716519 1246249783
0.408842 0.043314401 0.71651602 1247039299
0.405929 0.0443427 0.71652001 1244473629
0.40787101 0.044344001 0.71651798 1244868387
0.409812 0.0443452 0.716515 1244934180
0.40689901 0.0453736 0.716519 1244078872
0.40786901 0.046404399 0.71651798 1244079130
0.407285 0.042123999 0.71378398 1249276001
0.406317 0.043149699 0.71378499 1246644540
0.40825099 0.043150902 0.71378303 1247170884
0.40535 0.044175401 0.71378601 1244671008
0.40728399 0.044176601 0.71378398 1244934180
0.40921801 0.0441778 0.71378201 1244868387
0.40631601 0.0452023 0.71378601 1244276251
0.40728301 0.046229199 0.71378499 1244144667
0.418044 0.042531699 0.72065902 1249671009
0.41706699 0.0435673 0.72066098 1248486996
0.41901901 0.043568499 0.720658 1248947545
0.41609001 0.044602901 0.720662 1245460780
0.418042 0.0446041 0.72065997 1246053168
0.41999501 0.0446053 0.72065699 1246447669
0.41706499 0.045639701 0.72066098 1244342042
0.41804099 0.046676502 0.72065997 1244144920
0.41756499 0.0423855 0.71815199 1249671009
0.41659099 0.043417498 0.71815401 1248815958
0.41853699 0.043418702 0.71815097 1249144922
0.41561699 0.0444494 0.71815503 1245855279
0.41756299 0.0444506 0.718153 1246184499
0.41950899 0.0444519 0.71815097 1246645049
0.41659001 0.045482598 0.71815401 1244539675
0.41756201 0.0465158 0.718153 1244144921
0.43272099 0.043613501 0.73906797 1266711397
0.43171901 0.044675499 0.73906898 1249342046
0.43372101 0.044676699 0.73906702 1249605474
0.43071699 0.045737501 0.73907101 1246447669
0.43271899 0.045738701 0.73906898 1246842427
0.43472201 0.045740001 0.739066 1247368772
0.43171701 0.046800699 0.73907 1244473626
0.43271801 0.047864001 0.73906898 1244276506
0.44674799 0.0446111 0.75603902 1266777190
0.445723 0.045697398 0.75604099 1249671266
0.447772 0.045698699 0.75603801 1249802596
0.44469801 0.046783801 0.756042 1247368772
0.446747 0.046785101 0.75603998 1247960909
0.44879499 0.046786401 0.756037 1248684888
0.44572201 0.0478715 0.75604099 1244868639
0.44674599 0.048959099 0.75603998 1244144921
0.45637199 0.045056298 0.76357299 1266842731
0.45533699 0.046153501 0.763574 1249737061
0.45740601 0.046154801 0.76357198 1266776941
0.45430201 0.047250699 0.76357502 1248948060
0.45637101 0.047251999 0.76357299 1249145185
0.45843899 0.0472533 0.76357102 1249408104
0.45533499 0.048349202 0.76357502 1246513466
0.45636901 0.0494477 0.763574 1244210457
0.45682099 0.0447 0.75744599 1266908526
0.45579401 0.0457884 0.757447 1266776942
0.45784599 0.0457897 0.75744498 1266776940
0.45476699 0.046876799 0.75744897 1249408104
0.45682001 0.046878099 0.75744599 1249803116
0.45887199 0.0468794 0.75744402 1249868909
0.45579299 0.047966499 0.75744802 1247500107
0.45681801 0.049056198 0.757447 1244802850
0.45649299 0.044569202 0.75520301 1266974318
0.45546901 0.045654401 0.75520402 1266776941
0.45751601 0.045655701 0.755202 1266776939
0.454445 0.046739601 0.75520599 1249605483
0.45649201 0.046740901 0.75520301 1249868909
0.458538 0.046742201 0.75520098 1249605735
0.455468 0.0478261 0.75520498 1247829072
0.45649001 0.0489126 0.75520402 1245131559
0.45701799 0.044423498 0.752693 1266974573
0.455998 0.045505099 0.75269502 1266776939
0.458038 0.045506399 0.75269198 1266776937
0.45497799 0.0465867 0.75269598 1249868909
0.457017 0.046588 0.75269401 1249605735
0.459057 0.0465893 0.75269198 1249868906
0.45599699 0.047669601 0.75269598 1248421463
0.45701599 0.048752502 0.75269502 1245789743
0.45686001 0.0443106 0.75075501 1266974572
0.455843 0.045389399 0.75075698 1266776939
0.45787701 0.045390699 0.750754 1266777193
0.45482501 0.046468198 0.75075799 1249868909
0.45685899 0.046469498 0.75075603 1249605735
0.458893 0.046470799 0.75075299 1249803113
0.455841 0.047548302 0.75075698 1248487256
0.45685801 0.048628401 0.75075603 1246184501
0.469432 0.045125902 0.76461101 1267040364
0.46839499 0.046224602 0.76461297 1266777192
0.470467 0.046225902 0.76460999 1266777192
0.46735799 0.047323301 0.76461399 1249803113
0.46943 0.047324602 0.76461202 1249605733
0.47150201 0.047325902 0.76460898 1266777707
0.46839401 0.048423301 0.76461297 1249013597
0.46942899 0.049523301 0.76461202 1247237187
-0.0230799 0.064499803 1.07683 1248551757
-0.024538299 0.066045597 1.07683 1246972727
-0.021623399 0.0660474 1.07683 1248814930
-0.0259967 0.067591399 1.07683 1245854247
-0.0230818 0.067593299 1.07683 1247104314
-0.0201669 0.067595102 1.07683 1248617553
-0.024540201 0.069139101 1.07683 1245656868
-0.0230838 0.070686802 1.07683 1245920040
0.42412901 0.0444034 0.73459703 1248157778
0.42313299 0.045458999 0.73459798 1245263145
0.42512301 0.045460202 0.73459601 1245855279
0.42213699 0.0465145 0.73460001 1244013079
0.424128 0.0465158 0.73459703 1244078872
0.42611799 0.046517 0.734595 1244539675
0.423132 0.047571398 0.73459899 1244079130
0.424126 0.0486282 0.73459798 1243881752
0.44653699 0.045368399 0.75051302 1249802596
0.44552001 0.0464468 0.75051498 1248684888
0.44755399 0.0464481 0.750512 1249145183
0.44450301 0.047525302 0.750516 1245592362
0.446536 0.047526501 0.75051397 1246316086
0.44857001 0.047527801 0.75051099 1246842176
0.445519 0.048604999 0.75051498 1244210713
0.44653499 0.0496847 0.75051397 1244210971
0.45647201 0.0461643 0.76374203 1266711145
0.455437 0.0472617 0.763744 1249145183
0.457506 0.047263101 0.76374102 1249276517
0.454402 0.0483592 0.76374501 1246316086
0.456471 0.0483605 0.76374298 1246842176
0.45853999 0.048361801 0.76374 1247236935
0.45543599 0.0494579 0.763744 1244079128
0.45647001 0.050556701 0.76374298 1244145178
0.456536 0.046067599 0.762119 1266776941
0.45550299 0.0471627 0.76212102 1249145185
0.45756799 0.047164001 0.76211798 1249408104
0.45447001 0.048257802 0.76212198 1246513466
0.45653501 0.048259102 0.76212001 1247039556
0.45860001 0.048260398 0.76211703 1247500107
0.455502 0.049354199 0.76212102 1244210457
0.456534 0.050450601 0.76212001 1244079385
0.45623901 0.045935001 0.75990099 1266776941
0.45520899 0.047026999 0.759902 1249276517
0.45726699 0.047028299 0.75989997 1249605483
0.45417801 0.048118901 0.75990403 1246842176
0.45623699 0.048120201 0.75990099 1247236935
0.458296 0.048121501 0.75989902 1247829072
0.45520699 0.049212102 0.75990301 1244276250
0.456236 0.050305299 0.759902 1244013592
0.455304 0.045637898 0.75493002 1266776941
0.454281 0.046722699 0.75493199 1249605483
0.45632601 0.046723999 0.75492901 1249868909
0.45325699 0.0478075 0.754933 1247236935
0.45530301 0.0478088 0.75493097 1247829072
0.45734799 0.0478101 0.75492799 1248421463
0.45427901 0.048893601 0.75493199 1244539422
0.45530099 0.049979702 0.75493097 1244079384
0.463449 0.046041001 0.76159298 1266776937
0.46241701 0.047135402 0.761594 1249605735
0.46448001 0.047136702 0.76159197 1249868906
0.461384 0.048229702 0.76159602 1248421463
0.46344799 0.048231099 0.76159298 1248684634
0.46551099 0.048232399 0.76159102 1249079390
0.46241501 0.049325399 0.76159501 1245789743
0.46344599 0.0504211 0.761594 1244474140
0.46490601 0.0459827 0.760598 1266777193
0.463875 0.047075599 0.76059902 1249868906
0.46593601 0.0470769 0.76059699 1249605733
0.46284401 0.0481686 0.76060098 1248684634
0.46490499 0.0481699 0.760598 1249079390
0.466966 0.0481712 0.76059598 1249013597
0.46387401 0.049262799 0.76059997 1246513465
0.46490401 0.050356999 0.76059902 1244605980
0.471264 0.046506099 0.76929998 1266777192
0.47022101 0.047611602 0.769301 1249803113
0.472305 0.047612902 0.76929897 1249605733
0.46917799 0.048717 0.76930302 1249013598
0.47126299 0.0487183 0.769301 1249013597
0.47334701 0.0487196 0.76929802 1249276768
0.47022 0.049823798 0.76930201 1246842429
0.47126099 0.0509305 0.769301 1244737566
-0.38296899 0.069224998 1.13302 1248286269
-0.38450301 0.070850901 1.13302 1247694130
-0.381437 0.070852801 1.13302 1248613939
-0.38603699 0.0724767 1.13302 1247036972
-0.38297099 0.072478697 1.13302 1249666626
-0.37990499 0.072480597 1.13302 1271572860
-0.384505 0.074104503 1.13302 1268023646
-0.38297299 0.075732298 1.13302 1271508089
-0.379134 0.069087401 1.13072 1247692842
-0.380665 0.070710003 1.13072 1248613939
-0.377606 0.070711903 1.13072 1271047291
-0.38219601 0.072332501 1.13073 1249666626
-0.379136 0.072334498 1.13072 1271572860
-0.376077 0.072336398 1.13072 1271703153
-0.380667 0.073957004 1.13072 1271507837
-0.37913799 0.075581498 1.13072 1272031855
-0.119579 0.059619401 0.97270602 1271833178
-0.120896 0.061015699 0.97270799 1272292959
-0.118264 0.061017301 0.97270501 1267622177
-0.122214 0.062411901 0.97271001 1272292705
-0.119581 0.062413599 0.97270697 1267292955
-0.116948 0.062415302 0.97270399 1248147715
-0.120898 0.063809901 0.972709 1268213543
-0.119583 0.065207802 0.97270799 1248410627
0.44655699 0.046554301 0.75226301 1248684888
0.445537 0.047635298 0.75226498 1245592362
0.44757599 0.047636598 0.752262 1246316086
0.44451699 0.048716199 0.75226599 1244144921
0.446556 0.048717499 0.75226402 1244210713
0.448594 0.048718799 0.752262 1244079128
0.44553599 0.0497985 0.75226498 1244079385
0.44655401 0.0508807 0.75226402 1243815961
0.45710099 0.047327202 0.76479602 1249145185
0.45606399 0.0484262 0.76479799 1246513466
0.45813599 0.0484275 0.76479501 1247039556
0.45502701 0.049525101 0.764799 1244144920
0.4571 0.049526401 0.76479697 1244210457
0.45917201 0.049527701 0.76479501 1244342043
0.456063 0.050625399 0.764799 1244210972
0.45709801 0.0517256 0.76479799 1244013337
0.46066901 0.046854898 0.75702202 1249605735
0.45964301 0.047942702 0.75702399 1248487256
0.461694 0.047944002 0.75702101 1249013598
0.458617 0.049030501 0.757025 1245394986
0.460668 0.049031802 0.75702298 1246184501
0.46271899 0.049033102 0.75702 1246842429
0.45964101 0.050119601 0.75702399 1244408348
0.460666 0.051208701 0.75702298 1244408347
0.46236801 0.0469235 0.75812501 1249868906
0.46134001 0.048012901 0.75812697 1248684634
0.46339399 0.048014201 0.75812399 1249079390
0.46031201 0.049102299 0.75812799 1245789743
0.46236601 0.049103599 0.75812602 1246513465
0.464421 0.049104899 0.75812298 1247039808
0.461339 0.0501929 0.75812697 1244474140
0.462365 0.051283602 0.75812602 1244342554
0.463633 0.046845499 0.75683498 1249605733
0.462607 0.047933102 0.756836 1249079390
0.46465799 0.047934402 0.75683397 1249013597
0.46158099 0.0490206 0.75683802 1246513465
0.46363199 0.0490219 0.75683498 1247039808
0.46568301 0.0490232 0.75683302 1247566150
0.46260601 0.050109498 0.75683701 1244605980
0.463631 0.0511983 0.756836 1244277015
0.46911299 0.047087401 0.760732 1266777707
0.46808201 0.048180599 0.76073402 1249276768
0.47014299 0.048181899 0.76073098 1249539940
0.467051 0.0492737 0.76073498 1247237187
0.46911201 0.049275 0.76073301 1247960908
0.47117299 0.0492763 0.76073003 1248421459
0.46808001 0.050368201 0.76073402 1245000738
0.46911001 0.051462598 0.76073301 1244211221
0.47377601 0.0468411 0.75664502 1249671526
0.47275001 0.0479284 0.75664598 1249474147
0.47479999 0.0479296 0.75664401 1249737319
0.471724 0.0490156 0.756648 1249276768
0.47377399 0.0490169 0.75664502 1249342561
0.47582501 0.0490182 0.756643 1249474147
0.47274801 0.050104201 0.75664699 1247237185
0.473773 0.051192801 0.75664598 1244342293
0.52079499 0.0485579 0.78421301 1267106927
0.519732 0.0496848 0.78421497 1266975341
0.52185601 0.049686201 0.78421199 1266909548
0.518668 0.050811701 0.784217 1266909548
0.52079302 0.050813101 0.78421402 1266909548
0.52291799 0.050814401 0.78421199 1267041134
0.51972997 0.051940002 0.78421599 1249869160
0.52079201 0.053068299 0.78421497 1249605988
0.54249603 0.049966302 0.807024 1267041134
0.54140198 0.051126 0.80702502 1266975341
0.54358798 0.0511274 0.80702299 1267041134
0.540308 0.052285701 0.80702698 1267106927
0.542494 0.052287001 0.807024 1266975341
0.54468101 0.052288398 0.80702198 1266909548
0.54140002 0.053446699 0.80702603 1249803367
0.54249299 0.054607801 0.80702502 1249605988
-0.387445 0.0711077 1.1371599 1247826746
-0.38898501 0.072739497 1.13717 1247300918
-0.38590801 0.072741397 1.1371599 1248088370
-0.390524 0.074371301 1.13717 1247630656
-0.387447 0.074373201 1.1371599 1247431983
-0.38437 0.0743751 1.1371599 1271443847
-0.388987 0.076004997 1.13717 1267037263
-0.387449 0.077638701 1.1371599 1271442295
-0.37997499 0.070582204 1.12867 1248613939
-0.38150299 0.072201803 1.12867 1249666626
-0.37844899 0.072203703 1.12867 1271572860
-0.38303101 0.073821403 1.12868 1268023646
-0.37997699 0.073823303 1.12867 1271507837
-0.37692299 0.0738253 1.12867 1272097650
-0.38150501 0.075442903 1.12867 1271508089
-0.37997901 0.077064499 1.12867 1272097644
-0.381235 0.071679302 1.14624 1272165512
-0.38278601 0.073324099 1.14624 1271901306
-0.37968501 0.073326103 1.14624 1272097396
-0.38433799 0.074968897 1.14624 1271901305
-0.381237 0.074970901 1.14624 1272228461
-0.378135 0.074972801 1.14623 1272293479
-0.382788 0.076615699 1.14624 1272228204
-0.381239 0.078262404 1.14624 1272555627
-0.123335 0.060918398 0.97117901 1272226907
-0.12465 0.062312499 0.97118098 1271897430
-0.122021 0.062314101 0.971178 1272292705
-0.125965 0.063706502 0.971183 1272292191
-0.123337 0.063708201 0.97118002 1271963484
-0.120708 0.063709803 0.97117698 1268213543
-0.124652 0.065102302 0.97118199 1272555111
-0.123338 0.066497996 0.97118098 1268214067
-0.122346 0.0610811 0.97377199 1272161371
-0.123665 0.0624789 0.97377402 1271963482
-0.121029 0.062480599 0.97377098 1270713675
-0.124984 0.063876703 0.97377598 1272292191
-0.122348 0.063878402 0.973773 1270713674
-0.119712 0.063880101 0.97377002 1248870918
-0.123667 0.065276198 0.97377503 1271371607
-0.12235 0.0666757 0.973773 1248542218
-0.022324 0.065384202 1.0414799 1247104314
-0.023734599 0.066879302 1.0414799 1245656868
-0.0209153 0.066881098 1.0414799 1247104314
-0.025145199 0.068374403 1.04149 1245459489
-0.022325899 0.068376198 1.0414799 1245920040
-0.0195067 0.068378001 1.0414799 1247235900
-0.023736499 0.069871299 1.0414799 1245722661
-0.022327799 0.071368203 1.0414799 1245590820
-0.0211678 0.066173598 1.0541 1248025416
-0.022595501 0.067686804 1.0541 1246314798
-0.0197421 0.067688599 1.0541 1248025416
-0.024023101 0.069200002 1.0541 1245525282
-0.0211697 0.069201797 1.0541 1246314798
-0.018316399 0.0692036 1.05409 1248091209
-0.0225974 0.070715003 1.0541 1245788454
-0.0211717 0.072230101 1.0541 1245525027
-0.0089761196 0.060930502 0.970083 1267105383
-0.0102901 0.062323201 0.97008401 1249801825
-0.0076639401 0.0623248 0.97008097 1246117415
-0.011604 0.063715898 0.97008598 1248749137
-0.0089778798 0.063717499 0.970083 1246577966
-0.0063517499 0.063719198 0.97008002 1245854498
-0.0102918 0.065110199 0.97008502 1246709554
-0.00897964 0.066504598 0.97008401 1245722918
0.436748 0.047451898 0.74943101 1244473882
0.43573201 0.048528802 0.74943203 1244144921
0.43776301 0.048530102 0.74943 1244210714
0.43471599 0.049605701 0.74943399 1243881750
0.43674701 0.049607001 0.74943101 1243816213
0.438777 0.049608201 0.74942899 1243816213
0.43573099 0.0506838 0.74943298 1243815961
0.436746 0.051762 0.74943203 1243750168
0.46122301 0.0481067 0.75962901 1248487256
0.46019399 0.049198199 0.75963002 1245394986
0.46225199 0.049199499 0.759628 1246184501
0.45916399 0.050289799 0.75963199 1244276763
0.46122199 0.050291099 0.75962901 1244408348
0.46327999 0.050292399 0.75962698 1244540188
0.46019199 0.051382601 0.75963098 1244079384
0.46122101 0.052475501 0.75963002 1243816214
0.46104601 0.047982398 0.75764298 1248684634
0.46001899 0.0490711 0.75764501 1245789743
0.46207201 0.0490724 0.75764197 1246513465
0.458992 0.050159801 0.75764602 1244342556
0.461045 0.050161101 0.757644 1244474140
0.46309701 0.050162401 0.75764102 1244605980
0.460017 0.051249798 0.75764501 1244210969
0.461043 0.0523398 0.757644 1243881749
0.46131 0.047799401 0.75471199 1249079390
0.460287 0.0488839 0.75471401 1246513465
0.46233201 0.0488852 0.75471097 1247039808
0.45926401 0.049968399 0.75471503 1244474140
0.46130899 0.049969699 0.754713 1244605980
0.46335399 0.049970999 0.75471002 1244869152
0.46028599 0.051054198 0.75471401 1244342554
0.46130699 0.052139901 0.754713 1243882005
0.47384 0.0477314 0.75348198 1249671526
0.47281799 0.048814099 0.75348401 1249474147
0.47486001 0.048815399 0.75348097 1249408354
0.47179699 0.0498969 0.75348502 1247434564
0.473838 0.049898099 0.753483 1247697736
0.47588 0.049899399 0.75348002 1248026701
0.472817 0.050980899 0.75348401 1244671258
0.47383699 0.052064899 0.753483 1244474137
0.48475599 0.0484128 0.76425999 1266777707
0.48372 0.049511001 0.76426101 1249474147
0.485791 0.049512301 0.76425898 1249539940
0.48268399 0.050609201 0.76426297 1248026701
0.48475501 0.050610501 0.76425999 1248421459
0.486826 0.050611801 0.76425803 1248750423
0.48371899 0.051708799 0.76426202 1245394981
0.48475301 0.0528083 0.76426101 1244145172
0.49004599 0.048528399 0.76605099 1249737574
0.489007 0.0496292 0.76605201 1249474402
0.491083 0.049630601 0.76604998 1249540195
0.48796901 0.050730001 0.76605397 1248750423
0.490044 0.050731398 0.76605099 1248882265
0.49212 0.050732698 0.76604903 1249079644
0.48900601 0.051832199 0.76605302 1246974268
0.49004301 0.0529343 0.76605201 1244868893
0.490805 0.0485017 0.76561397 1249737574
0.48976699 0.049601901 0.765616 1249540195
0.491842 0.049603201 0.76561302 1249605988
0.488729 0.050702099 0.76561701 1248816472
0.49080399 0.050703399 0.76561499 1248948058
0.49287799 0.050704699 0.76561302 1249145437
0.489766 0.0518036 0.76561701 1247171647
0.49080199 0.052905101 0.765616 1245000479
0.52929199 0.050088201 0.79056001 1266909548
0.52822101 0.051224198 0.79056102 1267041134
0.53036302 0.051225599 0.79055899 1267041134
0.52714902 0.052360199 0.79056299 1266712169
0.52929097 0.0523616 0.79056001 1266712169
0.53143299 0.052363001 0.79055798 1249737574
0.52821898 0.053497601 0.79056197 1249540195
0.52929002 0.054634999 0.79056102 1248816472
-0.125948 0.063627198 0.99175602 1271963482
-0.12729099 0.065050803 0.99175799 1272292191
-0.124606 0.065052502 0.99175501 1270713674
-0.12863401 0.0664744 0.99176002 1271700312
-0.125949 0.066476099 0.99175698 1271371607
-0.123265 0.066477798 0.991754 1248673285
-0.12729201 0.067899697 0.991759 1271240287
-0.12595101 0.069325 0.99175799 1248147466
-0.0101898 0.061719399 0.96064198 1249801825
-0.011491 0.063098602 0.96064401 1248749137
-0.0088903904 0.063100196 0.96064103 1246577966
-0.0127921 0.064477697 0.96064597 1247828037
-0.0101915 0.064479403 0.96064299 1246709554
-0.00759097 0.064480998 0.960639 1245591072
-0.0114927 0.065858498 0.96064401 1246314799
-0.0101933 0.067239299 0.96064299 1245854504
0.47251001 0.048886899 0.75462502 1249342561
0.47148699 0.049971201 0.75462598 1247237185
0.47353199 0.049972501 0.75462401 1247566150
0.47046399 0.051055599 0.754628 1244276500
0.472509 0.051056899 0.75462502 1244342293
0.474554 0.051058199 0.754623 1244868637
0.471486 0.052141301 0.75462699 1244276758
0.47250801 0.053227 0.75462598 1243816726
0.48284 0.0495262 0.76450902 1249408354
0.481803 0.050624799 0.76450998 1247829322
0.48387501 0.050626099 0.76450801 1248224080
0.48076701 0.051723301 0.764512 1244868637
0.48283899 0.051724602 0.76450902 1245197602
0.48491001 0.051725999 0.764507 1245723946
0.48180199 0.052823201 0.76451099 1244473881
0.48283699 0.0539231 0.76450998 1243751190
0.489503 0.049368601 0.76196998 1249605988
0.48846999 0.050463501 0.76197201 1248948058
0.49053499 0.050464801 0.76196998 1249145437
0.48743701 0.051558498 0.76197398 1247171647
0.48950201 0.051559798 0.761971 1247829577
0.491566 0.051561099 0.76196897 1248290128
0.488469 0.052654698 0.76197302 1245000479
0.48949999 0.053750999 0.76197201 1244079383
0.48922199 0.0488314 0.753573 1266777962
0.48820001 0.0499143 0.75357401 1249474402
0.490242 0.049915601 0.75357199 1249671781
0.487178 0.050997201 0.75357598 1248487507
0.48921999 0.050998501 0.753573 1248816472
0.49126199 0.050999802 0.75357097 1249079644
0.488199 0.052081399 0.75357503 1245592359
0.48921901 0.0531656 0.75357401 1244210968
0.509489 0.049516 0.76405501 1267041134
0.50845301 0.050613999 0.76405698 1249869160
0.51052302 0.050615299 0.764054 1266843755
0.50741702 0.051711999 0.76405799 1249605988
0.50948799 0.051713299 0.76405603 1249540195
0.511558 0.051714599 0.76405299 1249540195
0.508452 0.052811299 0.76405698 1249013851
0.50948602 0.053910501 0.76405603 1246711098
0.52666098 0.050367199 0.77717602 1266843755
0.525608 0.051484 0.77717799 1266843755
0.527713 0.0514853 0.77717501 1266777962
0.52455401 0.052600801 0.777179 1249803367
0.52666003 0.052602202 0.77717698 1266712169
0.52876598 0.052603502 0.777174 1249869160
0.52560598 0.053718999 0.77717799 1249342816
0.526658 0.054837201 0.77717698 1248553045
-0.389606 0.073905803 1.13004 1247499330
-0.39113599 0.0755274 1.13004 1247365942
-0.388078 0.0755293 1.13004 1247826225
-0.392665 0.077148899 1.13004 1247036466
-0.389608 0.077150904 1.13004 1249336888
-0.38655001 0.077152804 1.13004 1270916469
-0.39113799 0.078772403 1.13004 1266903624
-0.38960999 0.0803959 1.13004 1271572083
0.489586 0.0510047 0.77023602 1248618838
0.48854199 0.052111499 0.77023798 1245723946
0.49062899 0.052112799 0.770235 1246513718
0.48749799 0.053218301 0.770239 1244079379
0.48958501 0.053219602 0.77023703 1244473880
0.49167201 0.053220902 0.770235 1244737307
0.48854101 0.0543264 0.770239 1243816982
0.489584 0.055434499 0.77023798 1243882520
0.49044001 0.050246 0.75862402 1249277023
0.489411 0.051336199 0.75862497 1248290128
0.491467 0.051337499 0.758623 1248684886
0.488383 0.052426301 0.758627 1245197858
0.490439 0.052427601 0.75862402 1245263651
0.49249399 0.052428901 0.75862199 1245921324
0.48941001 0.0535178 0.75862598 1244210712
0.490437 0.054609202 0.75862497 1244079385
0.48974901 0.050071798 0.75596702 1249474402
0.48872399 0.051158201 0.75596797 1248487507
0.49077201 0.051159501 0.75596601 1248816472
0.487699 0.052244499 0.75597 1245263394
0.48974699 0.052245799 0.75596702 1245592359
0.49179599 0.0522471 0.75596499 1246053166
0.488722 0.053332102 0.75596899 1244276762
0.489746 0.054419801 0.75596797 1244079385
0.49495599 0.050393101 0.76082498 1249671781
0.49392501 0.051486399 0.76082599 1248816472
0.49598601 0.051487699 0.76082402 1249079644
0.49289301 0.052579701 0.76082802 1245592359
0.494955 0.052581001 0.76082498 1246053166
0.49701601 0.052582301 0.76082301 1246645303
0.49392301 0.0536744 0.760827 1244210968
0.49495301 0.054768998 0.76082599 1243947799
0.494948 0.050083 0.75608099 1249737574
0.49392301 0.0511695 0.75608301 1249211230
0.49597201 0.0511708 0.75607997 1249408609
0.49289799 0.052255999 0.75608402 1246316082
0.49494699 0.052257299 0.756082 1247105855
0.49699599 0.0522586 0.75607902 1247895370
0.493922 0.053343799 0.75608301 1244408346
0.494946 0.054431599 0.756082 1244210971
0.49464101 0.0496457 0.74939698 1266712169
0.49362499 0.0507227 0.74939799 1249540195
0.49565601 0.050723899 0.74939603 1249605988
0.49260899 0.051799599 0.74940002 1247895370
0.49463999 0.051800899 0.74939799 1248224335
0.49667001 0.051802099 0.74939501 1248816216
0.493624 0.052877799 0.74939901 1245592362
0.494638 0.053955998 0.74939799 1244277018
-0.12552799 0.064875998 0.96780598 1271700312
-0.126839 0.0662653 0.96780801 1272291677
-0.124219 0.066266902 0.96780401 1271240287
-0.12815 0.067654498 0.96780902 1272423262
-0.12553 0.067656197 0.96780598 1271305819
-0.12291 0.067657799 0.967803 1248147466
-0.12684099 0.069045402 0.96780801 1271305298
-0.125532 0.070436299 0.96780699 1248475910
-0.123087 0.0649717 0.96921098 1271371607
-0.1244 0.066362903 0.96921301 1271240287
-0.121777 0.066364601 0.96921003 1248542218
-0.12571301 0.067754202 0.96921498 1271305819
-0.123089 0.067755803 0.969212 1248147466
-0.120466 0.067757502 0.96920902 1248213517
-0.124402 0.069147103 0.96921402 1248147720
-0.123091 0.070540003 0.96921301 1248016137
0.496272 0.0516233 0.76284897 1248948058
0.49523699 0.0527195 0.762851 1245921324
0.49730399 0.0527208 0.76284802 1246316082
0.494203 0.0538157 0.76285201 1244276761
0.49627 0.053817 0.76284999 1244145175
0.498337 0.0538183 0.76284802 1244408346
0.49523601 0.054913301 0.76285201 1244013592
0.49626899 0.056010801 0.762851 1243882006
0.494874 0.051058099 0.75440502 1249408609
0.49385101 0.052142199 0.75440598 1247105855
0.49589601 0.052143499 0.75440401 1247895370
0.49282899 0.0532263 0.754408 1244408346
0.49487299 0.0532276 0.75440502 1245197862
0.49691701 0.0532289 0.754403 1245592362
0.49384999 0.0543117 0.75440699 1244210971
0.49487099 0.055397101 0.75440598 1244276764
0.49660799 0.050718099 0.74929899 1249605988
0.495592 0.051794901 0.74930102 1248487507
0.49762201 0.051796202 0.74929798 1249013851
0.49457601 0.0528717 0.74930203 1245592618
0.49660599 0.052873001 0.7493 1246184754
0.49863699 0.052874301 0.74929702 1246645049
0.49559101 0.053949799 0.74930102 1244408346
0.49660501 0.055027802 0.7493 1244079382
0.50798899 0.0513556 0.75871903 1249540195
0.50696099 0.0524459 0.75871998 1248948058
0.50901699 0.0524472 0.75871801 1248816472
0.50593197 0.0535363 0.75872201 1246711098
0.50798798 0.0535376 0.75871998 1246908221
0.51004398 0.0535389 0.758717 1248026958
0.50695902 0.054627899 0.75872099 1244803361
0.50798702 0.055719499 0.75871998 1244276761
0.51018298 0.0510654 0.75435299 1249869160
0.50915998 0.052149501 0.754354 1249474402
0.511204 0.052150801 0.75435197 1249277023
0.50813699 0.053233601 0.75435603 1248618838
0.51018101 0.053234801 0.75435299 1248553045
0.51222599 0.053236101 0.75435102 1248947803
0.50915903 0.054318901 0.75435501 1245921841
0.51018 0.055404201 0.754354 1244408347
0.51156002 0.051101401 0.75487697 1266712169
0.51053703 0.052186199 0.75487798 1249342816
0.51258302 0.052187499 0.75487602 1249408609
0.50951302 0.0532711 0.75488001 1248684888
0.51155901 0.053272299 0.75487697 1248553045
0.513605 0.0532736 0.754875 1249342561
0.51053602 0.054357201 0.754879 1245987634
0.511558 0.055443302 0.75487798 1244539933
0.52250099 0.051476602 0.76037401 1266712169
0.52147001 0.0525693 0.76037598 1249540195
0.52353001 0.0525706 0.76037401 1249540195
0.52043903 0.053661998 0.76037699 1249342560
0.52249902 0.053663298 0.76037502 1249342560
0.52455997 0.053664599 0.760373 1249342816
0.52146798 0.054756001 0.76037699 1248027215
0.52249801 0.055849999 0.76037598 1245724461
-0.391895 0.076998003 1.12782 1247036466
-0.39342201 0.078616403 1.12783 1247430958
-0.39037001 0.078618303 1.12782 1266903624
-0.39494801 0.080234803 1.12783 1248416817
-0.39189699 0.080236703 1.12783 1269205604
-0.388845 0.080238603 1.12782 1271572083
-0.393424 0.081854999 1.12783 1270914928
-0.39189899 0.083475299 1.12783 1271965287
-0.12661 0.066146001 0.966057 1272291677
-0.127918 0.067532703 0.96605903 1272423262
-0.125303 0.067534298 0.96605599 1271305819
-0.129226 0.068919398 0.966061 1272160604
-0.12661099 0.068921097 0.96605802 1271305298
-0.123997 0.068922698 0.96605498 1248147720
-0.12792 0.070307799 0.96605998 1271108174
-0.12661301 0.071696199 0.96605903 1249001988
-0.125443 0.066220798 0.96714097 1272160870
-0.126753 0.067608997 0.967143 1272292191
-0.124135 0.067610703 0.96714002 1267885618
-0.12806199 0.068997301 0.96714401 1272357983
-0.12544499 0.068999 0.96714097 1267950891
-0.122827 0.069000602 0.96713799 1247424002
-0.126754 0.0703872 0.967143 1268081956
-0.12544601 0.071777202 0.96714199 1248147204
-0.0751267 0.0615099 0.89759398 1245389324
-0.076342396 0.0627985 0.897596 1245520655
-0.073912598 0.062799998 0.89759302 1245126154
-0.0775581 0.064087003 0.89759803 1245454861
-0.075128302 0.064088598 0.89759499 1245191947
-0.072698496 0.064090103 0.89759201 1244863240
-0.076343998 0.065377198 0.89759701 1245126156
-0.075129896 0.066667303 0.897596 1244732170
-0.0184686 0.067582302 0.985973 1246248750
-0.019804001 0.068997703 0.98597503 1245525027
-0.017134899 0.068999402 0.98597199 1246314543
-0.021139501 0.070413202 0.98597699 1245525027
-0.018470399 0.070414901 0.98597401 1245919785
-0.015801299 0.0704166 0.98597002 1246117164
-0.0198058 0.071830399 0.98597598 1245656613
-0.0184722 0.073247597 0.98597401 1245853992
0.38934001 0.0427352 0.61767101 1244473881
0.38850299 0.043623 0.61767203 1243948312
0.39017701 0.043623999 0.61767 1243751190
0.387665 0.0445107 0.61767298 1243816727
0.389339 0.044511799 0.61767101 1243816727
0.391013 0.044512901 0.61767 1243750934
0.388502 0.045399498 0.61767298 1243816727
0.38933799 0.046288401 0.61767203 1243685141
0.49366501 0.051804502 0.749461 1248026956
0.49264899 0.052881502 0.74946201 1245526826
0.49467999 0.052882802 0.74945998 1245592618
0.491633 0.053958502 0.74946398 1244408350
0.493664 0.053959802 0.749461 1244474141
0.49569499 0.053961098 0.74945903 1244408346
0.49264801 0.055036802 0.74946302 1244276763
0.493662 0.056115098 0.74946201 1244013591
0.49529099 0.051763602 0.74884498 1248487507
0.49427599 0.0528397 0.74884701 1245592618
0.49630499 0.052841 0.74884403 1246184754
0.49326 0.053915899 0.74884802 1244474141
0.495289 0.053917199 0.74884599 1244408346
0.49731901 0.053918399 0.74884301 1244540189
0.49427399 0.054993302 0.74884701 1244079383
0.49528801 0.0560707 0.74884599 1244013589
0.506603 0.0521998 0.755117 1248816472
0.50557899 0.053284898 0.75511903 1246908221
0.50762498 0.053286199 0.75511599 1248026958
0.50455499 0.054370102 0.75511998 1244803361
0.50660199 0.054371301 0.75511801 1245197862
0.50864798 0.054372601 0.75511497 1245789999
0.50557798 0.055456501 0.75511903 1244276761
0.50660002 0.056542899 0.75511801 1244342554
0.506244 0.052058998 0.75305802 1249211230
0.50522298 0.053141199 0.75305998 1247434564
0.507263 0.053142499 0.753057 1248618838
0.50420201 0.0542234 0.753061 1244934690
0.50624198 0.054224599 0.75305903 1245526826
0.50828302 0.054225899 0.75305599 1245921841
0.50522101 0.0553068 0.75305998 1244210968
0.50624102 0.0563903 0.75305903 1244210968
0.50651902 0.051880401 0.75043899 1249474402
0.50550199 0.052958801 0.75044 1248618838
0.50753599 0.052960102 0.75043797 1248553045
0.50448501 0.054037198 0.75044203 1245526826
0.50651801 0.054038499 0.75043899 1245921841
0.50855201 0.054039799 0.75043702 1246185013
0.50550097 0.055117 0.75044101 1244342554
0.50651699 0.056196701 0.75044 1244013589
0.50703198 0.051727299 0.74818999 1249277023
0.50601798 0.052802499 0.74819201 1248553045
0.50804502 0.0528038 0.74818999 1248947803
0.50500399 0.0538777 0.74819303 1245921841
0.50703102 0.053879 0.748191 1246185013
0.50905901 0.0538803 0.74818897 1247106115
0.50601703 0.054954201 0.74819201 1244408347
0.50703001 0.056030702 0.74819201 1244145175
0.51310301 0.051729999 0.74816602 1249540195
0.51208901 0.0528052 0.74816799 1249342560
0.51411599 0.0528065 0.74816501 1249342560
0.51107401 0.053880401 0.748169 1247632457
0.51310199 0.0538816 0.74816698 1248027215
0.51512903 0.053882901 0.74816501 1248421973
0.512088 0.054956801 0.74816799 1245132324
0.51310098 0.056033298 0.74816799 1244408601
-0.39694101 0.078706898 1.12916 1247827007
-0.39847001 0.080327198 1.12916 1247892024
-0.39541501 0.080329098 1.12916 1248416817
-0.39999801 0.081947498 1.1291699 1247629106
-0.396943 0.081949398 1.12916 1248942128
-0.393888 0.081951298 1.12916 1270914928
-0.39847201 0.083569698 1.12916 1267232324
-0.396945 0.085191898 1.12916 1271505770
-0.395879 0.078800201 1.1304899 1247562804
-0.39740899 0.080422401 1.1304899 1248088628
-0.39435101 0.080424301 1.1304899 1249797184
-0.39894 0.082044601 1.1304899 1247759402
-0.395881 0.082046501 1.1304899 1268415826
-0.392822 0.082048498 1.1304899 1271901047
-0.39741099 0.083668701 1.1304899 1269599580
-0.39588299 0.085292801 1.1304899 1271833959
-0.39483601 0.078897998 1.13188 1247430958
-0.396368 0.080522202 1.13188 1248416817
-0.393305 0.080524102 1.13188 1269205604
-0.39789999 0.082146399 1.1318901 1248942128
-0.39483801 0.082148299 1.13188 1270914928
-0.39177501 0.082150303 1.13188 1271703151
-0.39636999 0.083772503 1.1318901 1271374958
-0.39484 0.0853986 1.13188 1271898977
0.50764 0.052866202 0.74909002 1248553045
0.506625 0.053942699 0.74909103 1245987634
0.50865501 0.053943999 0.749089 1246645564
0.50560898 0.0550192 0.749093 1244342554
0.50763899 0.0550205 0.74909002 1244539933
0.50966901 0.0550218 0.74908799 1244868898
0.50662303 0.056097001 0.74909198 1244079382
0.50763798 0.057174802 0.74909103 1244079382
0.51147997 0.052949999 0.75025201 1249342561
0.51046199 0.054028202 0.75025398 1247106115
0.51249498 0.054029401 0.750251 1247632457
0.50944501 0.055106301 0.75025499 1244671519
0.51147801 0.055107601 0.75025302 1244869152
0.513511 0.055108901 0.75024998 1245132324
0.51046097 0.056185801 0.75025398 1244079382
0.51147699 0.0572653 0.75025302 1244145430
0.51561302 0.052549601 0.74446398 1249342816
0.51460397 0.0536195 0.74446601 1248619352
0.51662099 0.0536208 0.74446398 1248948061
0.51359499 0.0546894 0.74446702 1246316598
0.51561201 0.054690599 0.74446499 1246645563
0.51762903 0.0546919 0.74446303 1247500872
0.51460302 0.055760499 0.74446601 1245000738
0.51561099 0.056831699 0.74446601 1244342808
-0.400267 0.080380298 1.12993 1247564345
-0.401797 0.082001597 1.12993 1247432244
-0.39873999 0.082003601 1.12993 1247759402
-0.40332699 0.083622999 1.12993 1247366194
-0.400269 0.083624899 1.12993 1248548401
-0.397212 0.083626904 1.12993 1269599580
-0.40179899 0.085246302 1.12993 1249140025
-0.400271 0.086869597 1.12993 1271506805
-0.398882 0.080410101 1.13033 1247892024
-0.40041301 0.082032099 1.13034 1247629106
-0.39735401 0.082033999 1.13033 1248942128
-0.401943 0.083654001 1.13034 1247562541
-0.398884 0.083655998 1.13033 1267232324
-0.39582601 0.083657898 1.13033 1271374958
-0.400415 0.0852779 1.13034 1268679255
-0.39888701 0.086901799 1.13034 1271900271
-0.00354282 0.0658608 0.92179197 1244999198
-0.0047914102 0.067184202 0.92179298 1245196575
-0.0022959099 0.0671857 0.92179102 1244933405
-0.0060399901 0.068507597 0.92179501 1245393954
-0.0035444901 0.068509199 0.92179197 1245130784
-0.001049 0.068510696 0.92178899 1244867612
-0.00479308 0.069832601 0.921794 1245130782
-0.00354617 0.071157597 0.92179298 1245064991
0.51139098 0.053389799 0.74127001 1248553558
0.51038599 0.054455101 0.74127102 1246053426
0.51239502 0.054456402 0.74126899 1246513977
0.509381 0.0555204 0.74127197 1244540187
0.51138997 0.055521701 0.74127001 1244869152
0.513399 0.055523001 0.74126798 1245132324
0.51038498 0.056586999 0.74127197 1244211222
0.511388 0.057653502 0.74127102 1244145429
-0.40162501 0.081966698 1.12945 1247432244
-0.40315399 0.083587401 1.12945 1247366194
-0.400098 0.083589301 1.12945 1248548401
-0.40468299 0.085208103 1.12945 1247300146
-0.401627 0.085210003 1.12945 1249140025
-0.39857101 0.085211903 1.1294399 1270651752
-0.40315601 0.086830698 1.12945 1267232842
-0.40163001 0.0884533 1.12945 1271703926
-0.39931101 0.082120799 1.13155 1247759402
-0.40084299 0.083744504 1.13155 1248548401
-0.397782 0.083746403 1.13155 1269599580
-0.40237501 0.085368097 1.13155 1249140025
-0.399313 0.085370101 1.13155 1270651752
-0.39625201 0.085372001 1.1315399 1271833959
-0.40084499 0.086993799 1.13155 1271506805
-0.39931601 0.088619404 1.13155 1272162667
-0.40473399 0.0839139 1.13388 1247366194
-0.40626901 0.085540898 1.13388 1247300146
-0.40320101 0.085542798 1.13388 1249140025
-0.40780401 0.087167896 1.13388 1247233580
-0.40473601 0.087169901 1.13388 1267232842
-0.40166801 0.0871718 1.13387 1271506805
-0.40627101 0.088796899 1.13388 1269403238
-0.40473801 0.090425901 1.13388 1271571566
-0.40152201 0.083885796 1.1334701 1248548401
-0.403056 0.085512199 1.1334701 1249140025
-0.39998901 0.085514098 1.13346 1270651752
-0.40459099 0.087138601 1.1334701 1267232842
-0.40152401 0.087140597 1.1334701 1271506805
-0.39845699 0.087142497 1.13346 1272031337
-0.40305799 0.088767 1.1334701 1271703926
-0.401526 0.090395398 1.1334701 1272227689
-0.130025 0.0714145 0.96228498 1272424292
-0.131328 0.072795801 0.96228701 1272029534
-0.12872399 0.072797403 0.96228403 1268476717
-0.132632 0.074177101 0.96228898 1272226915
-0.130027 0.074178703 0.962286 1268279853
-0.127422 0.074180402 0.96228302 1248016128
-0.13133 0.075560004 0.96228701 1268411442
-0.13002899 0.076943003 0.962286 1247357952
-0.084962502 0.0697359 0.93916303 1245455118
-0.086234398 0.071084201 0.939165 1245455119
-0.0836922 0.071085803 0.93916202 1245258000
-0.087506399 0.072432399 0.93916702 1245324049
-0.084964201 0.072434001 0.93916398 1245060878
-0.082421899 0.072435603 0.939161 1244732684
-0.086236097 0.073782198 0.939165 1244995342
-0.0849659 0.075131997 0.93916398 1244469771
-0.408645 0.085715897 1.13622 1247629886
-0.41018301 0.0873463 1.13622 1247892540
-0.40710899 0.0873482 1.13622 1248285492
-0.41172099 0.088976704 1.13623 1247233834
-0.408647 0.088978603 1.13622 1266838086
-0.405572 0.0889806 1.13622 1271047029
-0.41018501 0.090608999 1.13623 1267494724
-0.408649 0.092241302 1.13622 1271571566
0.46807101 0.052530501 0.68789798 1244079382
0.46713799 0.0535191 0.68789899 1244013591
0.46900201 0.053520299 0.68789703 1244079382
0.466205 0.054507799 0.68790102 1226710031
0.46806899 0.054508999 0.68789899 1243947798
0.469933 0.054510102 0.68789601 1244013589
0.46713701 0.055497602 0.68790001 1243947799
0.468068 0.0564874 0.68789899 1243947799
-0.410983 0.087516204 1.13844 1247892540
-0.41252401 0.089149699 1.13844 1247233834
-0.409444 0.089151703 1.13844 1266838086
-0.414065 0.090783298 1.13845 1247168557
-0.41098499 0.090785198 1.13844 1267494724
-0.40790501 0.090787202 1.13844 1271440756
-0.41252601 0.092418797 1.13845 1269009252
-0.41098699 0.094054297 1.13844 1271900014
-0.088443503 0.071144499 0.92242098 1245652240
-0.089692801 0.072468698 0.92242301 1245651982
-0.087195903 0.0724703 0.92242002 1245258514
-0.0909421 0.073792897 0.92242497 1245651725
-0.088445202 0.073794402 0.92242199 1245192205
-0.085948303 0.073795997 0.92241901 1244864013
-0.0896945 0.075118601 0.92242402 1245323019
-0.0884469 0.076444402 0.92242199 1244732169
0.33442399 0.069784202 0.90074998 1208353546
0.33320299 0.071078002 0.90075201 1208221960
0.33564299 0.0710795 0.90074903 1225657105
0.331983 0.072371803 0.90075302 1208221960
0.33442199 0.072373301 0.90075099 1225657106
0.336862 0.072374903 0.90074801 1226315290
0.333202 0.073667102 0.90075201 1225722899
0.33442101 0.0749624 0.90075099 1226315291
-0.41304299 0.090897903 1.13987 1248022060
-0.41458601 0.092533499 1.1398799 1249142345
-0.411502 0.092535399 1.13987 1270979947
-0.41612899 0.094169103 1.1398799 1267760730
-0.41304499 0.094171099 1.1398799 1271310712
-0.40996099 0.094172999 1.13987 1271898984
-0.414588 0.095806703 1.1398799 1271704678
-0.41304699 0.097444199 1.1398799 1271965017
0.33429399 0.072608702 0.90370399 1208419339
0.333069 0.073906802 0.90370601 1225393934
0.33551699 0.073908299 0.90370297 1226183450
0.331844 0.075204797 0.90370798 1225262603
0.33429199 0.075206302 0.903705 1226183705
0.33673999 0.075207897 0.90370202 1226249499
0.333067 0.076504402 0.90370601 1226315288
0.33429 0.077803999 0.903705 1226512666
-0.41893199 0.093154199 1.14756 1247036971
-0.420486 0.094800897 1.14757 1248220212
-0.41738099 0.094802797 1.14756 1270194810
-0.422039 0.096447498 1.14757 1267033923
-0.41893399 0.096449502 1.14756 1271507564
-0.415829 0.096451402 1.14756 1271702624
-0.420488 0.098096102 1.14757 1271769199
-0.41893601 0.0997447 1.14756 1271702621
-0.136926 0.077800497 0.95588702 1271897433
-0.13822 0.079172701 0.95588899 1272094554
-0.13563301 0.079174303 0.95588601 1271634266
-0.139515 0.0805448 0.95589 1272358493
-0.13692801 0.080546401 0.95588702 1271832156
-0.13434 0.080548003 0.95588398 1249001996
-0.13822199 0.0819185 0.95588899 1271569752
-0.13692901 0.083292201 0.95588797 1248936459
-0.098035499 0.079861604 0.98092902 1245520396
-0.099363998 0.081269696 0.98093098 1245520139
-0.096708797 0.081271298 0.980928 1245191432
-0.100692 0.082677796 0.98093301 1245520141
-0.098037302 0.082679398 0.98092997 1245191435
-0.095382102 0.082681097 0.98092598 1244731911
-0.099365801 0.084087498 0.98093098 1244928777
-0.098039098 0.085497297 0.98092997 1244600329
-0.42309901 0.094343498 1.14205 1247300406
-0.42464501 0.095982201 1.14205 1247495995
-0.42155501 0.095984101 1.14205 1248283699
-0.426191 0.097620897 1.14206 1247429943
-0.42310101 0.097622901 1.14205 1249533511
-0.42001101 0.097624801 1.14205 1270914674
-0.424647 0.099261597 1.14205 1267034443
-0.423103 0.100902 1.14205 1271441010
-0.13699099 0.079210497 0.95633602 1272094813
-0.13828599 0.0805832 0.95633698 1272095325
-0.13569801 0.080584899 0.95633399 1269200442
-0.13958099 0.081955999 0.956339 1271832662
-0.13699301 0.081957601 0.95633602 1269003832
-0.134404 0.081959203 0.95633298 1247752450
-0.13828801 0.083330303 0.95633799 1269398589
-0.136994 0.084704697 0.95633698 1247291648
-0.42460901 0.095973998 1.14196 1247495995
-0.426155 0.097612597 1.14196 1247429943
-0.42306501 0.097614497 1.14195 1249533511
-0.427701 0.099251099 1.14196 1247100968
-0.424611 0.099253103 1.14196 1267034443
-0.42152101 0.099255003 1.14195 1271441018
-0.426157 0.100892 1.14196 1268745051
-0.424613 0.102532 1.14196 1271638123
-0.139302 0.080422103 0.95442897 1272358493
-0.14059401 0.081792101 0.954431 1272424538
-0.13801099 0.081793703 0.95442802 1271569752
-0.14188699 0.083162099 0.95443302 1272226646
-0.139303 0.083163798 0.95442998 1271372116
-0.13672 0.0831654 0.954427 1248936459
-0.140596 0.084533803 0.95443201 1271831894
-0.139305 0.085905403 0.954431 1249068047
-0.13798501 0.080408402 0.95425397 1272095325
-0.139277 0.081778102 0.954256 1271832662
-0.136694 0.0817798 0.95425302 1269003832
-0.14057 0.083147898 0.95425802 1272292697
-0.137987 0.0831495 0.95425498 1269398589
-0.13540401 0.083151199 0.954252 1246962944
-0.13927899 0.084519297 0.95425701 1269595199
-0.137988 0.085890703 0.954256 1247686402
-0.137006 0.080592498 0.95643699 1271832156
-0.138301 0.081965402 0.95643902 1271569752
-0.135713 0.081967004 0.95643598 1248936973
-0.139597 0.083338298 0.95643997 1271372116
-0.137008 0.0833399 0.95643699 1248936459
-0.13441899 0.083341502 0.95643401 1247686662
-0.138303 0.084712803 0.95643902 1248870672
-0.13700999 0.086087301 0.956438 1247423233
-0.432358 0.100534 1.13796 1246906673
-0.43389899 0.102166 1.13796 1247170357
-0.43081999 0.102168 1.13796 1248022065
-0.43543899 0.103799 1.13796 1247695929
-0.43235999 0.103801 1.13796 1247892276
-0.42928201 0.103803 1.1379499 1269137751
-0.43390101 0.105434 1.13796 1248483124
-0.43236199 0.107069 1.13796 1271375734
-0.42856401 0.10073 1.14015 1248218671
-0.43010801 0.102366 1.14015 1248677934
-0.42702299 0.102368 1.1401401 1269796961
-0.431651 0.104002 1.14015 1266771779
-0.42856601 0.104004 1.14015 1271177584
-0.425482 0.104006 1.1401401 1271572324
-0.43011001 0.10564 1.14015 1271636335
-0.42856801 0.107278 1.14015 1272096099
-0.427122 0.100754 1.1404099 1249863235
-0.428666 0.102391 1.1404099 1267231555
-0.42557999 0.102393 1.1404099 1271375729
-0.43020999 0.104027 1.14042 1269137751
-0.42712399 0.104029 1.1404099 1272032628
-0.42403901 0.104031 1.1404099 1271768925
-0.42866799 0.105665 1.14042 1271768426
-0.42712599 0.107304 1.1404099 1271898972
-0.436196 0.102706 1.14399 1247170357
-0.43774399 0.104347 1.14399 1247695929
-0.43464899 0.104349 1.14399 1247892276
-0.439293 0.105989 1.14399 1247826742
-0.436198 0.105991 1.14399 1248483124
-0.433103 0.105993 1.14398 1270388587
-0.437747 0.107632 1.14399 1267034692
-0.43619999 0.109276 1.14399 1271965809
-0.143612 0.085392401 0.948753 1271963736
-0.144897 0.0867543 0.94875503 1272161116
-0.14232901 0.086755902 0.94875199 1271568984
-0.146182 0.088116199 0.94875699 1272226908
-0.14361399 0.088117801 0.94875401 1272029280
-0.141046 0.088119403 0.94875002 1249528337
-0.144899 0.089479603 0.94875503 1272160866
-0.14361501 0.090843096 0.94875401 1249528085
-0.14126 0.085524403 0.950203 1271634771
-0.142547 0.086888298 0.95020503 1271568984
-0.139975 0.0868899 0.95020199 1249133583
-0.14383399 0.088252299 0.950207 1272029280
-0.14126199 0.0882539 0.95020401 1249528337
-0.13868999 0.088255502 0.95020002 1247752202
-0.14254799 0.089617804 0.95020503 1249659670
-0.14126299 0.090983398 0.95020401 1247686150
0.32492101 0.080890402 0.89476299 1225328396
0.323708 0.082175598 0.89476401 1208353801
0.326132 0.082177199 0.89476103 1225854738
0.322496 0.0834608 0.89476597 1208419594
0.32491899 0.083462298 0.89476299 1225591568
0.327342 0.0834639 0.89476001 1226117910
0.32370701 0.084747501 0.89476502 1225525775
0.32491699 0.086034201 0.89476401 1225788947
-0.436854 0.104136 1.14166 1247695929
-0.43839899 0.105774 1.14166 1247826742
-0.43531001 0.105776 1.14166 1248483124
-0.43994501 0.107412 1.14166 1247562543
-0.436856 0.107414 1.14166 1267034692
-0.43376699 0.107416 1.14166 1271375734
-0.43840101 0.109052 1.14166 1268349521
-0.436858 0.110692 1.14166 1272096109
-0.143557 0.086721502 0.94838399 1271963739
-0.144841 0.088082798 0.94838601 1272292705
-0.14227401 0.0880844 0.94838297 1269594943
-0.146126 0.089444101 0.94838798 1272161117
-0.14355899 0.089445703 0.948385 1269858117
-0.140992 0.089447401 0.94838202 1247949313
-0.144843 0.090807103 0.94838601 1269594943
-0.14356001 0.09217 0.948385 1247554561
-0.43976399 0.10536 1.1372 1247630399
-0.44130301 0.106991 1.13721 1247366713
-0.43822601 0.106993 1.1372 1247562543
-0.44284201 0.108623 1.13721 1247826492
-0.43976599 0.108625 1.1372 1247758638
-0.43668899 0.108627 1.1372 1268349521
-0.44130501 0.110257 1.13721 1248219188
-0.43976799 0.11189 1.13721 1270651767
-0.144694 0.087993696 0.94742298 1272292705
-0.14597701 0.089353703 0.94742501 1272161117
-0.14341301 0.089355297 0.94742203 1269858117
-0.14726 0.090713598 0.94742697 1272226395
-0.144696 0.0907152 0.94742399 1269594943
-0.142132 0.090716802 0.94742101 1247817475
-0.145979 0.092075199 0.94742602 1269989698
-0.14469799 0.093436703 0.94742501 1247817217
-0.142304 0.088102803 0.94858098 1269594943
-0.143589 0.089464404 0.94858301 1269858117
-0.141021 0.089465998 0.94858003 1247949313
-0.14487299 0.090825997 0.94858497 1269594943
-0.142306 0.090827599 0.94858199 1247817475
-0.13973799 0.090829201 0.94857901 1247949070
-0.14359 0.0921892 0.94858301 1247554561
-0.142307 0.093552403 0.94858199 1247817486
-0.439327 0.107639 1.14408 1248022059
-0.44087601 0.109281 1.14408 1249138999
-0.43778101 0.109283 1.14408 1270716777
-0.44242501 0.110923 1.14408 1267034698
-0.43933001 0.110925 1.14408 1271637109
-0.436234 0.110927 1.14408 1272094816
-0.440878 0.112566 1.14408 1271571575
-0.43933201 0.11421 1.14408 1272160608
-0.44421601 0.108959 1.14074 1247826492
-0.44576001 0.110596 1.14074 1247365940
-0.442673 0.110598 1.14074 1248219188
-0.44730401 0.112233 1.14074 1247366193
-0.44421801 0.112235 1.14074 1249009218
-0.441131 0.112237 1.14073 1270651767
-0.44576201 0.113871 1.14074 1267823950
-0.44422001 0.11551 1.14074 1271569763
-0.147626 0.0901547 0.94157898 1272291929
-0.148901 0.091506198 0.94158101 1272225879
-0.14635301 0.091507897 0.94157797 1272160861
-0.150176 0.0928578 0.94158298 1272224853
-0.14762799 0.092859402 0.94158 1272291418
-0.145079 0.092860997 0.94157702 1266699795
-0.148903 0.094210997 0.94158202 1272620129
-0.14762899 0.095564097 0.94158 1267226144
-0.14691401 0.090500601 0.94519502 1272226395
-0.148194 0.091857404 0.94519699 1272357980
-0.14563499 0.091858998 0.94519401 1269989698
-0.14947399 0.093214102 0.94519901 1272291418
-0.146915 0.093215697 0.94519502 1270713162
-0.144357 0.093217403 0.94519299 1247817217
-0.148195 0.094572499 0.94519699 1270449476
-0.146917 0.0959308 0.94519597 1247422721
-0.14632399 0.091489799 0.94139099 1272160861
-0.147599 0.092841104 0.94139302 1272291418
-0.145051 0.092842698 0.94138998 1266699795
-0.148873 0.094192401 0.94139498 1272620129
-0.14632501 0.094194002 0.941392 1267291932
-0.143777 0.094195597 0.94138902 1247817218
-0.1476 0.095545299 0.94139397 1267226144
-0.146327 0.096898198 0.94139302 1247817478
-0.451343 0.112467 1.14316 1247564088
-0.45289099 0.114108 1.14316 1247892805
-0.44979799 0.11411 1.14316 1247430437
-0.454438 0.115748 1.14316 1247366462
-0.451345 0.11575 1.14316 1247363876
-0.44825199 0.115752 1.14316 1268809553
-0.45289299 0.11739 1.14316 1248219701
-0.45134699 0.119032 1.14316 1270783083
-0.44749999 0.11267 1.14519 1247497008
-0.44905001 0.114314 1.14519 1248284973
