# .PCD v0.7 - Point Cloud Data file format
VERSION 0.7
FIELDS x y z rgb
SIZE 4 4 4 4
TYPE F F F U
COUNT 1 1 1 1
WIDTH 1160
HEIGHT 1
VIEWPOINT 0 0 0 1 0 0 0
POINTS 1160
DATA ascii
0.13688 -0.40161601 1.07391 1259245198
0.149175 -0.40109399 1.07252 1259047819
-0.344762 -0.401889 1.07865 1260034714
-0.120174 -0.40126199 1.07699 1259113612
-0.118649 -0.40081099 1.07578 1258982026
-0.38703099 -0.38690099 1.0423501 1258587268
0.160996 -0.396476 1.0682 1259837335
0.173603 -0.39376301 1.06089 1259376784
0.176228 -0.393502 1.06019 1259442577
-0.19958501 -0.39841101 1.0774601 1258587268
-0.140001 -0.399216 1.07964 1258718854
-0.130054 -0.39865899 1.07814 1258784647
-0.111829 -0.398251 1.0770299 1259113612
0.112393 -0.398828 1.07862 1260166300
0.157031 -0.39541501 1.0693901 1260890023
-0.38875401 -0.38273701 1.04699 1259047819
0.090319403 -0.38339001 1.04882 1259508370
0.150719 -0.39246199 1.07365 1262469055
-0.37796 -0.38824001 1.0661401 1261218988
-0.37434199 -0.387348 1.0636899 1260955816
-0.022722101 -0.391509 1.07516 1258455682
0.1407 -0.39398 1.08196 1260955816
-0.0102805 -0.39231801 1.08156 1258455682
-0.37369099 -0.38369 1.06185 1260495265
-0.102496 -0.39072499 1.08134 1257567476
-0.33931801 -0.39161101 1.08801 1258225406
-0.337915 -0.391615 1.08802 1258093820
-0.33629301 -0.398011 1.10579 1258455682
-0.32525399 -0.39160499 1.08799 1257962234
-0.302531 -0.39130801 1.08717 1258093820
-0.29965699 -0.391224 1.08693 1258093820
-0.29530099 -0.39103499 1.08641 1257962234
-0.26978901 -0.39068401 1.08544 1257172718
-0.16546699 -0.389429 1.08196 1256646374
-0.135969 -0.38903001 1.08085 1256646374
-0.121973 -0.38893601 1.08059 1256383202
-0.098140299 -0.38855499 1.07954 1257041132
0.11921 -0.387723 1.07725 1258982026
0.155286 -0.38744 1.07646 1259968921
-0.35061499 -0.39013699 1.08816 1258225406
-0.29687399 -0.38973001 1.0870301 1256383202
-0.29405901 -0.395385 1.1028 1256120030
-0.29124099 -0.39542899 1.1029299 1255725272
-0.28944901 -0.39492801 1.10153 1255725272
-0.28620499 -0.39438099 1.1 1255725272
-0.26107401 -0.38871101 1.08419 1257041132
-0.23158599 -0.38859701 1.0838701 1255462100
-0.22314499 -0.388531 1.08369 1255198928
-0.220342 -0.38852701 1.08368 1255198928
-0.218927 -0.38850099 1.0836101 1255067342
-0.216111 -0.38847199 1.0835299 1255067342
-0.149955 -0.38756099 1.08099 1255198928
-0.144403 -0.387658 1.08126 1255198928
-0.12198 -0.38744 1.08066 1255330514
-0.064649999 -0.386962 1.07933 1255988444
-0.052099898 -0.38545701 1.07937 1255725272
-0.040934 -0.38537699 1.0791399 1254935756
-0.032565702 -0.38535401 1.07908 1254672584
0.113378 -0.383798 1.0747401 1258093820
0.148008 -0.38357499 1.07411 1258455682
0.155205 -0.38421199 1.0759 1258587268
0.156652 -0.384352 1.07629 1258784647
0.171718 -0.38383299 1.0748399 1259310991
0.17321 -0.38406301 1.07548 1259442577
0.155176 -0.38262901 1.0757 1257567476
0.16204 -0.38242599 1.07513 1258093820
-0.371575 -0.375476 1.0597301 1260692644
-0.34965399 -0.38604099 1.08955 1256777960
-0.336079 -0.386619 1.09118 1255330514
-0.30625001 -0.386343 1.0904 1254935756
-0.30203399 -0.386356 1.09044 1254804170
-0.29919899 -0.38633499 1.09038 1254672584
-0.38590699 -0.36551601 1.03572 1260363679
-0.372372 -0.37478799 1.062 1261218988
-0.37073699 -0.374522 1.06124 1261679539
-0.367663 -0.376993 1.0682499 1261679539
-0.34134001 -0.38465899 1.08997 1257041132
-0.33710501 -0.38464701 1.08994 1256777960
-0.33312601 -0.38493201 1.09075 1256777960
-0.32316899 -0.38482401 1.09044 1256646374
-0.31179601 -0.38469899 1.09009 1256646374
-0.30062699 -0.38482699 1.09045 1256514788
-0.299229 -0.384841 1.09049 1256383202
-0.292292 -0.384983 1.0908999 1256514788
-0.26401299 -0.38485599 1.0905401 1255856858
-0.25684601 -0.384675 1.09003 1255462100
-0.25395799 -0.38456801 1.08972 1255462100
-0.233981 -0.38413399 1.0885 1256251616
-0.232526 -0.38405499 1.0882699 1254935756
-0.231059 -0.38395301 1.08798 1254672584
-0.195847 -0.383825 1.08762 1254804170
-0.185644 -0.38307101 1.08549 1254540998
-0.13355701 -0.382525 1.08395 1254672584
-0.13215201 -0.382512 1.08391 1254672584
-0.120893 -0.382341 1.0834301 1254672584
-0.113884 -0.38230801 1.08333 1254804170
-0.088622302 -0.38202801 1.08254 1254672584
-0.062022001 -0.38188499 1.08214 1254935756
-0.0606234 -0.381883 1.08213 1254935756
-0.053599101 -0.38164899 1.08147 1254804170
-0.323232 -0.38336599 1.09065 1258324096
-0.31898299 -0.38334101 1.09058 1258521475
-0.30631301 -0.383356 1.0906301 1258587268
-0.300648 -0.38332099 1.09053 1258521475
-0.299236 -0.38331699 1.09052 1258455682
-0.25810701 -0.38292399 1.0894001 1257830648
-0.245324 -0.38274601 1.0889 1257567476
-0.239741 -0.38281801 1.0891 1257304304
-0.22952899 -0.382218 1.0874 1256777960
-0.222589 -0.382364 1.08781 1256777960
-0.21714599 -0.38268101 1.08872 1256777960
-0.187085 -0.381623 1.08571 1256383202
-0.13640399 -0.38112801 1.0843 1256909546
-0.1322 -0.38112801 1.0843101 1257041132
-0.127993 -0.38111499 1.08427 1257041132
-0.104091 -0.38080701 1.08339 1257041132
-0.080185503 -0.38029799 1.0819499 1256909546
-0.053592399 -0.380081 1.0813299 1256909546
-0.046601102 -0.38003799 1.08121 1256777960
-0.038205601 -0.37990901 1.08085 1256646374
-0.034012198 -0.379868 1.08073 1256646374
-0.020045299 -0.379823 1.0806 1256777960
0.0022930801 -0.37947801 1.07962 1256514788
0.0078694103 -0.379298 1.07911 1257567476
0.0245803 -0.37896901 1.07818 1256383202
0.034329299 -0.37893599 1.0780801 1256251616
0.120549 -0.378474 1.07678 1256120030
0.131724 -0.37860101 1.07714 1255988444
-0.374529 -0.37258199 1.06422 1261021609
-0.26806301 -0.381538 1.08982 1258653061
-0.265279 -0.381585 1.08995 1258784647
-0.230891 -0.38061801 1.08719 1258225406
-0.193051 -0.38079599 1.08771 1258389889
-0.0549661 -0.37839901 1.08087 1258587268
-0.0311954 -0.37806001 1.07991 1258718854
0.0120429 -0.377478 1.0782501 1258389889
0.021786399 -0.37731799 1.07779 1258225406
0.066318102 -0.37713301 1.07726 1257962234
0.080201901 -0.376964 1.07679 1257962234
0.094113901 -0.376959 1.0767699 1257962234
0.133164 -0.37722501 1.07753 1257699062
0.13323499 -0.37591001 1.07811 1258784647
0.158997 -0.374248 1.0733401 1258455682
-0.36834201 -0.37028301 1.06622 1261613746
-0.0685656 -0.37185699 1.07513 1259574163
0.0189909 -0.37106001 1.0772099 1260100507
0.067714401 -0.37110001 1.07733 1259639956
0.074615002 -0.370803 1.07647 1259508370
-0.35345799 -0.371867 1.08394 1260692644
-0.2552 -0.36953101 1.07714 1259376784
-0.389532 -0.35351601 1.03468 1259639956
-0.38904199 -0.35016701 1.03338 1259903128
0.16601001 -0.36386001 1.07385 1259508370
0.164058 -0.36110699 1.07017 1259837335
0.16997901 -0.361938 1.07263 1260100507
0.16508199 -0.35882401 1.06785 1260692644
-0.39168799 -0.34143099 1.03332 1259705749
-0.37305099 -0.352844 1.06787 1261745332
-0.37316501 -0.35145101 1.06819 1261613746
-0.38689801 -0.33404401 1.04199 1260626851
-0.38256001 -0.34220299 1.06744 1260890023
-0.37681901 -0.34175101 1.07073 1261811125
-0.39135599 -0.326967 1.0289299 1260429472
-0.38769299 -0.32836801 1.03334 1261087402
-0.38450599 -0.33970299 1.06902 1260758437
-0.37685999 -0.34028199 1.07084 1261811125
-0.387849 -0.32704699 1.03376 1260758437
-0.39272499 -0.32410699 1.02904 1259968921
-0.377009 -0.33740601 1.07127 1261547953
-0.356424 -0.358457 1.1381201 1260100507
0.182092 -0.34108499 1.11281 1261613746
-0.37918201 -0.327546 1.0735 1260890023
-0.38765901 -0.32500499 1.0700999 1260758437
-0.14271399 -0.334241 1.10054 1259245198
-0.13901301 -0.33560199 1.10502 1258587268
0.178976 -0.337504 1.11131 1261021609
-0.0033468599 -0.32895899 1.09841 1259837335
0.0080191698 -0.32945201 1.10006 1259113612
-0.38993901 -0.31746799 1.0650001 1261153195
-0.39019099 -0.31842101 1.0732599 1261087402
-0.356244 -0.34029701 1.147 1260297886
0.00231927 -0.32423401 1.09289 1257830648
0.0093743503 -0.32403401 1.0922199 1257699062
-0.39039299 -0.315568 1.07381 1261350574
0.00091293699 -0.32209799 1.1013401 1258093820
-0.36995801 -0.334187 1.14817 1260297886
0.0122885 -0.31876701 1.10053 1258521475
0.0037503799 -0.31668901 1.09869 1258587268
-0.40257999 -0.296561 1.03385 1259771542
-0.39302999 -0.30575499 1.06591 1261284781
0.34872901 -0.277814 0.968566 1256909546
-0.39167601 -0.30643001 1.0735199 1261482160
-0.393482 -0.30160701 1.06714 1261087402
0.321179 -0.27205399 0.97230202 1258225406
-0.38899201 -0.300024 1.07762 1262205883
-0.36684901 -0.317927 1.14772 1260495265
-0.367861 -0.315568 1.15089 1260561058
-0.029358899 -0.30285299 1.11599 1259179405
0.35422799 -0.27488101 1.01294 1257172718
-0.39095899 -0.28984699 1.0792 1261613746
0.221158 -0.29534 1.09972 1261153195
-0.39107499 -0.288416 1.07952 1261350574
-0.347837 -0.29921401 1.1199501 1261218988
-0.34238899 -0.29824999 1.11634 1261021609
-0.34426099 -0.297052 1.11773 1260363679
-0.39248899 -0.285395 1.0795701 1261811125
-0.157607 -0.29217499 1.10525 1259179405
-0.057656299 -0.29226801 1.10561 1259574163
-0.054861899 -0.29260099 1.1068701 1259508370
-0.052077699 -0.29302901 1.10849 1259310991
0.0193862 -0.29073599 1.09982 1259376784
0.030791 -0.29107901 1.10112 1259574163
0.073339097 -0.29054099 1.09909 1259771542
-0.173812 -0.29145199 1.1084 1257304304
0.047762498 -0.28891301 1.09877 1258916233
-0.15813001 -0.29002601 1.10891 1258784647
0.17884 -0.283595 1.08435 1258850440
-0.28620601 -0.286154 1.1 1258916233
-0.171997 -0.285328 1.09684 1258982026
-0.0062221698 -0.28738099 1.10475 1258982026
0.045130201 -0.28714699 1.10385 1258653061
-0.37325999 -0.29615799 1.14464 1259310991
-0.31909901 -0.28478801 1.1007 1258982026
-0.26912001 -0.28457701 1.09988 1259442577
-0.260528 -0.28450701 1.09961 1259442577
-0.23775101 -0.284455 1.09942 1259771542
-0.22307301 -0.28385499 1.0971 1260034714
-0.162083 -0.28379801 1.09689 1260232093
-0.121868 -0.282572 1.09215 1260232093
-0.0190235 -0.285144 1.1021 1259442577
-0.0146612 -0.28342101 1.09544 1259639956
0.039369602 -0.285193 1.1023 1259376784
0.060703199 -0.28504699 1.10174 1259245198
0.085860498 -0.283503 1.09577 1259310991
0.102924 -0.28370401 1.09655 1259113612
0.108641 -0.28383499 1.09705 1259047819
-0.40005699 -0.277253 1.07741 1261547953
-0.33874401 -0.28541201 1.10913 1259310991
-0.29898199 -0.28304699 1.0999399 1259508370
-0.28431001 -0.28259099 1.09817 1259574163
-0.27995801 -0.28249499 1.0978 1259442577
-0.27230099 -0.28338301 1.1012501 1259968921
-0.25739199 -0.28263801 1.0983599 1260034714
-0.225425 -0.28348801 1.10166 1260561058
-0.056944001 -0.280992 1.09198 1260232093
0.110223 -0.28271499 1.0987 1259639956
0.117162 -0.28233099 1.0972 1259903128
0.129788 -0.28204 1.0960701 1259639956
0.180364 -0.28362599 1.10224 1258916233
-0.39412001 -0.276456 1.08022 1261613746
0.066257097 -0.281353 1.0994 1260363679
0.106053 -0.281407 1.09962 1261284781
-0.403474 -0.27313799 1.07911 1261021609
-0.401923 -0.26872101 1.06758 1261416367
-0.27808401 -0.27728301 1.1016099 1261218988
-0.054611601 -0.27733201 1.10183 1259771542
-0.074273102 -0.27478501 1.09784 1259442577
0.14675599 -0.27540699 1.10656 1260955816
0.15900201 -0.27681401 1.11222 1260363679
0.20023599 -0.276627 1.11778 1260561058
-0.40530601 -0.261621 1.06923 1261613746
-0.41073599 -0.25491601 1.04784 1260890023
-0.39738601 -0.261585 1.0815099 1261350574
-0.39742401 -0.26008999 1.08161 1261218988
0.161042 -0.259882 1.08716 1261811125
-0.408326 -0.255355 1.08087 1261021609
-0.398231 -0.26062801 1.1032 1260429472
-0.2879 -0.261408 1.10651 1261876918
-0.29778901 -0.258194 1.10607 1261021609
-0.13005801 -0.25717899 1.10174 1259310991
0.13236301 -0.258113 1.10576 1261153195
0.215523 -0.25341299 1.08564 1261547953
-0.39987701 -0.250754 1.08069 1261613746
-0.31619301 -0.256497 1.10545 1260955816
0.197552 -0.252226 1.08709 1261745332
0.21231 -0.253075 1.09075 1262929606
-0.40052199 -0.247253 1.07867 1261942711
-0.40765101 -0.24333701 1.06813 1261218988
-0.39419901 -0.25057399 1.09991 1262403262
-0.362717 -0.24985901 1.10358 1261021609
0.058396999 -0.251771 1.11207 1259771542
-0.401858 -0.243513 1.08226 1261547953
-0.312107 -0.24775299 1.10112 1260100507
0.032191001 -0.24756999 1.10034 1259376784
0.0480511 -0.248716 1.10543 1259113612
0.14708 -0.24796 1.10901 1260561058
-0.415488 -0.232453 1.04617 1261218988
0.19938301 -0.245517 1.10504 1261942711
-0.026251299 -0.244315 1.1066099 1258093820
0.0123233 -0.243673 1.1037 1257830648
0.0607302 -0.243347 1.10223 1258389889
0.085379802 -0.24460401 1.1079299 1258653061
-0.39867699 -0.242292 1.10444 1260429472
-0.36801499 -0.242777 1.10665 1259047819
-0.366689 -0.242845 1.1069601 1258916233
-0.344239 -0.24315301 1.1083699 1259047819
-0.30563 -0.2432 1.10858 1258718854
-0.253151 -0.24370299 1.11088 1258225406
-0.24241599 -0.24301501 1.1077501 1258521475
-0.233181 -0.243834 1.11148 1258093820
-0.23018 -0.243698 1.11086 1258389889
-0.19120499 -0.24341901 1.1095901 1258653061
-0.188355 -0.243441 1.1097 1258324096
-0.168458 -0.243698 1.11087 1258093820
-0.029023699 -0.242035 1.1033 1256909546
-0.0047819298 -0.24171899 1.10186 1258225406
0.18861599 -0.243257 1.1089 1259968921
-0.40265399 -0.23555499 1.08064 1261153195
-0.37471199 -0.241851 1.10954 1258521475
-0.36801901 -0.24122401 1.10666 1258093820
-0.35139099 -0.24158899 1.10834 1258389889
-0.34994501 -0.241579 1.10829 1258093820
-0.335794 -0.24170201 1.10886 1258225406
-0.32432199 -0.241694 1.10882 1258324096
-0.295948 -0.241924 1.10988 1257699062
-0.27851 -0.241726 1.10897 1258093820
-0.224288 -0.241974 1.1101201 1257304304
-0.194122 -0.24192201 1.10988 1257304304
-0.0404827 -0.240806 1.1047699 1256383202
0.202197 -0.235811 1.08188 1260100507
0.176671 -0.23948599 1.10587 1258225406
0.204983 -0.23427901 1.08183 1259376784
-0.402006 -0.231341 1.0751801 1261482160
-0.39952901 -0.238998 1.11077 1259508370
0.248739 -0.235811 1.09602 1262534848
-0.40368 -0.23158599 1.0834 1260429472
-0.23418599 -0.237148 1.10944 1256514788
-0.231305 -0.23713499 1.10938 1256646374
-0.146431 -0.236652 1.1071301 1256251616
-0.070586704 -0.236569 1.10675 1255856858
-0.0577926 -0.236882 1.10821 1256383202
-0.0434465 -0.236737 1.10753 1256777960
0.20894 -0.234107 1.09525 1258916233
-0.371429 -0.23535 1.1083 1257567476
-0.36999801 -0.235351 1.1083 1257830648
-0.36441201 -0.235443 1.10874 1257962234
-0.313041 -0.235596 1.10946 1257830648
-0.26565501 -0.23552801 1.1091501 1257830648
-0.242558 -0.235367 1.10839 1257567476
-0.205257 -0.235294 1.10805 1257699062
-0.203842 -0.235314 1.10815 1257567476
-0.195208 -0.23526201 1.1079 1257830648
-0.17357001 -0.23503999 1.10686 1257962234
-0.1664 -0.23501199 1.10673 1258455682
-0.15637501 -0.234991 1.10663 1257830648
-0.113411 -0.234853 1.10598 1257567476
-0.094871297 -0.23494799 1.1064399 1257699062
-0.070585802 -0.23501 1.10673 1257830648
0.030896399 -0.234622 1.10491 1258225406
0.0337396 -0.23453701 1.1045099 1257699062
0.072310798 -0.23466 1.10509 1257304304
0.077901199 -0.234294 1.10337 1257172718
0.096462898 -0.23436201 1.10369 1257304304
0.097792499 -0.23413 1.1026 1257435890
0.104906 -0.234107 1.1024899 1257699062
-0.39168099 -0.234771 1.11294 1260363679
-0.360351 -0.234038 1.10946 1259113612
-0.35609201 -0.234065 1.1095999 1259179405
-0.34178001 -0.234083 1.1096801 1258982026
-0.29032201 -0.23421299 1.1102999 1259245198
-0.28597701 -0.23418 1.11015 1258916233
-0.267234 -0.234097 1.10975 1258982026
-0.265811 -0.234106 1.1098 1258982026
-0.21246301 -0.233788 1.1083 1258982026
-0.208129 -0.23374601 1.1081001 1259179405
-0.176448 -0.23350701 1.1069601 1259047819
-0.15491299 -0.23338699 1.1064 1259047819
-0.14057501 -0.233318 1.10607 1259179405
-0.127766 -0.23341601 1.10654 1259310991
-0.120608 -0.233399 1.10646 1259508370
-0.11483 -0.233279 1.10589 1259376784
-0.107673 -0.233252 1.10577 1259113612
-0.101991 -0.233327 1.10612 1259442577
-0.0948641 -0.233376 1.1063499 1259508370
-0.046301801 -0.23359001 1.10737 1259179405
0.00947819 -0.232991 1.10454 1259442577
0.0763864 -0.232472 1.10209 1258587268
0.082068898 -0.23243301 1.1019 1258653061
0.090927497 -0.233245 1.10575 1259047819
0.097751901 -0.232484 1.10215 1258850440
0.112182 -0.232876 1.104 1258982026
0.133343 -0.232464 1.1020499 1259047819
0.139029 -0.232447 1.10198 1259245198
0.153193 -0.232333 1.10144 1259442577
-0.389752 -0.232914 1.11154 1260758437
-0.37177399 -0.23244999 1.1093301 1259639956
-0.31593299 -0.23249599 1.10955 1259639956
-0.103379 -0.231682 1.10569 1260166300
0.137419 -0.23058499 1.10048 1260034714
0.154448 -0.230534 1.10024 1260297886
0.18211401 -0.23136801 1.10422 1260429472
0.18638401 -0.231355 1.10416 1260429472
0.193073 -0.230823 1.10162 1260429472
0.200507 -0.227945 1.08788 1259903128
0.202061 -0.22653501 1.0811501 1260232093
-0.42534801 -0.21726 1.04382 1260824230
-0.41279799 -0.22361 1.07434 1261087402
-0.23992901 -0.230919 1.10948 1260232093
-0.22839899 -0.230858 1.10918 1260034714
-0.274533 -0.229526 1.11028 1260232093
0.15494999 -0.226099 1.09374 1261284781
0.21565001 -0.226026 1.0934 1262074297
0.23711 -0.230407 1.1145999 1261745332
0.350732 -0.213642 1.0335 1257567476
0.187272 -0.224343 1.09268 1261482160
0.19535001 -0.223892 1.09048 1261284781
-0.41318101 -0.219284 1.07534 1261416367
0.138494 -0.226156 1.1091 1260955816
0.14047401 -0.22704101 1.11344 1260890023
-0.222905 -0.22486299 1.1103801 1260429472
0.11064 -0.223333 1.10285 1260824230
0.226466 -0.22940999 1.1408 1261745332
0.241421 -0.224132 1.11455 1262271676
-0.42732799 -0.20810799 1.04207 1260561058
-0.42214501 -0.207931 1.0560499 1261547953
-0.41703999 -0.210867 1.0709701 1261745332
-0.41738099 -0.212449 1.07901 1261284781
-0.40640101 -0.211092 1.0721101 1262074297
-0.404764 -0.210961 1.07145 1261679539
0.244642 -0.217177 1.10309 1262863813
-0.424458 -0.200957 1.0584199 1261745332
-0.39298001 -0.20814601 1.10447 1261087402
-0.40740001 -0.19734199 1.0711 1261350574
-0.419249 -0.19191501 1.06603 1261942711
-0.42339 -0.185592 1.0390199 1260955816
0.210807 -0.19216301 1.0758801 1262271676
-0.41222501 -0.189015 1.0837801 1260692644
-0.043272201 -0.190828 1.1030999 1258982026
-0.022296799 -0.194333 1.1233701 1256120030
-0.0121047 -0.193837 1.1205 1258784647
-0.43493399 -0.17862 1.04094 1259639956
-0.42174599 -0.183411 1.0688699 1261218988
-0.050505899 -0.189678 1.10544 1259837335
-0.42482099 -0.17631 1.03596 1261679539
-0.41150701 -0.18226799 1.07098 1262205883
0.250357 -0.188806 1.10948 1262074297
-0.433384 -0.175611 1.04045 1260824230
-0.42413899 -0.18025 1.06794 1262205883
-0.42388999 -0.175643 1.06731 1261679539
-0.049528498 -0.182007 1.1155601 1257567476
-0.42622101 -0.167597 1.03611 1261811125
-0.42506099 -0.174825 1.08081 1261876918
0.247822 -0.179168 1.11744 1262074297
-0.110006 -0.17955001 1.1296901 1260232093
-0.058187701 -0.173059 1.08885 1260100507
-0.43694299 -0.16373301 1.03932 1260100507
-0.42400301 -0.167642 1.06414 1261613746
-0.065226898 -0.181743 1.16409 1260495265
-0.030759601 -0.173998 1.11448 1256777960
-0.43765101 -0.161072 1.041 1260034714
-0.0351048 -0.172554 1.11527 1258850440
-0.010421 -0.168038 1.09604 1259771542
-0.437709 -0.158167 1.04114 1260890023
-0.41537899 -0.162589 1.07026 1262074297
-0.43793401 -0.154844 1.03848 1260297886
-0.056917898 -0.16686 1.11913 1259574163
-0.43533301 -0.153329 1.05825 1262074297
-0.416682 -0.15202899 1.07005 1261547953
-0.43101001 -0.14556099 1.03475 1261679539
-0.42986199 -0.151761 1.07884 1261679539
-0.45689699 -0.146228 1.06069 1258784647
-0.427158 -0.144878 1.06173 1261811125
-0.42104101 -0.146568 1.07412 1262337469
0.364575 -0.14044701 1.06217 1257435890
-0.432201 -0.141 1.07771 1261876918
0.37189001 -0.146145 1.1171401 1257435890
0.36596 -0.13895901 1.0622 1255462100
-0.428819 -0.13707 1.05905 1262008504
-0.43363899 -0.13994899 1.0813 1262008504
0.206287 -0.141867 1.09619 1262074297
-0.056113999 -0.134436 1.05014 1260890023
-0.43320799 -0.13677301 1.08023 1262337469
-0.022062499 -0.140743 1.11164 1260626851
0.0039067799 -0.145165 1.14657 1260626851
-0.430296 -0.131567 1.0627 1261284781
-0.42350301 -0.132882 1.07332 1262205883
-0.339176 -0.13464101 1.08754 1260626851
-0.055268802 -0.138041 1.1150399 1260692644
0.042702001 -0.136465 1.11498 1260166300
0.059863798 -0.13617601 1.11263 1260363679
0.164406 -0.137036 1.11966 1259508370
-0.33936301 -0.13501 1.11587 1259245198
-0.330677 -0.13383 1.10612 1258982026
-0.309917 -0.13289601 1.0984 1260100507
-0.30000001 -0.133536 1.10368 1259968921
-0.27401301 -0.13269199 1.09671 1260034714
-0.13667201 -0.13419899 1.10919 1260166300
-0.073792502 -0.13453101 1.11194 1259903128
-0.072352603 -0.134525 1.11189 1259968921
-0.036509 -0.13479801 1.11415 1259968921
-0.032157801 -0.134663 1.11303 1260034714
0.00092026399 -0.13462199 1.1127 1259771542
0.016706301 -0.134386 1.11075 1259705749
0.0297201 -0.134827 1.11439 1259310991
0.127785 -0.134984 1.11571 1259771542
0.14717899 -0.13426299 1.10975 1259771542
0.16948999 -0.134903 1.1150399 1259574163
0.203486 -0.135474 1.1197701 1260824230
-0.43049499 -0.12673999 1.05981 1261679539
-0.43374899 -0.12851501 1.07465 1261547953
-0.0164384 -0.133911 1.11983 1258455682
0.0124644 -0.133514 1.11652 1258784647
0.26761001 -0.13128699 1.09791 1263126985
-0.444453 -0.12231 1.03492 1259968921
-0.107991 -0.131061 1.10902 1259047819
-0.066541299 -0.131273 1.1108201 1259245198
-0.033645701 -0.13172799 1.11467 1259508370
0.25897399 -0.12968101 1.0973901 1262205883
-0.33721799 -0.13059101 1.11832 1258850440
-0.19961201 -0.129443 1.1085 1259837335
-0.19728801 -0.129798 1.11155 1260166300
-0.190613 -0.129169 1.10616 1259837335
-0.131868 -0.12902901 1.10497 1259245198
-0.116774 -0.1266 1.08416 1259442577
-0.0951913 -0.12771299 1.0937001 1259047819
-0.069415003 -0.12971701 1.11086 1259574163
-0.063016199 -0.128381 1.09942 1259376784
0.0356002 -0.13057099 1.1181901 1258455682
0.14746401 -0.12983599 1.11191 1259442577
0.259927 -0.12791 1.09543 1263192778
-0.43812999 -0.1195 1.03578 1262074297
-0.0033726499 -0.12763 1.10632 1258587268
0.13521899 -0.13032 1.12965 1259968921
0.207039 -0.12868901 1.11552 1258982026
-0.34539199 -0.126735 1.11207 1259508370
0.020953801 -0.12622701 1.10765 1259245198
0.0252543 -0.126261 1.10795 1259376784
-0.425466 -0.120583 1.07128 1262271676
-0.24157 -0.124986 1.11043 1260561058
0.091688901 -0.123555 1.0977499 1260692644
-0.23502199 -0.123003 1.10662 1260824230
0.0293229 -0.1222 1.09943 1260955816
0.095624298 -0.123432 1.11053 1261087402
0.107675 -0.124091 1.11646 1261350574
-0.364566 -0.122695 1.11799 1260429472
-0.28064799 -0.122011 1.11176 1261416367
-0.27307299 -0.121836 1.11017 1261153195
-0.172442 -0.120683 1.09966 1260955816
0.017910101 -0.120328 1.09646 1260429472
0.036684498 -0.121514 1.10726 1261482160
0.0453449 -0.121719 1.10913 1261284781
0.0897137 -0.121639 1.10841 1261284781
0.092524402 -0.121569 1.10777 1261482160
0.128811 -0.123423 1.12467 1261482160
-0.38171601 -0.121525 1.12169 1260758437
-0.305935 -0.119223 1.11491 1261876918
-0.237334 -0.118777 1.11075 1262140090
-0.330928 -0.117835 1.1166 1262074297
0.18739 -0.118049 1.11869 1262008504
0.28597599 -0.115825 1.09763 1260429472
-0.312022 -0.11621 1.11607 1262008504
-0.44455299 -0.107956 1.0509599 1261350574
-0.43413001 -0.108405 1.05533 1262534848
-0.425937 -0.109453 1.0655299 1262929606
0.264678 -0.114572 1.11546 1261811125
-0.43500501 -0.106802 1.05414 1262600641
-0.378025 -0.113839 1.1236399 1261613746
-0.436681 -0.104053 1.07162 1262534848
-0.448378 -0.098722301 1.0316401 1259968921
-0.42905399 -0.099052802 1.06643 1262995399
-0.446621 -0.0959993 1.04943 1261350574
-0.42848501 -0.095927797 1.06502 1262798020
-0.42750901 -0.096017502 1.06602 1262205883
0.177536 -0.101733 1.12958 1262205883
-0.450863 -0.0919789 1.03736 1261547953
-0.44894999 -0.092051402 1.0549001 1261942711
-0.43673599 -0.092062697 1.05503 1261745332
-0.44067401 -0.093769901 1.07461 1262008504
-0.42855299 -0.088457003 1.06519 1261811125
-0.439704 -0.086987302 1.0655299 1261284781
-0.439657 -0.087251097 1.06876 1261679539
-0.438043 -0.084637299 1.0549001 1261547953
-0.44016299 -0.085578904 1.06664 1261547953
-0.42923999 -0.085325599 1.06348 1262271676
-0.42743799 -0.087595202 1.13144 1261811125
-0.42426401 -0.087543897 1.13078 1261745332
0.108143 -0.086806402 1.12132 1260890023
-0.42398199 -0.085897401 1.13002 1260955816
-0.423814 -0.086159997 1.13348 1261087402
0.104535 -0.084654503 1.11374 1260495265
0.101041 -0.083772898 1.1229 1261350574
0.102253 -0.083577402 1.12028 1260955816
-0.45454699 -0.074208297 1.03354 1260429472
0.106508 -0.078235202 1.08973 1260034714
-0.45576599 -0.072736897 1.03328 1259968921
0.10581 -0.075680003 1.09709 1260232093
-0.173944 -0.075259902 1.1373301 1260363679
-0.452241 -0.068002902 1.04989 1261876918
-0.163525 -0.073601998 1.13641 1258225406
-0.44644701 -0.067914799 1.0718 1261416367
0.170077 -0.074041396 1.16862 1262205883
0.176523 -0.0735811 1.16135 1262403262
0.26282501 -0.071741998 1.13232 1262732227
0.0541563 -0.070875101 1.14399 1260297886
0.17180599 -0.072491303 1.17011 1261811125
0.0511031 -0.069136001 1.14182 1260363679
0.265661 -0.0689153 1.1382101 1263061192
0.20111001 -0.068882197 1.1647 1262205883
0.28441399 -0.0655367 1.10812 1262798020
-0.45828599 -0.059646301 1.03294 1260297886
-0.457564 -0.059726201 1.03432 1261021609
0.286138 -0.0634095 1.09825 1262732227
-0.45732999 -0.056789599 1.03379 1261876918
-0.43436399 -0.058185499 1.05922 1262732227
-0.28728399 -0.063816503 1.16181 1260297886
-0.267158 -0.064573698 1.20649 1259837335
-0.101797 -0.062592298 1.16948 1260495265
0.028140699 -0.062549397 1.1687 1260232093
0.26137599 -0.059934098 1.11984 1263587536
-0.445389 -0.060209598 1.1552401 1262666434
-0.43689099 -0.060272899 1.15646 1262271676
-0.41965801 -0.0601587 1.1542701 1262469055
-0.15241399 -0.058434799 1.15231 1259771542
-0.45964 -0.0507898 1.02999 1259837335
-0.36497101 -0.059421301 1.20515 1260890023
0.244186 -0.0565942 1.14788 1262600641
0.216004 -0.041079901 0.83305198 1262995399
-0.46020901 -0.055505302 1.15873 1261876918
-0.396231 -0.054938901 1.1469001 1260758437
0.178046 -0.055167999 1.15178 1260626851
0.18162701 -0.0549009 1.1461999 1260692644
0.196006 -0.054779999 1.14368 1260561058
-0.45401299 -0.048573401 1.0446 1261876918
-0.30953199 -0.053199001 1.14417 1260166300
-0.30648699 -0.056159701 1.20788 1259376784
0.16511101 -0.053698599 1.15499 1259376784
0.18184499 -0.053353801 1.14757 1259771542
0.187811 -0.053363498 1.14779 1259705749
-0.43861601 -0.047929101 1.0628901 1263324364
-0.42799899 -0.051436599 1.14073 1260034714
-0.426741 -0.051462598 1.1413 1259903128
-0.400397 -0.051112201 1.13353 1259574163
-0.36263499 -0.051573601 1.14378 1259310991
-0.33101499 -0.051713299 1.14688 1259508370
-0.30963799 -0.051608302 1.14456 1259442577
-0.26840201 -0.051927801 1.15165 1258784647
-0.26141599 -0.051723599 1.14712 1258587268
-0.205219 -0.052901398 1.17327 1258389889
-0.199678 -0.052245799 1.15872 1258784647
-0.097433202 -0.052014999 1.15361 1258718854
0.0147447 -0.0534066 1.18451 1258521475
0.0251323 -0.052718598 1.16925 1258389889
0.098563701 -0.051612701 1.14472 1258653061
0.14160299 -0.0516656 1.1459 1258784647
0.16789301 -0.051554602 1.14344 1259245198
0.186767 -0.051462699 1.1414 1259047819
0.201682 -0.0515051 1.14235 1258916233
0.21373101 -0.0515632 1.14364 1259047819
0.21659601 -0.051541701 1.14316 1259113612
0.21808 -0.0515434 1.1432 1259113612
0.241749 -0.051237501 1.13642 1260363679
0.25222501 -0.051277701 1.13731 1260561058
0.25503701 -0.051252201 1.13674 1260692644
-0.43841499 -0.046413898 1.0624 1262929606
-0.43840399 -0.046558399 1.0657099 1262008504
-0.420973 -0.0497001 1.1376801 1258916233
-0.419561 -0.049706802 1.13783 1258916233
-0.40718701 -0.0496324 1.13613 1258850440
-0.40571001 -0.049631201 1.1361001 1259047819
-0.284787 -0.050575901 1.15776 1258455682
-0.0232093 -0.051065601 1.1690201 1258389889
0.225324 -0.0499052 1.14248 1258324096
0.240622 -0.0497109 1.1380301 1258850440
0.26000801 -0.050045799 1.14571 1259508370
-0.45100701 -0.0438504 1.07276 1262271676
-0.455924 -0.0411609 1.0427999 1261547953
-0.45852199 -0.0458639 1.16204 1258982026
0.076793499 -0.045423899 1.15097 1257699062
0.14506599 -0.045380399 1.1498801 1258389889
0.199991 -0.045368999 1.1496 1258324096
0.22955699 -0.045340799 1.14889 1258718854
-0.443369 -0.0396569 1.04179 1262403262
-0.133527 -0.0435265 1.14358 1257699062
-0.117297 -0.043535501 1.14382 1257830648
-0.112779 -0.043503001 1.14297 1257962234
-0.093705602 -0.0435616 1.14451 1258587268
-0.086353503 -0.043582998 1.14507 1257962234
-0.078917101 -0.0435616 1.14452 1258093820
-0.055343799 -0.0436312 1.14635 1258389889
-0.046421099 -0.043598302 1.14548 1258389889
-0.0227495 -0.043617699 1.146 1258455682
-0.0212765 -0.043633301 1.14641 1258850440
-0.0094175003 -0.043595199 1.1454099 1258389889
0.0024195299 -0.043535601 1.14384 1258587268
0.055866402 -0.043722901 1.14878 1258850440
0.058852199 -0.0437355 1.14911 1258587268
0.10889 -0.043557201 1.14443 1258587268
0.136031 -0.043725502 1.14886 1259179405
0.17136399 -0.0436505 1.1469001 1258982026
0.175936 -0.0436817 1.14772 1258982026
0.22965001 -0.0437437 1.1493599 1259310991
0.235816 -0.043785501 1.15046 1259376784
0.23892 -0.043809701 1.15109 1259574163
0.25420401 -0.0436248 1.14624 1261021609
-0.44047701 -0.041464999 1.13113 1259903128
-0.43825799 -0.0419516 1.14442 1259968921
-0.43147799 -0.041867901 1.14213 1258718854
-0.39782101 -0.041898102 1.14296 1258653061
-0.23377 -0.0418767 1.14241 1258653061
-0.194243 -0.0419476 1.1443501 1258784647
-0.179276 -0.041905601 1.1432101 1258850440
-0.161461 -0.0418825 1.14258 1258850440
-0.117252 -0.041912101 1.1433901 1258982026
-0.109957 -0.041946799 1.14434 1258916233
-0.107029 -0.041958299 1.14466 1258916233
-0.084881403 -0.041976999 1.14517 1259179405
-0.068573102 -0.0419579 1.14465 1259442577
-0.058236599 -0.041969899 1.14498 1259310991
-0.046381298 -0.041952301 1.1445 1259310991
0.049882099 -0.042068601 1.1477 1259442577
0.052836299 -0.042059101 1.14744 1259771542
0.069248199 -0.042121898 1.14915 1259837335
0.106146 -0.042033199 1.14674 1259639956
0.133054 -0.0421082 1.14879 1259837335
0.16148899 -0.042168502 1.15044 1260100507
0.167556 -0.042199101 1.15128 1260232093
0.24323399 -0.042166099 1.15039 1260429472
-0.44920301 -0.036764901 1.04283 1262995399
-0.419925 -0.040286802 1.14282 1259903128
-0.37173501 -0.040345401 1.14449 1259771542
-0.36236399 -0.040290099 1.14292 1259705749
-0.33739999 -0.040307 1.14341 1259574163
-0.33177301 -0.0403414 1.14439 1259771542
-0.32756299 -0.040369201 1.14518 1259639956
-0.318546 -0.0403517 1.14468 1259639956
-0.29483399 -0.040345099 1.1445 1259442577
-0.26836601 -0.040367998 1.1451499 1259705749
-0.222186 -0.040311899 1.1435699 1259903128
-0.217484 -0.040261999 1.1421601 1259771542
-0.183743 -0.040306501 1.14342 1259968921
-0.15423501 -0.040317301 1.14373 1259837335
-0.145766 -0.0404277 1.14687 1259968921
-0.0863574 -0.0403658 1.14512 1260232093
-0.0819166 -0.040364899 1.1451 1260232093
0.063302599 -0.040502701 1.14904 1260824230
0.101939 -0.040516399 1.14943 1260561058
0.20052899 -0.040934902 1.16133 1261087402
-0.45796999 -0.033883899 1.04439 1261745332
-0.45159701 -0.034742199 1.07087 1262534848
-0.067964703 -0.037611801 1.15947 1261416367
-0.039420702 -0.0375375 1.15719 1261350574
0.27092201 -0.033259101 1.07172 1263126985
-0.462962 -0.030477701 1.0285 1260232093
-0.457551 -0.0308288 1.04037 1261218988
-0.44420201 -0.030835399 1.04059 1262271676
-0.38588199 -0.036355302 1.22707 1261153195
0.0474579 -0.0343966 1.16099 1261547953
-0.44048899 -0.0299423 1.0607899 1262271676
-0.29466599 -0.035877898 1.27133 1260692644
-0.29286501 -0.035858601 1.27064 1260824230
-0.133977 -0.0334934 1.18679 1261284781
-0.421112 -0.0290039 1.0814199 1261350574
-0.46386099 -0.0261165 1.02755 1259837335
-0.44643 -0.02658 1.04581 1261416367
0.2269 -0.0292334 1.15048 1260955816
-0.44857201 -0.0252304 1.05082 1261547953
-0.44958299 -0.0253639 1.05639 1261416367
-0.44090101 -0.025413999 1.05848 1262469055
-0.458882 -0.0220544 1.0403399 1261350574
-0.44117999 -0.0224526 1.05915 1262140090
0.24696299 -0.0221649 1.1201 1261942711
-0.45207599 -0.019532099 1.06224 1262271676
-0.440714 -0.0194548 1.05804 1261482160
0.26480901 -0.0215721 1.17356 1262074297
0.24999601 -0.020072499 1.18239 1260166300
-0.45959499 -0.0160894 1.0328799 1261482160
-0.44088501 -0.016435999 1.0551701 1262205883
0.248321 -0.017537899 1.12626 1262140090
-0.46122101 -0.011844 1.04258 1262205883
-0.47694099 -0.01034 1.03868 1259113612
-0.454303 -0.0101057 1.01509 1261679539
-0.46466199 -0.00733248 1.0263799 1261876918
-0.466452 -0.0058790399 1.02449 1260429472
0.279149 -0.0064298902 1.12149 1261876918
-0.46812299 -0.0044422802 1.02525 1259968921
-0.45227599 -0.00452164 1.04371 1262534848
0.20419499 -0.0050789299 1.17379 1260495265
0.228067 -0.00333539 1.14143 1259968921
-0.46682301 -0.0015602401 1.0253 1261021609
-0.453659 -0.00153843 1.01074 1261547953
-0.42809001 -0.00172101 1.13316 1262008504
-0.44470799 -0.000121497 1.05454 1263061192
-0.44486099 0.00136113 1.0549001 1262666434
0.218402 0.00149223 1.1526999 1260561058
0.29973501 0.00143859 1.11184 1262469055
-0.46718401 0.0027574201 1.02319 1260824230
-0.46257401 0.0027857199 1.0335701 1261153195
0.28225699 0.00460723 1.12233 1262140090
-0.45695299 0.0055893902 1.01515 1261416367
-0.45648801 0.0058185598 1.0565701 1261350574
-0.44541401 0.0072788298 1.05299 1262995399
0.30267 0.0080759097 1.1675299 1262337469
-0.45820099 0.0089020599 1.07013 1264048087
-0.46836501 0.0099172099 1.02001 1260166300
-0.46424699 0.015781101 1.0283999 1261350574
-0.44700101 0.0162169 1.05674 1261482160
-0.45658699 0.017545501 1.0474 1261613746
-0.45729399 0.017625 1.05214 1261613746
-0.457867 0.019127799 1.05346 1261745332
-0.46974799 0.0213298 1.01729 1260100507
-0.45721799 0.0219274 1.04575 1261745332
0.29149699 0.025160201 1.1244 1262271676
-0.0235884 0.028253701 1.1879801 1261153195
0.29260001 0.026576599 1.11752 1261942711
-0.45042899 0.0265746 1.0551701 1262600641
-0.44222301 0.029997399 1.19092 1261942711
0.29359299 0.0312404 1.1158 1262140090
-0.471921 0.031484202 1.022 1262140090
-0.46996599 0.031980399 1.03809 1261416367
-0.45076701 0.032531399 1.0559601 1261679539
-0.47322699 0.0342604 1.01912 1260363679
-0.46444201 0.035524402 1.01432 1262008504
-0.46260199 0.036948498 1.05494 1261416367
-0.459169 0.0397349 1.05021 1262666434
-0.452324 0.0413297 1.05323 1262140090
-0.46713701 0.044666 1.06215 1261613746
-0.47051099 0.047409799 1.02468 1260758437
0.29927 0.051862199 1.12087 1262205883
-0.47130901 0.051964499 1.02931 1260824230
0.216915 0.0574078 1.13709 1261087402
0.233114 0.058150899 1.1518 1261218988
0.234797 0.058199201 1.15276 1261218988
0.293293 0.056833599 1.12572 1261876918
-0.40066299 0.058221899 1.1219701 1261547953
0.185478 0.0570173 1.09878 1260495265
0.237902 0.0573343 1.10489 1260955816
0.29477799 0.058421802 1.1258399 1262403262
-0.46554199 0.053731602 1.00819 1261416367
-0.46298799 0.055616099 1.04353 1261218988
-0.40102899 0.059637699 1.11895 1261284781
-0.262297 0.057744201 1.0834399 1260692644
-0.22039001 0.058891099 1.10495 1260561058
-0.137942 0.059665501 1.11948 1260232093
-0.124478 0.060148802 1.12854 1260166300
-0.104852 0.059767999 1.1214 1260232093
-0.094167396 0.060348999 1.1323 1259837335
-0.0802439 0.0597868 1.12175 1260100507
-0.070875101 0.060448699 1.1341701 1259705749
-0.0443484 0.0602488 1.13042 1260034714
-0.038664699 0.060496699 1.13507 1259903128
-0.0092814099 0.060176902 1.12907 1260692644
0.090314701 0.059472099 1.11585 1260429472
0.094818197 0.0595842 1.11796 1259574163
0.128344 0.060407601 1.1334 1261482160
0.140228 0.060479902 1.13476 1261416367
-0.35143501 0.060636599 1.1084599 1259639956
-0.33904299 0.059222698 1.08263 1259771542
-0.305096 0.059150498 1.08131 1260297886
-0.240805 0.0612792 1.1202101 1260166300
-0.223377 0.0612633 1.11992 1260100507
-0.21455 0.060407899 1.10429 1260363679
-0.166954 0.061268698 1.12002 1260297886
-0.15813801 0.061217401 1.1190799 1260363679
-0.150379 0.061002899 1.11516 1260034714
-0.135093 0.0612587 1.11984 1259771542
-0.124653 0.061822001 1.1301301 1259508370
-0.083402298 0.0615547 1.12525 1260034714
-0.037323002 0.0623 1.13887 1259376784
0.058389299 0.062364999 1.1400501 1260429472
0.18646599 0.0623376 1.13956 1259310991
-0.168127 0.063284397 1.12788 1259639956
0.178739 0.065424703 1.16602 1259310991
-0.364393 0.064783201 1.12638 1259903128
-0.26436499 0.0648816 1.12809 1259376784
-0.262692 0.064828299 1.12716 1259771542
-0.25669599 0.065154798 1.13284 1259968921
-0.221442 0.065118901 1.13221 1260100507
0.0232805 0.066273198 1.15228 1259508370
0.184965 0.067135803 1.16728 1259376784
-0.47219399 0.060587998 1.02834 1261021609
-0.46443099 0.061317701 1.04072 1261811125
-0.46618 0.062088098 1.05379 1262074297
-0.206287 0.067015097 1.13738 1259771542
-0.161101 0.066562399 1.12971 1258718854
-0.157291 0.066804297 1.13381 1258916233
-0.151022 0.066624001 1.1307499 1259047819
-0.19147199 0.068571202 1.13668 1260100507
0.25811601 0.072320998 1.19883 1259705749
-0.473809 0.063696101 1.03186 1261613746
0.25237599 0.074139997 1.201 1259837335
-0.149397 0.073465601 1.1635799 1260692644
-0.036024898 0.072250597 1.1443501 1260100507
0.115213 0.073460698 1.16352 1260363679
-0.476583 0.068253502 1.03499 1261482160
-0.45614201 0.069005303 1.04638 1262863813
0.242241 0.082082599 1.24463 1259639956
0.24425299 0.080103397 1.21463 1259508370
-0.476372 0.069482297 1.03163 1261350574
-0.46639001 0.069984801 1.03909 1262140090
-0.46620101 0.070158496 1.04167 1261745332
0.30312401 0.077685103 1.12984 1262534848
-0.467143 0.073659897 1.04983 1261745332
0.29778999 0.079019703 1.12623 1262271676
-0.47809201 0.073698103 1.00993 1259968921
-0.47653601 0.073861398 1.01217 1261679539
-0.475059 0.074865296 1.02592 1260758437
0.24171001 0.084456302 1.15733 1260561058
0.149048 0.087879702 1.1814801 1261218988
0.30477399 0.084089696 1.13055 1262469055
-0.459095 0.079578102 1.05004 1262008504
0.212007 0.089696497 1.18354 1261350574
-0.46784499 0.0809246 1.04837 1261679539
0.070403598 0.0901893 1.16837 1260758437
-0.467437 0.082088798 1.04443 1261153195
-0.376876 0.0930501 1.18385 1261482160
-0.360881 0.091325499 1.16192 1261876918
-0.34018099 0.091411203 1.16301 1262008504
-0.33466199 0.091545902 1.1647201 1261613746
0.085018098 0.091312498 1.16177 1261679539
-0.367818 0.093577303 1.16965 1262337469
-0.33748701 0.0931319 1.16408 1262271676
-0.438225 0.096376799 1.14433 1261350574
0.25794399 0.101507 1.2052701 1261679539
-0.46080899 0.091187701 1.04777 1262271676
-0.48282099 0.089463703 1.0116301 1259705749
-0.46729499 0.091282703 1.03219 1262140090
-0.460163 0.092530698 1.0463001 1262140090
-0.52051699 0.107276 1.19401 1260890023
-0.19744401 0.104505 1.16319 1260495265
-0.14648999 0.103548 1.15255 1261021609
-0.46003899 0.098386496 1.04602 1261416367
-0.44021201 0.113969 1.19381 1262271676
0.309246 0.107955 1.13087 1262469055
-0.48620501 0.099574797 1.01323 1259376784
-0.46155101 0.105159 1.04029 1262732227
-0.45691001 0.113704 1.12481 1262140090
-0.48688701 0.104274 1.01739 1260890023
-0.47170001 0.107638 1.03601 1261153195
-0.45663899 0.116427 1.12058 1261942711
0.28387901 0.122964 1.18353 1260034714
0.304941 0.118544 1.12577 1262798020
-0.48795599 0.108218 1.01415 1259771542
-0.45671099 0.119218 1.11721 1262074297
0.32385099 0.119056 1.1157399 1262798020
0.292822 0.131281 1.21429 1260561058
-0.48916101 0.111045 1.01393 1259903128
-0.47270399 0.113383 1.03528 1261613746
-0.460583 0.123805 1.1161 1261942711
-0.075872801 0.12932301 1.1658601 1259968921
0.35970101 0.143692 1.2791899 1262929606
-0.486606 0.116448 1.01135 1261350574
-0.476827 0.120927 1.0502501 1261745332
-0.47336099 0.121169 1.03966 1261416367
-0.474051 0.12537999 1.03822 1261350574
-0.464241 0.125267 1.03729 1262798020
-0.47492799 0.126359 1.03429 1261679539
-0.47605899 0.129208 1.04558 1262205883
-0.46637899 0.12840299 1.03907 1262798020
-0.466104 0.131246 1.03845 1262995399
-0.490307 0.130257 1.0082099 1259837335
-0.486018 0.132642 1.02666 1262008504
-0.49403799 0.131975 1.01051 1259047819
0.30777299 0.15661301 1.19918 1262008504
-0.49031499 0.133094 1.00822 1260429472
-0.46600401 0.138514 1.0382299 1262205883
-0.49125299 0.135827 1.00748 1260232093
-0.47652999 0.14030799 1.04071 1261876918
0.32991999 0.152127 1.11676 1262666434
0.31345999 0.155554 1.13026 1262798020
-0.47757199 0.144844 1.03134 1261679539
-0.47736999 0.14726999 1.0280401 1261745332
-0.47880599 0.148956 1.0398099 1262008504
-0.48539799 0.146725 1.01428 1261153195
-0.478894 0.150024 1.0370899 1261153195
0.31327301 0.163399 1.12959 1261876918
-0.48708901 0.15112001 1.01508 1261021609
-0.49242201 0.15056799 1.00191 1259903128
0.33371699 0.167555 1.11499 1262798020
-0.485719 0.154719 1.00144 1262205883
-0.470548 0.160124 1.03642 1262337469
-0.339542 0.199478 1.27947 1261416367
-0.27979499 0.174357 1.1083699 1261153195
-0.495029 0.160431 1.00194 1259574163
-0.47125 0.165728 1.03502 1262534848
-0.30732501 0.174403 1.08921 1261284781
-0.33868399 0.203366 1.2700599 1260166300
-0.323809 0.19926301 1.24444 1260363679
-0.31873399 0.19712 1.23105 1260232093
-0.501342 0.163903 1.01472 1259574163
-0.49455801 0.162109 1.00361 1260890023
-0.45587301 0.209223 1.29526 1261153195
-0.35080999 0.19990499 1.2375799 1260890023
0.338929 0.18133999 1.12271 1262337469
-0.47181401 0.16836099 1.03333 1263061192
-0.201031 0.202189 1.24094 1260692644
-0.18061499 0.20822699 1.27799 1260626851
-0.116367 0.202749 1.24438 1260824230
-0.433514 0.198063 1.2052 1261284781
-0.41170701 0.19881301 1.20977 1261153195
-0.41156 0.19949999 1.21395 1261021609
0.0242978 0.211293 1.28573 1260692644
0.164516 0.19260401 1.17203 1260758437
0.33750001 0.183718 1.11798 1262534848
-0.471618 0.168807 1.01849 1262205883
-0.432107 0.198397 1.197 1261021609
-0.13460501 0.209604 1.26463 1260363679
-0.057250399 0.213631 1.2889301 1260824230
0.047588401 0.21324401 1.2866 1260232093
0.28158599 0.203339 1.22686 1262534848
-0.25423399 0.21031199 1.25822 1260495265
-0.47955799 0.172158 1.0213799 1261679539
0.232363 0.20813701 1.2348599 1260692644
0.32439399 0.190064 1.12766 1262008504
-0.479285 0.174454 1.02645 1261218988
0.114333 0.196234 1.1546201 1259442577
0.219791 0.211596 1.245 1259968921
0.239952 0.212354 1.24946 1260297886
-0.47895199 0.176263 1.02858 1262074297
0.138568 0.214615 1.2524 1259705749
0.27548799 0.215388 1.25692 1260955816
-0.47333199 0.178597 1.03372 1262403262
-0.40518099 0.204926 1.1861 1259837335
-0.40092599 0.208288 1.20556 1259574163
0.17618901 0.21686999 1.25527 1259508370
0.21050499 0.212218 1.22834 1258916233
0.32271901 0.218344 1.26381 1260495265
-0.49199399 0.174356 1.00104 1262271676
-0.45038199 0.215763 1.23874 1260100507
-0.40635201 0.21618301 1.24115 1259179405
-0.40210301 0.21648499 1.24289 1258850440
-0.39839801 0.21709201 1.24637 1258982026
-0.38159201 0.21222501 1.21843 1259113612
-0.070821002 0.220101 1.26367 1258718854
0.017095299 0.21681499 1.24481 1258850440
0.030340999 0.21956401 1.26059 1258587268
0.105375 0.216434 1.24263 1258653061
0.166622 0.216738 1.24438 1259442577
-0.48205 0.179773 1.02387 1261284781
-0.486173 0.182311 1.0383199 1261350574
-0.55768102 0.22069199 1.2568901 1260758437
-0.493249 0.21805599 1.2418801 1259837335
-0.491063 0.21779899 1.24041 1259837335
-0.47332299 0.21628401 1.2317899 1259574163
-0.28018001 0.219597 1.25067 1258982026
-0.27599499 0.218842 1.24637 1258784647
-0.109233 0.227046 1.2931 1258093820
-0.071310401 0.223407 1.27238 1258587268
-0.50080401 0.17846601 1.00836 1260758437
-0.48718399 0.184662 1.04336 1262008504
-0.47323999 0.18240599 1.03061 1262863813
-0.54391402 0.21952499 1.24031 1260100507
-0.51297897 0.212681 1.20165 1259903128
-0.50589699 0.215618 1.21824 1259179405
-0.49261501 0.216006 1.22044 1259113612
-0.470884 0.21984901 1.2421499 1259113612
-0.45204401 0.220054 1.24331 1259113612
-0.36844 0.21624701 1.22181 1258587268
-0.29454899 0.218824 1.23637 1258225406
-0.290658 0.22072101 1.24709 1257830648
-0.288344 0.22266699 1.25808 1258093820
0.32659599 0.198255 1.1202101 1262205883
-0.53484499 0.218869 1.22686 1259442577
-0.507249 0.213918 1.19911 1259179405
-0.50578302 0.220019 1.23331 1258389889
-0.49889499 0.217709 1.2203701 1258093820
-0.48448601 0.21832199 1.2237999 1257962234
0.243468 0.230822 1.29391 1258784647
0.275857 0.231345 1.29685 1259310991
0.31597799 0.235015 1.31742 1259639956
0.32704899 0.23199899 1.3005199 1259903128
0.32099599 0.20176999 1.13109 1261745332
-0.47245499 0.18499599 1.02891 1262074297
0.00103971 0.23134001 1.28666 1258093820
0.0778303 0.227391 1.2647099 1258718854
0.106677 0.23330501 1.2976 1258389889
0.120387 0.230657 1.2828799 1258324096
0.126184 0.23217499 1.29132 1258389889
0.131542 0.23280001 1.29479 1258455682
0.133407 0.233136 1.2966599 1258521475
0.15061501 0.22625899 1.25842 1258587268
0.182496 0.231645 1.28837 1258653061
0.186441 0.232412 1.29264 1258916233
0.191072 0.23399401 1.30144 1259113612
0.192968 0.234254 1.30288 1259442577
0.19608399 0.233955 1.3012201 1259113612
0.205496 0.231299 1.28645 1259245198
0.26179299 0.232582 1.2935899 1259837335
0.26395801 0.233018 1.29601 1259903128
0.266027 0.233364 1.29794 1259903128
0.26763901 0.233307 1.2976201 1259705749
0.27443099 0.23338 1.29803 1259968921
-0.50708401 0.183576 1.01309 1259245198
-0.195539 0.22408301 1.23663 1257699062
-0.119497 0.228392 1.26041 1258093820
-0.11625 0.228411 1.26051 1258455682
-0.112828 0.22808 1.25869 1258455682
-0.026754299 0.22915 1.2646 1258587268
0.0384137 0.227997 1.25824 1258916233
0.048181601 0.228058 1.25858 1258850440
0.053300198 0.229093 1.26429 1258982026
0.090652898 0.23272701 1.28434 1259376784
0.12518799 0.235257 1.29831 1259574163
0.13026901 0.23534501 1.29879 1259639956
0.13777199 0.233835 1.29046 1259245198
0.174594 0.23628099 1.30396 1259310991
0.249625 0.23553699 1.29986 1260561058
-0.471753 0.187609 1.02738 1262008504
-0.51430601 0.217373 1.1903501 1259376784
-0.093607299 0.23057701 1.2626801 1259574163
-0.085508801 0.230736 1.26355 1259047819
-0.062320001 0.22951999 1.2568901 1259179405
-0.0607583 0.229755 1.25818 1259245198
-0.0462594 0.230415 1.26179 1259245198
-0.00061142701 0.231492 1.2676899 1259639956
0.035334598 0.23089699 1.26443 1259968921
0.109068 0.23487701 1.28623 1260166300
-0.083934903 0.232675 1.26443 1260166300
-0.018699899 0.234146 1.2724299 1260495265
-0.0154106 0.23413 1.2723401 1260363679
-0.13418201 0.23095299 1.2455601 1260495265
-0.131391 0.23170599 1.24962 1260824230
0.32894 0.210125 1.13328 1262205883
-0.49233001 0.18714701 1.00172 1261218988
-0.124175 0.268455 1.42617 1261218988
0.138732 0.232348 1.22524 1259508370
-0.50542802 0.192416 1.00718 1259837335
-0.45227501 0.20551801 1.07577 1261021609
0.134618 0.235181 1.23106 1259179405
0.144618 0.233348 1.22147 1259179405
0.146018 0.233063 1.21997 1259508370
0.32196501 0.236653 1.22973 1261942711
-0.50400901 0.19520099 1.00695 1261087402
-0.47372001 0.198873 1.02589 1262271676
0.114484 0.233261 1.2033 1259310991
-0.44870099 0.209895 1.06727 1261350574
-0.50423002 0.199535 1.00739 1262140090
0.351491 0.228983 1.13994 1262863813
-0.49302801 0.241676 1.19469 1260692644
0.0934643 0.22992601 1.13666 1259574163
0.093748301 0.23222899 1.14012 1258718854
-0.50400102 0.20546 1.00176 1260890023
-0.48285201 0.21005601 1.0172 1260890023
-0.475164 0.21072701 1.02045 1262666434
0.088140301 0.22852001 1.10664 1259508370
0.14570899 0.25869501 1.24428 1258916233
0.315474 0.21092699 1.01457 1262205883
-0.48190799 0.21307901 1.01798 1262469055
0.082869299 0.221351 1.0575401 1259837335
0.146933 0.27037001 1.28309 1259113612
-0.50869101 0.21229701 1.0008 1259310991
0.32676101 0.24037801 1.12577 1261942711
-0.495437 0.211659 0.98474503 1262337469
-0.476702 0.220043 1.0237499 1261416367
0.123317 0.27667299 1.27888 1258982026
-0.48571101 0.221599 1.01768 1260890023
-0.459622 0.241767 1.1102901 1261482160
-0.48712701 0.22757 1.01243 1260890023
0.31589901 0.27665901 1.23085 1262205883
-0.48537201 0.228782 1.01149 1260232093
-0.466748 0.250357 1.10004 1261613746
-0.48804 0.23165201 1.01161 1260626851
-0.51024598 0.22953799 0.99626201 1259705749
-0.47874799 0.237794 1.01965 1261284781
-0.46763 0.25936601 1.10548 1261416367
-0.478073 0.243276 1.01265 1262205883
-0.50157899 0.239676 0.99185503 1261876918
-0.50709599 0.240041 0.98762202 1260955816
-0.49450001 0.24713901 1.01682 1261416367
-0.50743002 0.240982 0.98579198 1260232093
-0.50710797 0.24437 0.982701 1260232093
