# .PCD v0.7 - Point Cloud Data file format
VERSION 0.7
FIELDS x y z rgb
SIZE 4 4 4 4
TYPE F F F U
COUNT 1 1 1 1
WIDTH 1153
HEIGHT 1
VIEWPOINT 0 0 0 1 0 0 0
POINTS 1153
DATA ascii
-0.374937 -0.30568999 1.11384 1259837335
0.020839401 -0.29212099 1.07491 1259508370
0.0334334 -0.293383 1.08061 1259639956
0.38808399 -0.248831 0.91286999 1262732227
-0.49185699 -0.31597301 1.15969 1260561058
-0.47655901 -0.31698701 1.16453 1260363679
-0.242119 -0.28989401 1.0625401 1259639956
-0.130789 -0.279926 1.02609 1259574163
-0.11823 -0.28195599 1.035 1259903128
-0.106582 -0.28687599 1.05583 1258982026
0.038169201 -0.288039 1.06679 1259310991
0.22370499 -0.250462 0.91941798 1257172718
-0.47579399 -0.31439501 1.16255 1259310991
-0.25256199 -0.29163399 1.07734 1258916233
-0.223417 -0.30370599 1.12885 1259179405
-0.079674199 -0.27615201 1.02028 1259179405
0.057000399 -0.277307 1.0309401 1258455682
0.096427001 -0.27392101 1.01853 1257172718
0.124393 -0.27584699 1.02774 1256777960
-0.32104701 -0.29703799 1.10523 1257830648
-0.30735901 -0.29453799 1.09534 1258225406
-0.210962 -0.29281801 1.09227 1257041132
-0.20763201 -0.297869 1.11359 1257699062
-0.190872 -0.292229 1.09067 1257435890
-0.18412501 -0.290216 1.08251 1257699062
-0.033030398 -0.277316 1.03491 1257962234
-0.00403162 -0.28130201 1.0528899 1258389889
0.00121668 -0.28277001 1.05927 1258389889
0.102833 -0.271404 1.01596 1256251616
0.17431299 -0.26171499 0.97839099 1256251616
0.203591 -0.254915 0.95112097 1255988444
0.257052 -0.25076699 0.93602997 1257435890
0.32953501 -0.23254 0.86268997 1259442577
-0.72955799 -0.33378899 1.25133 1260166300
-0.68003398 -0.32980901 1.23665 1260429472
-0.67479098 -0.32925901 1.23455 1260363679
-0.669756 -0.32879299 1.2328 1260297886
-0.56887001 -0.32016501 1.2007101 1259508370
-0.54672903 -0.317734 1.19139 1258982026
-0.53433698 -0.31730899 1.19013 1259047819
-0.52123702 -0.31541699 1.1827 1259047819
-0.51140702 -0.31315199 1.17356 1258982026
-0.48896399 -0.31011 1.16167 1257699062
-0.44433799 -0.30701101 1.1505001 1257567476
-0.426815 -0.30535701 1.1442699 1257304304
-0.38877699 -0.30218899 1.13252 1255988444
-0.36794099 -0.297723 1.11456 1255988444
-0.35912701 -0.29656199 1.11002 1255593686
-0.37690699 -0.31279299 1.17785 1255593686
0.180701 -0.255963 0.961824 1256514788
0.249005 -0.24884801 0.93470001 1255988444
0.33313999 -0.231417 0.86466098 1258982026
-0.57633698 -0.31780601 1.19961 1258587268
-0.52678698 -0.31313899 1.18189 1257830648
-0.48045799 -0.30743101 1.15958 1255725272
-0.424624 -0.31701201 1.20284 1253619896
0.29547501 -0.23648199 0.89122897 1257435890
0.30103201 -0.234283 0.88209897 1257962234
0.33339801 -0.23001 0.86531299 1258389889
0.324628 -0.230978 0.87576997 1256383202
-0.80125499 -0.33598101 1.35077 1258225406
-0.48110601 -0.31439099 1.26752 1254672584
-0.43837899 -0.30563101 1.22969 1254014654
-0.43148601 -0.30634999 1.23329 1252304036
-0.37159801 -0.296473 1.1912 1256251616
-0.36931399 -0.296224 1.19017 1256777960
-0.29397401 -0.28970301 1.16404 1258225406
-0.24745101 -0.28484401 1.14412 1258324096
-0.19652499 -0.281955 1.13335 1258389889
-0.175294 -0.278081 1.11674 1258521475
-0.0109308 -0.25251701 1.00823 1257699062
0.0088094296 -0.249787 0.99675 1257172718
-0.80598599 -0.33697799 1.3663599 1257435890
-0.49235201 -0.304515 1.23228 1255067342
-0.46077901 -0.30242801 1.22419 1255067342
-0.37005901 -0.29318401 1.18609 1258653061
-0.350629 -0.29166201 1.18002 1258718854
-0.34431201 -0.29124501 1.1784101 1258784647
-0.31609201 -0.28858301 1.1675299 1259113612
-0.17444 -0.27478901 1.11096 1259574163
-0.158456 -0.272553 1.10146 1259508370
-0.13717 -0.26998299 1.09069 1259705749
-0.131589 -0.269577 1.08909 1259705749
-0.078863598 -0.261325 1.0537601 1259508370
-0.073468298 -0.26064199 1.0508699 1259508370
-0.057342399 -0.25808501 1.0398999 1259245198
-0.055555999 -0.25772899 1.03837 1259245198
-0.044940799 -0.25560001 1.02913 1259179405
-0.28717801 -0.28275999 1.15177 1259903128
0.033788498 -0.239516 0.96712798 1258455682
0.053559501 -0.241687 0.97808301 1258324096
-0.72662503 -0.30673799 1.2524 1258784647
-0.74436301 -0.32590601 1.3408099 1257304304
-0.72741503 -0.32170901 1.32207 1257041132
-0.71860898 -0.319875 1.31394 1257041132
-0.72706902 -0.33319199 1.37555 1255593686
-0.58522201 -0.30329901 1.24305 1257830648
0.35646099 -0.22597501 0.92745 1255198928
-0.78874999 -0.336519 1.3999701 1259837335
-0.73762 -0.30628899 1.27124 1259837335
-0.69405597 -0.316338 1.3209701 1257962234
-0.240675 -0.27689099 1.16585 1262008504
-0.437895 -0.28186601 1.25633 1259968921
-0.77743101 -0.28566 1.27004 1260232093
-0.34544 -0.25669 1.1542701 1260758437
0.504942 -0.20116299 0.91061902 1256251616
-0.47022799 -0.28597099 1.31191 1259837335
-0.49593899 -0.27858499 1.32216 1259705749
-0.379217 -0.26730001 1.31927 1261218988
-0.192384 -0.235581 1.15008 1260824230
-0.18973701 -0.23897099 1.16945 1260824230
-0.37138 -0.233998 1.27539 1260100507
-0.171183 -0.213753 1.2004 1260824230
-0.44096899 -0.243402 1.3961101 1260626851
-0.32157901 -0.22857501 1.3045501 1261153195
-0.288908 -0.22566999 1.30313 1261416367
0.137133 -0.164244 1.10492 1255988444
0.29547599 -0.15028401 1.00282 1255725272
0.30939299 -0.149791 0.99989903 1255593686
0.327737 -0.147946 0.98620498 1255856858
0.36180499 -0.15142401 1.01744 1257172718
0.35786301 -0.14793301 1.03465 1253488310
-0.278923 -0.18298499 1.32488 1254672584
-0.197014 -0.16506401 1.17277 1255330514
-0.16179401 -0.162863 1.15622 1254409412
-0.156205 -0.175669 1.2704099 1254672584
-0.108016 -0.17541499 1.2722501 1255067342
-0.26083699 -0.164405 1.18051 1253883068
0.52513999 -0.124572 0.934937 1253093552
0.42220801 -0.12944099 1.06326 1258850440
0.156352 -0.1327 1.11299 1247073492
0.51304901 -0.108255 0.94066 1254277826
0.480923 -0.111326 1.01475 1260561058
0.33229801 -0.093140103 0.81516701 1259639956
0.460291 -0.099706598 0.93395603 1259574163
-0.21961901 -0.12524 1.26858 1255725272
-0.830441 -0.141386 1.44911 1260626851
0.495195 -0.091377698 0.91657001 1253093552
-0.842453 -0.130086 1.43624 1261350574
0.36347201 -0.090654097 0.99079001 1250856590
0.357622 -0.088481203 0.98383999 1249442040
0.489198 -0.087912403 0.99458402 1261679539
0.36589399 -0.0882065 1.01052 1249935488
-0.81673002 -0.120321 1.50307 1254146240
0.37428299 -0.079855599 1.0286 1249935488
0.45464399 -0.073023699 0.907794 1260232093
0.41495699 -0.0781691 1.08048 1258521475
0.43596801 -0.071444899 0.94078898 1260692644
0.42791399 -0.065903902 0.88979602 1260890023
0.26453 -0.061306499 0.81684798 1251514520
0.34160599 -0.067015 0.97984898 1252567208
-0.82202101 -0.090079904 1.5024101 1259113612
-0.88868099 -0.086052902 1.5308599 1260890023
0.38993001 -0.049369201 0.801759 1261021609
0.496153 -0.052083001 0.940485 1253356724
0.40676001 -0.047872599 0.806297 1260166300
0.48262501 -0.046546999 0.915308 1252698794
0.437029 -0.0444993 1.0779099 1259113612
-0.90974498 -0.0584893 1.5571899 1261416367
0.362214 -0.037284002 1.07219 1253225138
0.34402701 -0.027818199 0.92690802 1253619896
-0.88757902 -0.032878 1.49256 1260561058
-0.888228 -0.030140501 1.49356 1260626851
-0.913104 -0.029975699 1.55299 1263126985
-0.86950099 -0.029551299 1.55845 1257699062
0.387716 -0.021585001 1.0462199 1253883068
-0.90307599 -0.019083699 1.50968 1260824230
-0.814385 -0.0165828 1.44154 1260429472
0.35797599 -0.0085202605 0.95530099 1252567208
-0.93100601 -0.0041997898 1.56473 1262863813
-0.93789798 0.00456073 1.5716 1262600641
-0.90996802 0.0056268498 1.50348 1260955816
0.356552 -0.00066446501 0.92772001 1252961966
0.324182 -0.0040735202 0.82485503 1257962234
-0.84084702 0.0134723 1.47429 1258653061
-0.96254998 0.028434001 1.59424 1262863813
-0.97024101 0.031866301 1.60691 1262732227
-0.95211297 0.054606199 1.54163 1260758437
-0.87920398 0.064921699 1.51756 1254409412
0.28687501 0.040531401 0.99194503 1250330246
0.29836801 0.042560998 1.01928 1251251348
0.33607799 0.031943198 0.86488599 1253225138
-0.99800301 0.077246599 1.62427 1263455950
0.30084699 0.045879599 1.0389301 1251251348
-0.87378502 0.072787397 1.47365 1262403262
-0.91622102 0.079261497 1.56311 1259968921
-1.00089 0.085851699 1.61983 1262995399
-1.00495 0.094925404 1.62168 1263258571
-0.86126602 0.0865646 1.44372 1262798020
0.36713901 0.048117701 0.88425899 1261153195
-0.92657799 0.100039 1.57108 1257172718
-0.93676698 0.109398 1.5791 1259705749
-0.99392301 0.116621 1.56892 1260955816
-0.96383399 0.15787099 1.596 1258389889
-0.97049803 0.185561 1.5839601 1260297886
0.477474 0.111334 0.92174602 1260495265
0.36387101 -0.0940281 0.98752099 1251382934
-0.98737401 0.0728174 1.60268 1263455950
0.32525301 0.0148558 0.76226199 1261942711
-0.839221 0.000114676 1.4806499 1258718854
0.35636899 -0.0075266799 0.855721 1261153195
-0.34122899 -0.36043 1.20561 1263258571
-0.31561801 -0.34974501 1.19101 1262863813
-0.481309 -0.31818601 1.08042 1262271676
0.38611701 -0.0188444 0.79924202 1259705749
-0.055828799 -0.30276701 1.05295 1262732227
0.26420599 -0.170431 1.16571 1255988444
0.33498001 -0.16142701 1.09745 1256514788
0.38654301 -0.0246341 0.802791 1260692644
-0.13344 -0.29139599 1.03475 1260429472
-0.122298 -0.28199801 0.99778301 1260758437
0.25970399 -0.26486599 0.94527501 1260166300
-0.51346302 -0.320674 1.14395 1261942711
0.022622 -0.29224101 1.07548 1259771542
-0.29450101 -0.18356299 1.28711 1257172718
-0.13622899 -0.28068501 1.02899 1259837335
-0.128636 -0.27708501 1.0220701 1259376784
-0.073192 -0.27695099 1.02389 1258718854
0.331806 -0.15299299 1.07602 1252172450
0.33948901 -0.151871 1.06701 1252830380
-0.45737401 -0.31139901 1.1596 1259113612
0.42144099 -0.045408402 0.83471298 1259442577
0.28396499 -0.24484999 0.91931802 1258916233
0.29300201 -0.239453 0.89689702 1258850440
0.31902 -0.153046 1.09246 1252435622
-0.631984 -0.322905 1.21889 1258982026
0.340011 -0.150116 1.06862 1253093552
0.32542101 -0.064464003 1.00396 1250330246
-0.50048798 -0.31486899 1.2688 1254277826
-0.39979801 -0.29587001 1.18716 1256909546
0.350595 -0.065247901 0.98237097 1252040864
-1.00542 0.111625 1.60873 1263850708
-0.263163 -0.28348199 1.1466399 1259508370
0.33497101 -0.071390897 0.95687097 1248652524
-0.19998799 -0.27720401 1.1208301 1259442577
0.41604701 -0.118296 0.88057798 1261021609
-0.63640398 -0.32368201 1.32436 1257304304
-0.56885999 -0.307437 1.25251 1257304304
-0.53462899 -0.310848 1.26987 1258093820
-0.017617101 -0.249173 1.00931 1259245198
-0.81254297 -0.117362 1.49984 1252435622
0.417669 -0.076827697 0.82757199 1258718854
-0.71762902 -0.32120699 1.32019 1257172718
-0.83518499 -0.124494 1.43177 1261679539
0.462248 -0.096588597 0.93782699 1260495265
-0.37838501 -0.34814301 1.23172 1262074297
-0.183254 -0.316627 1.09872 1261482160
-0.441504 -0.32407299 1.1451499 1260890023
-0.21741199 -0.31861499 1.1159199 1262140090
0.25602099 -0.381035 0.91416299 1263653329
-0.132266 -0.32272601 1.12993 1262798020
0.16452201 -0.30450201 1.0466599 1260626851
-0.122954 -0.40557799 1.00727 1262534848
-0.171886 -0.40702 1.0224299 1262074297
0.15909401 -0.29020301 1.00351 1259179405
-0.25871399 -0.287965 1.01533 1259574163
-0.615695 -0.32710999 1.19845 1261021609
-0.194795 -0.28233701 0.99740601 1260824230
-0.103996 -0.27864999 0.97899902 1260890023
-0.48760101 -0.31676701 1.15982 1259705749
-0.066785701 -0.276896 0.97785199 1260232093
-0.051568002 -0.281665 0.99742699 1261679539
0.157793 -0.271752 0.94871002 1259508370
-0.68416399 -0.330906 1.23544 1260100507
-0.64295501 -0.327571 1.21989 1259968921
-0.59360301 -0.32384101 1.20239 1259837335
0.053105298 -0.272291 1.01644 1256646374
-0.520904 -0.31983599 1.18294 1259903128
0.231769 -0.25149199 0.91659498 1257304304
0.24197 -0.250148 0.91017699 1257962234
0.139029 -0.25843701 0.96682298 1255198928
0.27211601 -0.249522 0.92118299 1258784647
-0.77122402 -0.330643 1.36435 1258455682
-0.74064398 -0.336036 1.38842 1255725272
-0.432762 -0.25512999 1.25499 1259771542
-0.58892298 -0.311185 1.26625 1258093820
-0.56348401 -0.31654701 1.29037 1256646374
-0.182391 -0.21221 1.04509 1259903128
-0.51172501 -0.30788901 1.24784 1256383202
-0.19894101 -0.220184 1.1210901 1259705749
-0.38326001 -0.29662701 1.19019 1256251616
-0.130548 -0.180684 1.26026 1258784647
-0.192165 -0.16880199 1.17515 1255988444
-0.45962799 -0.24549501 1.36063 1258916233
-0.167573 -0.17111801 1.1948 1256120030
-0.15606301 -0.178583 1.26442 1256777960
-0.416475 -0.23695 1.31697 1260034714
-0.43289599 -0.23156799 1.34813 1259245198
-0.131566 -0.209602 1.1874501 1261021609
-0.51247001 -0.22626001 1.35071 1259245198
-0.18493199 -0.17491201 1.27636 1252830380
-0.82921201 -0.12673201 1.52319 1253488310
0.84918398 -2.2794499 1.0799201 1260824230
0.88060802 -2.3715999 1.0865 1260495265
0.882007 -1.9730999 1.12872 1261942711
0.90216798 -2.34324 1.10235 1260429472
-0.77504998 -0.104609 1.39767 1260824230
0.72779399 -2.05654 1.01384 1260561058
-0.44853401 -2.83722 0.764723 1259705749
-0.40437499 -2.8684599 0.71174502 1259771542
0.89199603 -1.98707 0.97893298 1261942711
0.88314998 -1.9814399 1.0889601 1261547953
-0.42788401 -2.86024 0.74260801 1260034714
0.82938099 -1.95082 1.0349801 1261745332
-0.46845499 -2.8176301 0.826419 1260429472
0.0095366295 -0.28532499 1.01858 1260232093
0.880705 -1.97191 1.1178 1261811125
-0.474944 -2.81059 0.83435798 1260166300
0.88349003 -1.99283 1.0400701 1261350574
-0.45282599 -2.8369801 0.772874 1259837335
-0.46693 -2.8102701 0.78815299 1259705749
0.58969402 -2.0892601 0.98744202 1260232093
0.33950499 -0.230886 0.85465902 1259705749
-0.69441098 -0.32714099 1.23901 1258225406
-0.61407602 -0.32132301 1.21117 1257567476
-0.50067002 -2.75649 0.82903898 1260100507
-0.36411801 -0.30873299 1.02742 1261613746
0.932504 -2.13205 1.0618 1259705749
-0.505014 -2.78212 0.87366098 1260495265
-0.51036 -2.7518499 0.84260303 1260363679
-0.47993699 -2.7642701 0.94025499 1260955816
0.90027702 -2.36724 0.94984299 1261679539
0.76361001 -2.28494 1.05536 1260232093
0.791448 -2.0078101 0.97141802 1261745332
-0.524845 -2.7253599 0.85840303 1260166300
0.80128098 -2.21275 1.04773 1261284781
0.79423702 -2.0096099 0.97048002 1262205883
-0.43109399 -2.9118099 0.75380701 1259968921
0.967179 -1.88322 1.03563 1261021609
-0.487665 -2.7248299 0.944179 1261482160
-0.40690601 -2.96119 0.81716698 1260626851
0.714113 -2.05196 1.00679 1260561058
0.85702002 -2.2562101 1.0473 1259968921
-0.44297501 -2.8835499 0.764974 1259639956
0.749668 -2.3 1.06557 1260824230
0.81568903 -1.95012 1.28171 1260758437
-0.44099799 -2.86215 0.78562897 1260692644
-0.448369 -2.8879299 0.80692202 1260495265
-0.45485401 -2.88991 0.81921703 1261087402
-0.43625599 -2.9266 0.85737801 1261284781
-0.021878701 -0.252581 1.01307 1258587268
-0.47018301 -2.8667099 0.79817402 1259705749
-0.368453 -3.00894 0.76805699 1260495265
-0.443901 -2.9036901 0.86392999 1260955816
0.39285201 -0.045669202 0.98418897 1261021609
-0.38949001 -2.9684501 0.73508799 1260429472
-0.41257501 -2.9407899 0.72975701 1259376784
-0.465794 -2.8325701 0.816342 1260890023
0.33459601 -0.106079 0.85461003 1258653061
-0.45880201 -2.80984 0.77413899 1259508370
-0.37019199 -2.99035 0.802634 1261679539
-0.49632001 -2.7131901 0.81745303 1260692644
-0.34052899 -3.1217201 0.734613 1261087402
-0.23012 -2.2135601 0.89468199 1261942711
0.38833401 -0.0355133 0.950037 1258850440
-0.49495301 -2.8021901 0.82892603 1261153195
-0.37552601 -2.7997501 0.856309 1261087402
-0.40705401 -2.8873401 0.840482 1261416367
-0.40340099 -2.9056301 0.83620501 1261876918
-0.17025299 -2.21595 0.91368902 1261547953
0.0494349 -2.1540899 0.92256701 1259508370
0.820409 -2.37293 1.13018 1259047819
-0.35302401 -3.1109099 0.745776 1261482160
-0.34818399 -3.0835299 0.78613198 1261153195
0.88642198 -2.37994 1.09251 1260561058
-0.39044699 -2.99582 0.79803902 1260758437
0.89319903 -2.34424 0.99780399 1261350574
0.84496099 -2.33727 1.08267 1259508370
-0.34986001 -3.12468 0.76372999 1261087402
-0.329844 -3.11658 0.76594102 1260824230
-0.352613 -3.0945599 0.74801499 1260890023
-0.38753 -3.0479 0.70856303 1258916233
-0.38534999 -3.0487399 0.70968598 1259508370
-0.38985899 -3.05586 0.71775299 1259837335
0.90816897 -2.2248299 1.07596 1259837335
-0.358477 -3.10724 0.77161199 1260758437
-0.350097 -3.1342101 0.76316202 1260561058
-0.33996901 -3.1033001 0.77664399 1261153195
-0.383605 -3.0452001 0.729518 1260626851
-0.362077 -3.0966799 0.77426702 1260626851
0.87709498 -1.94355 1.22078 1261153195
-0.345489 -3.0978701 0.78285402 1261416367
-0.39839599 -3.02209 0.72302002 1259705749
-0.43591899 -2.8642099 0.75183302 1259442577
-0.386538 -3.04245 0.74171299 1260297886
-0.36565599 -3.08184 0.77741301 1260495265
-0.415281 -2.92361 0.81146401 1261153195
-0.38857999 -2.99475 0.70747697 1259771542
-0.393673 -2.9337699 0.83042002 1261811125
-0.40501499 -2.99438 0.72933 1259705749
-0.37168199 -3.03003 0.76585501 1260824230
-0.408988 -2.99001 0.73237997 1259508370
-0.35051399 -3.03386 0.78169501 1261284781
-0.355281 -3.0225201 0.78703302 1261416367
-0.377837 -3.01859 0.78633898 1260758437
-0.41622701 -2.91399 0.81476003 1260955816
-0.383764 -3.01019 0.793809 1260626851
-0.41876501 -2.9265101 0.82988602 1260824230
-0.371672 -3.1370399 0.72342098 1260955816
-0.36586601 -2.99841 0.80016899 1261350574
-0.422939 -2.9361501 0.74118698 1258850440
-0.394519 -2.98473 0.78959203 1261350574
-0.36410201 -3.10272 0.810009 1261613746
-0.42074901 -2.93292 0.742791 1259968921
-0.436371 -2.8823199 0.792467 1260955816
-0.41454399 -2.9379399 0.76807898 1260495265
-0.38235599 -2.9823101 0.81879401 1261876918
-0.42098901 -2.92816 0.76580501 1260758437
-0.40028101 -2.95609 0.799483 1260758437
-0.42997301 -2.8996999 0.75017899 1259705749
0.43646801 -1.80585 1.10612 1259113612
-0.435559 -2.88164 0.74821401 1258521475
-0.0323007 -2.13573 0.95578301 1258521475
0.81147802 -1.4718 1.09948 1258718854
0.1136 -1.54723 1.01397 1259113612
0.832609 -1.53959 1.15381 1257699062
0.067547001 -1.5764199 1.01173 1260232093
-0.27439699 -2.2609999 0.68616498 1260166300
-0.26610899 -2.26331 0.68877602 1259771542
-0.26811299 -2.2509 0.69104099 1259903128
-0.25621301 -2.25495 0.697689 1260429472
-0.45140901 -2.8485 0.805718 1260626851
0.70770401 -1.52414 1.0404299 1255462100
-0.43254399 -2.85711 0.82755703 1261350574
-0.281647 -2.2191801 0.694471 1260232093
-0.226769 -2.33745 0.78780502 1260166300
-0.26315501 -2.2097001 0.70631599 1260495265
0.31807899 -1.55836 0.99900103 1253356724
-0.274095 -2.1949601 0.70036697 1259376784
0.30200699 -1.55942 0.99662799 1253356724
0.93119901 -2.17027 0.89501399 1260166300
-0.27046499 -2.18437 0.71392798 1260758437
-0.27333099 -2.1700499 0.71909899 1260297886
0.973701 -2.1387 0.90305799 1260495265
-0.283539 -2.1520901 0.71062797 1259837335
0.72741503 -1.52597 1.04547 1254804170
0.919204 -2.1071501 0.891877 1259639956
0.68386501 -1.52549 1.0326999 1253751482
0.26140499 -1.5677299 0.99751502 1253488310
0.23243301 -1.56942 0.992814 1254540998
0.219947 -1.57487 0.99972898 1255462100
0.967758 -2.0509 0.87243003 1258718854
0.196335 -1.57932 1.0017101 1256777960
0.96718699 -2.0334201 0.875655 1258587268
0.17706899 -1.5798 0.99736798 1257830648
-0.45201799 -2.73 0.89123702 1261350574
0.91337103 -2.05142 0.89746499 1259771542
0.202022 -1.5785201 0.99790502 1255593686
0.54640698 -2.08232 0.86535603 1258587268
0.963835 -2.0435801 0.911062 1260363679
0.118093 -1.58548 0.98439097 1257041132
0.108906 -1.5851001 0.98119402 1256383202
0.908701 -2.02613 0.89433002 1259837335
-0.48255801 -2.70175 0.89583999 1261745332
0.092082001 -1.5876499 0.98141599 1257435890
0.073342301 -1.5907201 0.98210597 1257304304
0.95920801 -1.98562 0.87855899 1258982026
0.065642402 -1.5906 0.97978902 1257567476
0.030070599 -1.59749 0.97924101 1256646374
-0.00523755 -1.60179 0.97773302 1257172718
-0.31391001 -2.06757 0.73338199 1260297886
-0.028664101 -1.60438 0.97623199 1258093820
-0.0486442 -1.60642 0.97464299 1257830648
0.95694399 -2.0745599 0.960334 1259968921
0.268047 -2.1343801 0.89206702 1259047819
-0.29343101 -2.06023 0.74151897 1260824230
0.96197999 -2.00226 0.92312098 1260824230
0.95613599 -1.92847 0.888457 1258653061
0.259868 -2.2232699 1.01236 1259574163
0.28747201 -2.2295799 1.0223401 1259771542
0.369041 -2.1795001 0.996553 1260034714
-0.29851899 -2.0391901 0.778745 1260758437
0.953987 -1.89833 0.89481902 1259179405
-0.10103 -1.61777 0.97779298 1258324096
-0.30708301 -1.9936399 0.75790101 1260692644
0.39773899 -2.08565 0.962282 1257830648
0.41700399 -1.95524 0.856264 1257041132
0.441073 -2.00753 0.904526 1257041132
0.431209 -1.98842 0.88950098 1255725272
0.56724 -2.0980899 1.0128 1254146240
0.60768598 -2.1071899 1.02786 1254146240
-0.19881099 -1.6338 0.97344601 1257172718
0.95611 -1.87413 0.89574701 1257041132
0.87917799 -1.86814 0.88703799 1259376784
-0.0110835 -2.11847 0.944107 1258455682
0.54287797 -2.06445 0.99850398 1256646374
0.57517499 -2.0015099 0.94980401 1255593686
0.220062 -1.56506 0.90358698 1259113612
0.66835999 -2.02474 0.990058 1256777960
0.88523102 -2.00159 1.01265 1257172718
0.0089601297 -1.57051 0.90546 1257567476
0.947501 -1.83508 0.90186203 1258718854
-0.048811499 -1.57566 0.89945197 1256777960
0.875754 -1.8328 0.88907599 1259639956
0.334782 -2.0888 1.02709 1260100507
0.86530298 -1.9042 1.22738 1258718854
0.483971 -2.10355 1.08577 1259310991
0.358814 -2.0388 1.00519 1259705749
-0.0972552 -1.58283 0.89613903 1257567476
-0.157152 -1.59278 0.89479899 1257435890
0.86005998 -1.76771 0.88218701 1259245198
0.88789499 -1.78285 0.902435 1259771542
0.280083 -1.54948 0.92894602 1255462100
0.386406 -1.93784 0.96732199 1253225138
0.93677902 -2.0213499 1.15701 1260034714
-0.30307701 -2.02178 0.92029101 1260758437
0.26762199 -2.04354 1.05282 1260429472
0.93231601 -1.79092 0.93266702 1260363679
-0.30300799 -2.0339999 0.93903702 1260297886
0.202563 -1.98374 1.0203 1260297886
0.390553 -1.88526 0.957968 1254935756
0.235854 -1.55915 0.92774999 1258093820
0.87972999 -1.7230099 0.90663701 1259310991
0.86499602 -1.7211601 0.90439498 1259639956
0.92250001 -1.73169 0.93295902 1260626851
-0.32835799 -1.98471 0.959122 1260363679
-0.34464201 -2.0469699 1.02394 1260758437
-0.165013 -1.96582 0.97833902 1260495265
0.87852901 -1.70258 0.90581602 1260824230
0.93017 -1.99005 1.23952 1260166300
0.45552099 -1.54062 0.94901198 1255462100
0.87612897 -1.68519 0.90760797 1260100507
0.87571001 -1.67216 0.91450602 1259705749
0.24489801 -1.94856 1.12688 1257699062
-0.38768101 -2.73153 0.84540403 1261547953
0.172279 -1.92562 1.09515 1258916233
0.19829001 -1.9207799 1.09481 1257304304
-0.15103599 -1.99037 1.11676 1259376784
-0.33472601 -1.93164 1.03484 1260429472
-0.25789201 -1.93601 1.0571001 1260626851
-0.208101 -1.91511 1.04145 1261087402
-0.039638098 -1.89395 1.05134 1261284781
0.166394 -2.0220699 0.87344599 1257567476
0.218918 -1.84141 1.04466 1260100507
0.909724 -2.35953 1.05486 1261153195
0.91010702 -2.3590901 1.0575401 1261350574
0.120035 -2.1315 0.97723699 1257435890
0.12826 -2.1289301 0.97647297 1258225406
0.84932202 -1.9895101 0.99604797 1258455682
0.87456799 -2.37621 1.13653 1259113612
-0.061870702 -2.13937 0.92383802 1258850440
-0.156087 -2.16558 0.930682 1259047819
-0.354132 -2.9217999 0.898449 1260692644
-0.378016 -2.8338599 0.86993098 1261218988
-0.40543801 -2.94578 0.81304997 1260955816
0.91070002 -2.37975 0.9569 1261679539
-0.493231 -2.7023399 0.84467602 1260166300
-0.481673 -2.71789 0.87314099 1261811125
0.91526598 -2.3772099 0.97826898 1261416367
-0.41744801 -2.9061301 0.826446 1261416367
-0.46822 -2.74365 0.87796098 1261482160
0.806876 -2.0683501 0.93212599 1260955816
-0.38478601 -3.00419 0.790802 1260758437
-0.29805499 -2.2913101 0.70930201 1260100507
0.84334701 -1.46793 1.20015 1259508370
-0.28648099 -2.23493 0.70998597 1259442577
-0.329328 -2.1302299 0.70706302 1259771542
0.92236298 -2.12642 0.89175099 1260034714
-0.306894 -2.1275201 0.75453901 1260495265
-0.32031399 -2.10782 0.74970299 1259508370
0.85577601 -1.49327 1.18729 1259442577
-0.33862299 -1.96663 0.794119 1260561058
-0.295607 -2.0359299 0.86194098 1260166300
0.94503999 -1.82568 0.90307301 1259639956
-0.348261 -1.91887 0.80506599 1261021609
0.247814 -1.55304 0.96758699 1254804170
0.88746202 -1.48787 0.95030099 1260166300
0.938555 -1.7529401 0.89836103 1257962234
0.67198998 -1.55617 1.01156 1257962234
0.86461103 -1.5127 1.14814 1258718854
0.31854299 -1.56332 0.94539201 1256909546
0.926314 -1.71978 0.89844 1259047819
-0.21927001 -1.60909 0.90475899 1256514788
0.33395401 -1.84855 0.93509197 1259113612
-0.34204999 -2.02408 1.00374 1260692644
0.80169803 -1.49288 0.99557501 1257435890
-0.122624 -1.59306 0.90877098 1256251616
-0.326507 -1.97235 0.963247 1260034714
-0.069587402 -1.58181 0.90304202 1255988444
0.024789499 -1.57305 0.91452098 1256909546
-0.082471602 -1.62472 0.988554 1256383202
-0.065874897 -1.61876 0.98663098 1257435890
0.92195803 -1.98426 1.23797 1260495265
-0.216912 -1.95901 1.03553 1258587268
-0.524701 -2.8018701 0.89545602 1261021609
0.171289 -1.92084 1.07278 1259705749
0.100694 -1.5880899 0.987167 1258587268
0.132433 -1.92142 1.0700099 1259310991
0.46331 -1.97166 1.19801 1257435890
0.12677 -1.57526 0.97184002 1256646374
-0.058708102 -1.8548501 0.99776697 1260955816
0.77279699 -1.53115 1.19633 1258653061
-0.38738301 -3.0562699 0.71186 1260166300
-0.34226 -3.0994599 0.777686 1261482160
-0.119187 -1.58715 0.93058997 1256909546
0.80420297 -1.56399 1.11042 1257567476
-0.34706399 -1.83779 0.79593599 1260758437
-0.225795 -1.59779 0.91611898 1257172718
0.847449 -1.51735 1.0463001 1258982026
-0.48343599 -2.7079201 0.87818599 1261218988
-0.357806 -2.1628599 0.71123499 1257435890
0.46241 -1.8773201 1.12087 1258916233
-0.34377301 -1.61168 0.90349299 1256514788
0.0297295 -1.57797 0.93189698 1256383202
0.86702198 -2.01437 0.95668602 1260758437
-0.35947701 -2.14112 0.719302 1258982026
0.91944301 -2.0341899 0.980721 1261482160
-0.30450499 -2.1756401 0.75433302 1259837335
0.0076246299 -1.58111 0.93102902 1256120030
-0.37566799 -1.97333 0.728553 1257567476
0.83748001 -1.4934601 1.1746401 1261087402
0.925556 -2.35917 1.10753 1261153195
-0.0095677096 -2.0891099 0.89468402 1257041132
0.292595 -1.9789799 0.85658699 1257304304
-0.445501 -2.8687501 0.76340097 1259705749
-0.33634499 -1.91097 0.784464 1260034714
-0.34159201 -2.13886 0.77773201 1260495265
0.90168399 -1.97024 1.06514 1262205883
-0.455295 -2.7272999 0.89068502 1261350574
-0.37257999 -1.92907 0.80819398 1260495265
-0.33882299 -1.8883801 0.78479397 1260824230
0.38041699 -1.96892 0.98434401 1259837335
-0.34309199 -2.0896599 0.77940601 1261153195
0.0383792 -1.9861 0.94320899 1259903128
-0.37549499 -2.0031199 0.728782 1257830648
-0.368889 -1.90488 0.801346 1260100507
0.87989801 -1.9735399 1.08535 1261942711
0.0590569 -1.60045 0.99791199 1256777960
0.535074 -2.1198201 0.96914798 1259837335
0.39904499 -1.93975 0.97728902 1256251616
0.244726 -1.56559 0.990457 1258653061
-0.34280401 -1.87506 0.789433 1260561058
0.90652502 -1.9673001 1.19777 1261284781
0.179441 -2.17031 0.95448601 1259310991
0.89659703 -1.95392 1.0832601 1262271676
0.186683 -1.9145 1.07294 1259837335
0.0246813 -1.55957 1.05999 1259508370
0.21401399 -1.9112099 1.07482 1259047819
0.239435 -1.89573 1.06354 1259639956
-0.31067801 -1.61085 0.89360499 1257172718
0.27166799 -1.89732 1.0714999 1260100507
0.88681501 -1.95909 1.12089 1261876918
-0.34280699 -1.61428 0.89081401 1258324096
0.22924 -1.56296 0.94938302 1258455682
0.36580399 -1.8724999 1.06819 1259639956
0.216401 -1.98806 1.0303 1259574163
0.484063 -1.87616 1.09512 1259574163
0.23146699 -1.56163 0.93171799 1259968921
-0.434993 -2.80619 0.87036997 1261613746
0.39230499 -1.9615 1.04153 1255593686
0.76276201 -1.87046 1.1481 1259047819
0.77206498 -1.87164 1.15117 1259047819
0.883964 -1.95646 1.1267 1261482160
0.84696501 -1.86687 1.1608 1260692644
0.089148201 -1.9087 1.06107 1258982026
-0.36898601 -1.6299599 0.901788 1259245198
0.176622 -1.93115 1.10658 1259179405
-0.40394199 -1.79005 0.84613401 1260034714
-0.101497 -1.87852 1.00016 1258850440
0.88323301 -1.9133101 1.15163 1261679539
-0.035936698 -1.87287 1.01133 1259047819
-0.352855 -1.796 0.80355 1260758437
-0.384992 -1.63991 0.90733099 1259968921
-0.362973 -2.1017599 0.71786302 1258093820
0.91679901 -1.46766 0.96735799 1259771542
0.40463799 -1.90351 1.14047 1259574163
-0.36617199 -1.8085999 0.82095098 1260692644
0.194056 -1.9522901 1.0734 1260363679
-0.39482099 -1.82727 0.83810598 1260890023
-0.40672201 -1.7535599 0.76774698 1258916233
-0.222552 -1.83731 0.95271701 1259968921
0.79125702 -2.2755101 1.07385 1260166300
0.88126302 -1.90627 1.17156 1261942711
-0.37323001 -2.03284 0.73526502 1259508370
-0.0930572 -2.2032499 0.920044 1260232093
0.045399498 -2.15646 0.922068 1259376784
0.50711602 -2.1475599 0.98998898 1259574163
0.80015099 -2.07974 0.996867 1261416367
0.92654902 -1.63859 0.92425698 1259376784
-0.107221 -2.0977499 0.90069199 1255330514
-0.094843902 -1.9406199 1.04547 1258455682
-0.265351 -2.05375 0.84235603 1256909546
-0.061316099 -1.94199 1.05344 1258850440
0.0134771 -2.10199 0.93203098 1258225406
0.023776401 -1.92977 1.05721 1259245198
0.83401197 -2.0174401 1.01614 1258916233
0.15927701 -1.89854 1.05088 1259574163
0.91180903 -1.87292 0.95000899 1261350574
-0.36717901 -1.94718 0.80376899 1261087402
0.88962197 -1.98838 1.06232 1262074297
-0.38702399 -1.91922 0.78286499 1260692644
0.090020798 -1.80874 1.01352 1260495265
-0.367365 -1.65433 0.90564603 1261482160
-0.389512 -1.89482 0.78508902 1260166300
-0.34493199 -1.85022 0.79052198 1260824230
0.89656699 -1.77693 0.95112902 1261218988
-0.40496901 -1.82505 0.762806 1257962234
0.215216 -1.9690599 1.01212 1259442577
-0.382918 -1.87412 0.82042599 1260232093
0.93493003 -1.70575 0.91987997 1259508370
0.88650799 -1.9245 1.1319 1261942711
-0.34991601 -1.81831 0.801328 1260561058
-0.402805 -1.77974 0.76387501 1259113612
0.88883299 -1.71146 0.95416498 1261218988
0.86419803 -1.92768 1.17163 1262008504
0.92007399 -1.57425 0.93523598 1259903128
-0.3637 -1.79105 0.814426 1261021609
-0.27074701 -1.9689 1.03642 1257699062
-0.0128713 -1.93852 1.05924 1258982026
0.38572499 -1.88361 1.07934 1259376784
0.30391601 -1.88397 1.06817 1259376784
0.45075801 -1.87682 1.09376 1258982026
0.109056 -1.9160399 1.07275 1258784647
-0.0324274 -2.1486299 0.96589798 1256646374
-0.159669 -1.83885 0.96693701 1260297886
-0.113811 -1.8256 0.96167499 1260890023
0.45162299 -1.8492399 1.10919 1261153195
0.73314399 -1.8649499 1.18284 1261350574
0.88446802 -1.63485 0.97279501 1261679539
0.195897 -1.80373 1.02941 1260824230
0.49704701 -1.57061 0.97052097 1259705749
-0.40708199 -1.73413 0.85201502 1260363679
0.86670399 -1.53574 1.1231 1261153195
-0.080962598 -1.62436 0.91881299 1259705749
-0.37942401 -1.6447099 0.798172 1260561058
0.26824701 -1.5768 0.85452998 1259442577
0.27748901 -1.6940399 1.00491 1259837335
0.26041299 -2.1833301 0.97749698 1259376784
-0.41927001 -1.69091 0.920708 1260297886
-0.134736 -1.63266 0.90936899 1260363679
0.63897401 -1.5720201 1.00396 1260890023
0.586842 -1.55479 0.99089801 1260363679
-0.38861501 -1.61184 0.84918302 1260166300
0.084361702 -1.57795 0.91578603 1258521475
0.24229801 -1.56116 0.933559 1259508370
0.30771801 -1.56348 0.95150602 1259574163
0.52742398 -1.62458 1.08234 1258982026
-0.37541801 -1.5807 0.83028501 1260232093
0.31967899 -1.55853 0.96423 1258225406
0.28590301 -2.0894201 0.97272402 1258587268
0.20470101 -1.56998 0.98281801 1257172718
0.34487599 -1.56556 1.00958 1256909546
0.40018699 -1.56278 1.0187 1256777960
0.407074 -1.56188 1.01907 1256909546
0.42556399 -1.5604399 1.02142 1257567476
0.70633799 -1.56238 1.08992 1258521475
0.68203998 -1.55904 1.07961 1258455682
0.51755798 -1.55876 1.04066 1256777960
0.65499401 -1.5601701 1.0748301 1257830648
0.068350397 -2.11783 0.93237603 1257435890
-0.0056645898 -2.1383901 0.940979 1255725272
-0.42994201 -2.81828 0.869241 1260626851
0.89057702 -1.9827501 0.99549699 1259179405
-0.458958 -2.8139901 0.76952201 1258784647
0.28869599 -1.99158 0.87584299 1256514788
-0.270051 -2.1477001 0.92318302 1257699062
-0.43394801 -2.85095 0.829934 1260626851
0.41139999 -2.1182201 1.0161099 1258225406
0.55028099 -2.0448699 0.98348403 1258389889
0.73066998 -2.0116799 0.99369103 1259047819
-0.485919 -2.74054 0.80072099 1259837335
0.90728098 -1.89775 0.92954397 1261284781
-0.34817901 -3.07093 0.78125799 1261547953
0.245746 -2.0381 0.94981903 1260495265
-0.357712 -1.96905 0.78894103 1259903128
-0.39956799 -2.91343 0.83283699 1261679539
-0.391114 -1.89382 0.74636298 1258093820
0.904405 -1.98013 1.04529 1261942711
-0.36030799 -1.93551 0.816082 1260758437
0.88988101 -1.93435 1.11554 1262074297
-0.40248999 -1.79897 0.762227 1258784647
0.181181 -1.93283 1.00861 1259771542
-0.40845799 -2.96841 0.72506702 1259574163
0.87836802 -1.9439 1.15385 1261679539
-0.44252199 -2.8340199 0.84971499 1261087402
0.27042201 -1.95805 1.07602 1260626851
-0.170425 -2.1482601 0.91873503 1256646374
0.91729802 -2.3912799 0.96982002 1261482160
-0.124477 -1.95778 1.05768 1259113612
0.0518566 -1.92274 1.05531 1259310991
0.54049999 -1.87867 1.10879 1259771542
-0.38835201 -2.9551101 0.82132399 1261613746
0.42955199 -1.8927 1.12455 1258389889
-0.393547 -1.64921 0.855964 1261021609
-0.032564599 -1.82569 0.97797102 1260363679
0.38852701 -1.82976 0.96963501 1259837335
0.67549199 -1.86112 1.16241 1261218988
0.89313799 -1.60912 0.96922201 1262534848
0.68425 -1.58679 1.03299 1260824230
-0.42934799 -1.85238 0.88754302 1261153195
0.44764301 -1.5641201 0.97583002 1260363679
-0.27002099 -1.98633 1.05925 1258225406
0.48256099 -1.5548199 0.971524 1259113612
0.38868099 -1.5671901 0.97067398 1259508370
-0.243628 -1.60906 0.90664601 1257567476
0.288432 -1.62746 1.05417 1257304304
0.071276799 -1.9390301 1.08248 1259179405
0.894741 -2.3157301 1.11965 1259179405
0.37492001 -2.1055601 0.93226701 1259508370
0.292422 -1.56566 0.99740899 1257435890
0.31649199 -1.9253 1.11768 1259047819
0.32882199 -1.5652 1.0053101 1257699062
0.920394 -2.0000601 0.96939898 1262205883
0.36088601 -1.56352 1.0105 1256909546
0.47459099 -1.89634 1.11692 1259442577
0.46055299 -1.55897 1.02759 1257041132
0.493572 -1.55829 1.0344 1257830648
0.55447 -1.56138 1.05294 1257435890
0.22953101 -1.97543 0.84687901 1255988444
0.62284797 -1.56058 1.06785 1258324096
0.304629 -1.9561 0.84736001 1255198928
0.87602502 -1.55594 1.1208 1259968921
0.83552301 -1.4989901 1.14351 1259903128
0.167723 -1.94244 1.11285 1258982026
-0.080162697 -2.08549 0.89526099 1254935756
0.673087 -1.88237 1.14344 1259705749
-0.36555699 -2.1721699 0.81233603 1260890023
0.74880898 -1.87154 1.14616 1259639956
-0.327537 -2.11658 0.77824301 1260890023
0.77809298 -1.88405 1.16427 1259376784
0.149022 -1.94554 1.11737 1259179405
0.213889 -1.94648 1.13017 1258916233
0.92458498 -2.0469301 0.919819 1261416367
0.324781 -1.94573 1.1496201 1259047819
0.35135901 -1.92347 1.13164 1258850440
0.35077599 -2.20664 0.956617 1260100507
0.811553 -1.87324 1.16406 1258916233
-0.150453 -1.96237 1.08476 1259245198
-0.34273401 -2.10867 0.82597703 1261021609
0.84210902 -1.3849601 0.97333997 1261021609
0.82653898 -2.0764401 0.981754 1261745332
-0.17115501 -1.9426301 1.0700099 1260100507
-0.336014 -1.87835 0.97750598 1259245198
0.94471902 -1.91019 0.88888901 1261416367
0.916426 -1.60142 0.91974699 1259771542
-0.236237 -1.83886 0.95906198 1260034714
-0.43439499 -1.80641 0.89275199 1261284781
-0.240814 -1.9146 1.04189 1260955816
-0.27663499 -2.14644 0.90068299 1256909546
0.116042 -1.88362 1.0753599 1260824230
0.274133 -1.82213 1.04458 1261087402
0.617356 -2.0698299 0.87882203 1258982026
0.40009999 -1.87508 1.12359 1260955816
0.75194401 -1.8753099 1.1987799 1261679539
0.81295002 -1.8468601 1.1848201 1261547953
0.86937499 -1.61718 0.94707 1261613746
-0.304387 -2.03444 1.0042 1260100507
0.90859801 -1.70169 0.92233598 1261745332
-0.38965499 -1.73151 0.853728 1260758437
-0.0439521 -1.58452 0.952232 1256777960
0.41074499 -1.7783 1.0547301 1261021609
0.0139806 -1.58298 0.96244597 1256909546
0.50214899 -1.77792 1.07607 1261284781
0.094698898 -1.59324 0.99728203 1258093820
0.54386199 -1.7624 1.0671 1262008504
0.23041999 -1.5667 0.991409 1257699062
-0.38397101 -1.69803 0.84194601 1261218988
0.20116 -1.57213 0.99230301 1257699062
-0.44206399 -1.66251 0.81067002 1258784647
0.76936901 -1.52265 1.12283 1259837335
0.38850299 -1.87723 1.12372 1261021609
-0.41379499 -2.9569399 0.732301 1260166300
0.56203198 -1.86606 1.14887 1260890023
0.89920002 -1.60296 0.93753499 1262074297
0.118506 -2.1721499 0.85872197 1256909546
-0.076924399 -2.1637599 0.96653199 1257962234
0.884601 -1.66293 1.11675 1261745332
-0.396709 -1.69226 0.82151598 1261021609
-0.40110499 -1.6117001 0.86586303 1260561058
0.30670199 -1.56446 0.95668298 1259968921
0.076299503 -1.57759 0.96322501 1257172718
-0.0315197 -1.5818501 0.94382501 1257435890
0.83833802 -1.72675 1.10448 1260955816
0.0041321502 -1.88642 1.02942 1259376784
-0.31646001 -3.16241 0.75195903 1260955816
0.43544 -1.56188 1.0284899 1257172718
-0.38864401 -3.07739 0.716896 1259968921
-0.337017 -3.1130099 0.77098298 1261416367
-0.356125 -3.0896001 0.74890202 1261350574
-0.388327 -3.0572801 0.70828003 1259047819
-0.35749501 -3.0301001 0.78770602 1261482160
-0.364943 -3.09828 0.778763 1260824230
-0.35297701 -2.0509901 0.95140803 1259837335
-0.386839 -3.06078 0.74848902 1261153195
-0.35461101 -3.05249 0.79112399 1260692644
0.13145401 -2.05688 0.87461901 1258916233
-0.36344901 -3.0074999 0.79706001 1261021609
-0.0838698 -1.51926 0.86230701 1258653061
-0.43043801 -2.8191199 0.86469799 1261613746
-0.42374101 -2.89204 0.83033001 1260758437
-0.191531 -1.89143 1.01371 1260297886
-0.27466699 -1.90961 1.02231 1260297886
-0.45331901 -2.8487101 0.77205902 1260232093
-0.41550699 -2.8664601 0.84961402 1261613746
0.70398599 -1.5535001 1.05469 1257699062
-0.462542 -2.80969 0.77710599 1259705749
0.758735 -2.3460701 1.1161 1260429472
-0.37031999 -2.0436299 0.72403002 1258093820
-0.13692801 -2.2000899 0.91448599 1260166300
-0.146401 -1.64055 0.99923003 1256383202
0.37631699 -1.76364 1.02552 1260692644
0.48726699 -1.55539 0.97334999 1258982026
-0.352541 -2.0359001 0.785061 1260232093
-0.378198 -1.97386 0.73844498 1259639956
-0.173547 -2.1161699 0.88923001 1256120030
-0.45061401 -2.7976201 0.85544902 1260626851
0.87115198 -1.43917 0.92922902 1260429472
0.208414 -1.98952 0.85469401 1255856858
0.43542999 -1.97412 0.87991202 1257172718
0.69311798 -1.86026 1.16966 1261613746
0.118569 -1.59307 0.992724 1255198928
-0.457582 -2.7797501 0.85133702 1261153195
0.16821399 -1.56511 0.96865201 1256646374
0.76338202 -1.47876 0.96883398 1255725272
0.93260998 -1.9315799 0.93913502 1262074297
-0.26623699 -2.0503099 0.83940601 1257435890
-0.00268063 -2.1066 0.92917401 1256251616
0.179362 -2.10566 0.95878297 1256646374
0.49276301 -2.0544701 0.97733098 1257962234
0.054646701 -1.57814 0.95889997 1257172718
0.55915803 -2.0609 0.99372298 1256777960
0.032721501 -1.5798 0.95605803 1257699062
0.66295999 -1.87906 1.17005 1260232093
0.66867399 -2.0364699 1.00002 1258916233
-0.076258697 -1.58392 0.93619299 1258093820
0.799891 -2.00488 0.999982 1259376784
-0.45842701 -2.7193201 0.89293098 1261613746
-0.090598598 -1.5836 0.93239099 1257435890
0.47096699 -1.90604 1.14701 1258521475
-0.151357 -1.5861 0.92160398 1258093820
-0.121948 -1.59152 0.911062 1257830648
0.85448402 -1.54901 1.10159 1259245198
0.19993401 -1.92522 1.10031 1258324096
0.99508399 -2.1275201 0.92020398 1261218988
-0.234707 -1.60771 0.906892 1257172718
0.408209 -1.98499 1.0624 1258225406
0.249525 -1.89771 1.072 1258718854
-0.34527299 -1.96734 0.79690999 1261547953
-0.29248801 -2.26406 0.73950797 1260363679
0.94516701 -2.4110799 1.01451 1261021609
-0.40489399 -1.77246 0.76310199 1257830648
-0.21410599 -1.59526 0.91536498 1256777960
0.841685 -1.5125 1.1260999 1260297886
0.86595798 -2.3383801 0.964921 1260626851
-0.274872 -1.9333301 0.96063101 1260297886
-0.29897299 -1.6052099 0.90921801 1257962234
0.91291898 -1.86217 0.95383698 1261811125
-0.330964 -2.2630899 0.76740801 1260100507
0.933887 -2.3847301 1.03699 1261153195
0.293475 -1.89026 1.06835 1259771542
-0.42663401 -1.86764 0.79750597 1259771542
-0.365058 -2.0513401 0.97851199 1260626851
0.86558503 -2.3449399 1.0913399 1258521475
0.94345599 -1.74338 0.938972 1260692644
-0.35147601 -1.8325 0.803065 1260297886
0.76363802 -2.0404799 0.884157 1259310991
0.29288301 -1.92443 1.11251 1258916233
0.90039599 -1.7618901 0.96556097 1261547953
0.97746903 -2.0283201 0.912305 1260758437
-0.34319201 -1.77974 0.77775902 1262337469
0.83683002 -1.89612 1.19212 1259376784
-0.404459 -1.7723 0.768664 1260824230
0.93152303 -1.71842 0.94887203 1262666434
-0.36295599 -2.0794499 0.75614899 1260692644
-0.32172301 -2.0111101 1.00605 1261153195
0.0506058 -1.58148 0.937307 1257435890
0.31023401 -1.56396 1.00359 1258784647
0.733953 -1.5501699 1.05269 1259179405
-0.36383599 -2.0201499 1.02701 1261087402
0.39375699 -1.56041 0.99229598 1256514788
0.58463401 -1.54708 1.0184 1257699062
0.907049 -1.6984 0.97857398 1262008504
0.94062197 -1.92952 0.86084199 1259639956
-0.227264 -1.9805 1.05384 1259639956
-0.216161 -1.9674799 1.04331 1259508370
-0.38439599 -2.0246301 0.74094599 1258389889
-0.356408 -2.0868399 0.79261398 1260561058
0.89355302 -1.69376 0.97621 1261547953
0.92942703 -1.63525 0.92644799 1259903128
-0.264992 -2.08061 0.80084097 1260166300
-0.246536 -2.0957699 0.81487101 1260955816
-0.287157 -1.9759099 1.04396 1259047819
0.65216798 -1.8651299 1.12308 1259508370
0.67057002 -1.85888 1.12026 1259903128
-0.36058101 -1.71996 0.80571902 1261745332
-0.31946301 -1.85525 0.95032102 1259837335
0.064849697 -2.12778 0.89994699 1259705749
-0.42061901 -1.7378401 0.82113099 1260955816
0.270953 -2.07324 0.89144802 1259310991
-0.26027599 -1.84253 0.95309901 1260561058
0.443941 -1.89086 1.12658 1259376784
-0.368404 -2.01403 0.75975698 1260692644
0.91052699 -2.0071399 1.02615 1260626851
-0.114006 -1.83004 0.97163498 1261416367
0.93226701 -2.03722 0.98539102 1261613746
-0.058992699 -1.83354 0.984963 1261416367
-0.25027901 -1.99265 0.774261 1259639956
0.913122 -1.69716 0.895015 1261482160
0.48266101 -1.98715 0.88544297 1259245198
-0.407076 -1.8877701 0.85564899 1260824230
0.96880502 -1.9381599 0.928904 1260955816
0.096591003 -1.80547 1.01379 1260758437
0.92147899 -1.95243 0.94090903 1261811125
0.24846201 -2.0555699 0.93160701 1257172718
0.30664399 -1.98361 0.88895798 1258225406
0.33477199 -2.04001 0.93766201 1257962234
0.89381301 -1.78116 0.92581302 1260955816
0.37268001 -2.2437201 0.98845398 1259113612
-0.46308601 -2.7646799 0.869717 1260692644
-0.38974699 -2.9909999 0.79714298 1260824230
-0.438021 -2.84375 0.84454101 1261087402
-0.334016 -2.2548599 0.77420402 1260363679
-0.40602899 -2.96804 0.72541499 1260561058
-0.384426 -1.93153 0.74184299 1258850440
0.58661997 -2.04722 0.988056 1257435890
0.90850002 -1.98474 1.04057 1261679539
-0.38203201 -1.91003 0.77331001 1261021609
-0.338705 -1.90783 0.78266799 1261745332
0.95206797 -1.83227 0.93123299 1261876918
-0.38481799 -1.8737299 0.77529502 1261021609
-0.34451199 -1.86687 0.79261601 1261021609
0.84428799 -1.57461 0.902345 1260297886
-0.269137 -1.97711 0.92264801 1260561058
0.85913497 -1.5826401 0.90124297 1261087402
0.93998098 -1.72374 0.93795002 1261416367
0.91308802 -1.75457 0.965505 1262534848
-0.35586399 -1.7495 0.80138201 1260824230
-0.40887299 -1.71991 0.77212 1260297886
0.160256 -1.90531 1.06489 1258784647
0.92611402 -1.6272 0.95248401 1261876918
-0.405249 -1.75485 0.849433 1261613746
0.53421497 -1.87205 1.14477 1261350574
0.89596403 -1.62896 0.97083598 1262403262
-0.423704 -1.6216 0.786654 1259245198
0.26505399 -1.6739399 0.97956699 1259837335
0.57407498 -1.53696 0.91656101 1260034714
0.87919599 -1.49868 0.98122501 1261679539
0.40026999 -1.5669 0.98061299 1259574163
0.32542601 -1.52244 0.91932398 1259442577
0.42849401 -1.52123 0.95173901 1258455682
0.54371202 -1.5657099 1.03122 1258718854
0.65005302 -1.55209 1.04096 1258718854
0.80804801 -1.80103 1.1123101 1258784647
0.029288599 -1.5811501 0.95787501 1258521475
0.49990401 -1.5605 1.04093 1258784647
0.57555801 -1.5623699 1.06318 1259113612
0.782345 -1.61053 1.16748 1259442577
-0.40773901 -1.52651 0.84244102 1260955816
0.89143097 -1.3964601 0.95780098 1261679539
0.86835498 -1.40266 0.98844498 1262534848
0.86801702 -1.52674 1.16627 1261547953
0.85052103 -1.38916 0.986332 1261745332
-0.081199303 -1.59665 0.93896598 1256909546
-0.317846 -2.05303 0.98649901 1260297886
0.84482402 -1.50577 1.17197 1261153195
0.53888798 -1.75965 1.06408 1261745332
0.845676 -1.34706 0.99135703 1261416367
-0.36759901 -1.61528 0.81159598 1262008504
0.84064299 -1.7394 1.1141599 1261416367
-0.30651101 -1.64209 0.93607402 1259442577
-0.41152501 -1.74371 0.88033301 1261087402
-0.165674 -1.64827 0.91715598 1261811125
-0.067043804 -1.61931 0.91290098 1260363679
0.85352999 -1.62119 1.0566 1261284781
-0.136555 -1.64055 1.00749 1256777960
0.044628602 -1.59034 0.92835999 1259310991
0.84647 -1.53652 0.99477601 1262337469
0.849935 -1.48972 0.91764599 1260561058
-0.40198299 -1.6632 0.90267903 1262469055
0.50195402 -1.5723 0.97828102 1259837335
0.53341103 -1.90556 1.15527 1258916233
0.85074598 -1.40811 0.968813 1260890023
0.44200799 -1.5616 0.96394098 1261218988
-0.232071 -1.58763 0.87262499 1260363679
0.24276599 -1.56539 0.939031 1260297886
0.85680002 -1.44296 0.98480099 1261679539
-0.327153 -2.1986799 0.67767 1258093820
0.26929101 -1.5630701 0.94612497 1259837335
-0.34610701 -1.55674 0.901057 1260232093
0.38665101 -1.5666 0.97292602 1259705749
0.58676797 -1.55765 1.00143 1260166300
-0.39325699 -1.80066 0.83327597 1260692644
0.309771 -1.8753901 1.05594 1259968921
0.41083899 -1.88861 1.08947 1259968921
0.0597325 -1.58189 0.94577098 1257304304
0.54976398 -1.8694 1.0964 1260495265
0.162589 -1.9082299 1.06609 1258982026
0.492165 -1.8746001 1.09507 1259508370
0.55302697 -1.87121 1.10338 1260100507
0.59491599 -1.84744 1.08657 1260297886
0.642977 -1.84016 1.08829 1260166300
0.37061501 -2.1768601 0.90481299 1258916233
-0.40584499 -1.72642 0.76738799 1259047819
-0.31069699 -2.1147699 0.75838101 1260034714
0.70570397 -1.86598 1.13222 1259574163
-0.35823199 -1.7474101 0.80963898 1260495265
-0.361875 -2.1190901 0.75691599 1260429472
0.86132401 -1.36455 0.98950797 1261942711
0.82568997 -1.55696 1.08125 1260232093
0.89081103 -1.88822 1.21088 1259574163
-0.40598601 -1.70822 0.76877201 1259442577
0.50279301 -1.8896199 1.14496 1260034714
0.201114 -1.56963 0.982916 1258324096
0.74949199 -2.2885101 1.07683 1260955816
-0.40951601 -1.6965899 0.76937097 1258587268
0.61817801 -1.84197 1.13462 1261350574
0.71696502 -1.8612 1.17548 1261482160
0.29696301 -2.1408801 0.90094101 1259442577
0.87599498 -1.81788 1.16917 1261416367
-0.409511 -1.6876301 0.76997697 1258784647
-0.372224 -2.0402701 0.724518 1257435890
-0.40283599 -1.75562 0.84663999 1260955816
-0.36134499 -1.70742 0.81250203 1260758437
0.416502 -1.7591799 1.03295 1260890023
0.830203 -2.0485499 0.961972 1260955816
-0.040085498 -1.8198299 1.01668 1260561058
0.101945 -2.12784 0.90910298 1259442577
0.738352 -1.68686 1.05946 1262469055
-0.413441 -1.64437 0.77621001 1259310991
0.73468298 -2.0436399 0.950351 1261416367
0.85442901 -1.64581 1.057 1262008504
-0.36243701 -1.65228 0.81082201 1261284781
0.92597598 -1.97528 0.93946397 1261876918
-0.417409 -1.62361 0.77913499 1258653061
0.91025901 -1.6099499 1.05141 1261482160
-0.26804399 -2.09202 0.85433501 1257304304
-0.41637501 -1.61412 0.78215301 1259442577
-0.23344301 -2.11167 0.875736 1256514788
-0.22022501 -2.1170199 0.88219899 1256383202
-0.42106101 -1.68278 0.86955303 1260626851
-0.179435 -2.09021 0.86749601 1256251616
-0.43176401 -1.86256 0.83621299 1260363679
0.020558801 -2.1069801 0.91393501 1256383202
0.122918 -1.61533 0.92422098 1259574163
-0.41867599 -1.59614 0.78457701 1259903128
0.36380801 -1.97821 0.867742 1257830648
0.87894601 -1.69633 0.92566502 1261416367
0.0926973 -2.0868199 0.91356897 1255462100
0.22864901 -1.6876301 1.05633 1260429472
0.52819401 -1.57503 0.97899801 1260429472
0.76989502 -2.0408499 1.0006 1258587268
0.89204502 -1.59276 1.0869499 1262666434
0.45591199 -1.5994101 1.0068099 1261284781
-0.22789399 -2.06971 0.861588 1256777960
0.78375798 -1.59144 1.06994 1262008504
-0.13955 -2.1134601 0.91191399 1256777960
0.71215397 -1.55384 1.00949 1261547953
0.052669801 -2.07512 0.89754701 1255462100
-0.36012 -1.8516099 0.73144901 1259771542
0.17982499 -2.04742 0.89640301 1255725272
0.283591 -1.56127 0.94309598 1259705749
0.75177598 -1.51543 1.12745 1259179405
-0.39446101 -1.87122 0.75954801 1259968921
