# .PCD v0.7 - Point Cloud Data file format
VERSION 0.7
FIELDS x y z rgb
SIZE 4 4 4 4
TYPE F F F U
COUNT 1 1 1 1
WIDTH 1148
HEIGHT 1
VIEWPOINT 0 0 0 1 0 0 0
POINTS 1148
DATA ascii
-0.20503899 -0.36068901 1.04617 1257567476
-0.20503899 -0.36068901 1.04688 1257699062
-0.073963404 -0.35847801 1.03861 1258455682
-0.073963501 -0.35847801 1.04088 1258389889
-0.073963404 -0.35847801 1.0383199 1258324096
-0.073963404 -0.35847801 1.03815 1258093820
-0.073963299 -0.35847801 1.03791 1258225406
-0.073963404 -0.35847801 1.03782 1258455682
-0.073963404 -0.35847801 1.0395 1258455682
-0.073963404 -0.35847801 1.03768 1258521475
0.029925101 -0.35886201 1.03887 1258093820
0.0299253 -0.35886201 1.03908 1258784647
0.029925199 -0.35886201 1.04125 1258784647
0.029925199 -0.35886201 1.04202 1258455682
0.029925199 -0.35886201 1.03948 1258455682
0.029925199 -0.35886201 1.04125 1258389889
0.029925101 -0.35886201 1.03909 1258718854
0.029925199 -0.35886201 1.04054 1258718854
0.11144 -0.35909599 1.04205 1257435890
0.11144 -0.35909599 1.0407 1258850440
0.11144 -0.35909599 1.04135 1258850440
0.11144 -0.35909599 1.04083 1258653061
0.11144 -0.35909599 1.0423599 1258653061
0.11144 -0.35909599 1.04035 1258653061
0.11144 -0.35909599 1.03939 1258718854
0.11144 -0.35909599 1.03982 1258850440
0.13264699 -0.360181 1.04501 1256514788
0.13264699 -0.360181 1.04363 1258653061
0.13264699 -0.360181 1.04495 1258653061
0.13264699 -0.360181 1.04529 1258455682
0.13264699 -0.360181 1.04526 1258455682
0.13264699 -0.360181 1.04378 1258455682
0.13264699 -0.360181 1.04482 1258718854
0.13264699 -0.360181 1.04292 1258916233
-0.36219999 -0.35575899 1.03534 1259113612
-0.36219999 -0.35575899 1.03627 1258784647
-0.36219999 -0.35575899 1.03549 1260692644
-0.36219999 -0.35575899 1.03622 1259771542
-0.36219999 -0.35575899 1.03547 1259639956
-0.36219999 -0.35575899 1.03599 1260561058
-0.36219999 -0.35575899 1.03817 1258916233
-0.36219999 -0.35575899 1.0382299 1260626851
-0.38222399 -0.34694999 1.0171601 1255725272
-0.38222399 -0.34694999 1.0165499 1255725272
-0.38222399 -0.34694999 1.0161099 1255725272
-0.38222399 -0.34694999 1.01679 1255593686
-0.38222399 -0.34694999 1.01761 1255593686
-0.38222399 -0.34694999 1.01623 1256383202
-0.38222399 -0.34694999 1.0173301 1255593686
-0.38222399 -0.34694999 1.01676 1255988444
-0.35505599 -0.353618 1.03697 1261021609
-0.35505599 -0.353618 1.03596 1260890023
-0.35505599 -0.353618 1.03571 1259113612
-0.35505599 -0.353618 1.03634 1260692644
-0.35505599 -0.353618 1.03732 1260100507
-0.35505599 -0.353618 1.03465 1258587268
-0.35505599 -0.353618 1.03684 1261021609
-0.35505599 -0.353618 1.03517 1259047819
-0.28739101 -0.355308 1.03938 1258521475
-0.28739101 -0.355308 1.03951 1258521475
-0.28739101 -0.355308 1.04189 1258653061
-0.28739101 -0.355308 1.03952 1258587268
-0.28739101 -0.355308 1.04272 1258587268
-0.28739101 -0.355308 1.04039 1258718854
-0.28739101 -0.355308 1.03995 1258718854
-0.28739101 -0.355308 1.03949 1258718854
-0.19743299 -0.355692 1.04269 1257830648
-0.19743299 -0.355692 1.0414701 1257962234
-0.19743299 -0.355692 1.0417399 1257830648
-0.19743299 -0.355692 1.0430599 1257830648
-0.19743299 -0.355692 1.0423599 1257830648
-0.19743299 -0.355692 1.04135 1257172718
-0.19743299 -0.355692 1.04273 1258324096
-0.19743299 -0.355692 1.0412 1258225406
-0.37588099 -0.34392601 1.01399 1258521475
-0.37588099 -0.34392601 1.01151 1256383202
-0.37588099 -0.34392601 1.01408 1260363679
-0.37588099 -0.34392601 1.01331 1255988444
-0.37588099 -0.34392601 1.01283 1259639956
-0.37588 -0.34392601 1.0131299 1259837335
-0.37588099 -0.34392601 1.01179 1257830648
-0.37588099 -0.34392601 1.01195 1260100507
-0.36427799 -0.35037899 1.03931 1258916233
-0.36427799 -0.35037899 1.03769 1259310991
-0.36427799 -0.35037899 1.0384901 1260626851
-0.36427799 -0.35037899 1.0387599 1260034714
-0.36427799 -0.35038 1.03792 1259837335
-0.36427799 -0.35037899 1.03746 1260824230
-0.36427799 -0.35037899 1.03952 1258784647
-0.36427799 -0.35037899 1.03794 1260758437
-0.35670599 -0.34973499 1.03571 1260955816
-0.35670599 -0.34973601 1.03667 1260890023
-0.35670599 -0.34973601 1.03619 1259574163
-0.35670599 -0.34973601 1.0355999 1260824230
-0.35670599 -0.34973601 1.03424 1260890023
-0.35670599 -0.34973499 1.03678 1258521475
-0.35670599 -0.34973499 1.03573 1261087402
-0.35670599 -0.34973499 1.03643 1260297886
0.16569901 -0.34885699 1.0317301 1256514788
0.16569901 -0.34885699 1.0344 1256251616
0.16569801 -0.34885699 1.0329601 1258521475
0.16569901 -0.34885699 1.0335799 1258225406
0.16569901 -0.34885699 1.0318201 1258324096
0.16569901 -0.34885699 1.03174 1258850440
0.16569901 -0.34885699 1.03429 1259705749
0.16569901 -0.34885699 1.03435 1260363679
-0.35501301 -0.34786299 1.03441 1259574163
-0.355012 -0.34786299 1.03615 1260890023
-0.35501301 -0.34786299 1.0354199 1258521475
-0.355012 -0.34786299 1.0357701 1261087402
-0.355012 -0.34786299 1.0343601 1258521475
-0.355012 -0.34786299 1.03571 1258653061
-0.355012 -0.34786299 1.03623 1260297886
-0.355012 -0.34786299 1.03756 1258389889
0.163985 -0.34697399 1.03468 1256251616
0.163985 -0.34697399 1.03255 1258225406
0.163985 -0.34697399 1.03414 1258324096
0.163985 -0.34697399 1.0330499 1260495265
0.163985 -0.34697399 1.03391 1259705749
0.163985 -0.34697399 1.0341001 1259376784
0.163985 -0.34697399 1.03488 1260363679
0.163985 -0.34697399 1.03198 1260429472
0.214194 -0.36932099 1.10574 1260692644
0.214194 -0.36932099 1.10607 1259310991
0.214194 -0.36932099 1.10601 1261021609
0.214194 -0.36932099 1.10579 1260626851
0.214194 -0.36932099 1.10514 1260232093
0.214194 -0.36932099 1.10765 1261021609
0.214194 -0.36932099 1.1045001 1259771542
0.214194 -0.36932099 1.10525 1259442577
-0.37799001 -0.336853 1.01516 1258455682
-0.37799001 -0.336853 1.01423 1255988444
-0.37799001 -0.336853 1.01554 1260297886
-0.37799001 -0.336853 1.01535 1256120030
-0.37799001 -0.336853 1.0143501 1260363679
-0.37799001 -0.336853 1.01478 1259837335
-0.37799001 -0.336853 1.01465 1258587268
-0.37799001 -0.336853 1.01447 1260626851
-0.37189901 -0.339001 1.01968 1258850440
-0.37189901 -0.339001 1.02224 1258587268
-0.37189901 -0.339001 1.0224 1260626851
-0.37189901 -0.339001 1.01975 1259574163
-0.37189901 -0.339001 1.0202399 1259705749
-0.37189901 -0.339001 1.02092 1260363679
-0.37189901 -0.339001 1.01958 1258850440
-0.37189901 -0.339001 1.01981 1260034714
-0.36405799 -0.34445 1.03821 1260232093
-0.36405799 -0.34445 1.03845 1258784647
-0.36405799 -0.34445 1.03759 1260890023
-0.36405799 -0.34445 1.0369999 1258982026
-0.36405799 -0.34445 1.0374399 1261021609
-0.36405799 -0.34445 1.03736 1260890023
-0.36405799 -0.34445 1.03731 1259245198
-0.36405799 -0.34445 1.03891 1260758437
-0.38111699 -0.33104199 1.0121599 1256383202
-0.38111699 -0.33104199 1.01206 1256120030
-0.38111699 -0.33104199 1.01342 1258916233
-0.38111699 -0.33104199 1.01305 1255988444
-0.38111699 -0.33104199 1.01525 1256909546
-0.38111699 -0.33104199 1.01371 1260692644
-0.38111699 -0.33104199 1.01403 1255988444
-0.38111699 -0.33104199 1.0144 1258916233
-0.365668 -0.336716 1.03857 1259771542
-0.365668 -0.336716 1.03677 1258718854
-0.365668 -0.336716 1.03696 1260890023
-0.365668 -0.33671701 1.03687 1259113612
-0.365668 -0.336716 1.0355099 1260824230
-0.365668 -0.336716 1.03557 1260758437
-0.365668 -0.336716 1.0353 1259508370
-0.365668 -0.336716 1.0361201 1260758437
-0.357373 -0.33351699 1.03131 1259771542
-0.357373 -0.33351699 1.0312099 1261021609
-0.357373 -0.33351699 1.0327899 1258225406
-0.357373 -0.33351699 1.03248 1260890023
-0.357373 -0.33351699 1.03306 1259179405
-0.357373 -0.33351699 1.03328 1258587268
-0.357373 -0.33351699 1.03321 1260626851
-0.357373 -0.33351699 1.0323499 1258521475
-0.38205299 -0.32481399 1.01117 1255988444
-0.382054 -0.32481399 1.01159 1255856858
-0.38205299 -0.32481399 1.01045 1258916233
-0.38205299 -0.32481399 1.01108 1255725272
-0.38205299 -0.32481399 1.01334 1256646374
-0.38205299 -0.32481399 1.01252 1260232093
-0.38205299 -0.32481399 1.01015 1255856858
-0.38205299 -0.32481399 1.01332 1258225406
-0.36785099 -0.33021501 1.02756 1260034714
-0.36785099 -0.33021501 1.0287499 1260297886
-0.36785099 -0.33021501 1.02846 1258850440
-0.36785099 -0.33021501 1.02793 1260297886
-0.36785099 -0.33021501 1.02918 1259508370
-0.36785099 -0.33021501 1.02862 1259705749
-0.36785099 -0.33021501 1.0289 1260429472
-0.36785099 -0.33021501 1.02935 1258982026
-0.38332599 -0.32260701 1.01077 1255856858
-0.38332599 -0.32260799 1.00923 1255725272
-0.38332599 -0.32260799 1.00937 1256646374
-0.38332599 -0.32260799 1.00929 1255725272
-0.38332599 -0.32260701 1.01133 1255856858
-0.38332599 -0.32260799 1.0114 1259442577
-0.38332599 -0.32260701 1.01047 1255856858
-0.38332599 -0.32260799 1.0096 1256120030
-0.36617899 -0.329905 1.03503 1259508370
-0.36617899 -0.329905 1.03262 1258587268
-0.36617899 -0.329905 1.03263 1260758437
-0.36617899 -0.329905 1.03421 1259245198
-0.36617899 -0.329905 1.0337501 1260034714
-0.36617899 -0.329905 1.0327899 1260955816
-0.36617899 -0.329905 1.0336 1258982026
-0.36617899 -0.329905 1.03497 1260890023
-0.36625201 -0.328071 1.03465 1259705749
-0.36625201 -0.328071 1.0343 1258587268
-0.36625201 -0.328071 1.0328701 1260692644
-0.36625201 -0.328071 1.03465 1258982026
-0.36625201 -0.328071 1.03346 1260626851
-0.36625201 -0.328071 1.0330499 1261021609
-0.36625201 -0.328071 1.03462 1259310991
-0.36625201 -0.328071 1.03425 1260890023
-0.36066699 -0.32579201 1.0338399 1261021609
-0.36066699 -0.32579201 1.03168 1261021609
-0.36066699 -0.32579201 1.0307699 1259508370
-0.36066699 -0.32579201 1.03281 1260890023
-0.36066699 -0.32579201 1.03354 1260758437
-0.36066699 -0.32579201 1.03291 1258653061
-0.36066699 -0.32579201 1.03196 1260955816
-0.36066699 -0.32579201 1.03203 1260297886
-0.381643 -0.317036 1.01138 1258225406
-0.381643 -0.317036 1.01059 1256120030
-0.381643 -0.317036 1.01057 1260166300
-0.381643 -0.317036 1.01046 1256251616
-0.381643 -0.317036 1.00973 1259245198
-0.381643 -0.317036 1.01215 1260363679
-0.381643 -0.317036 1.01117 1257172718
-0.381643 -0.317036 1.0096101 1259574163
0.168273 -0.325822 1.0377001 1260363679
0.168273 -0.325822 1.04015 1259639956
0.168273 -0.325822 1.04014 1260692644
0.168273 -0.325822 1.03974 1259113612
0.168273 -0.325822 1.03778 1259968921
0.168273 -0.325822 1.03857 1260824230
0.168273 -0.325822 1.03956 1259245198
0.168273 -0.325822 1.03706 1259179405
-0.38130301 -0.314899 1.00859 1258521475
-0.38130301 -0.314899 1.00815 1256777960
-0.38130301 -0.314899 1.01083 1260100507
-0.38130301 -0.314899 1.01009 1256120030
-0.38130301 -0.314899 1.0092601 1259442577
-0.38130301 -0.314899 1.01011 1260166300
-0.38130301 -0.314899 1.00901 1258225406
-0.38130301 -0.314899 1.00894 1259705749
-0.368058 -0.32054499 1.03477 1259968921
-0.368058 -0.32054499 1.03425 1258718854
-0.368058 -0.32054499 1.03272 1260955816
-0.368058 -0.32054499 1.03219 1259047819
-0.368058 -0.32054499 1.03415 1260626851
-0.368058 -0.32054499 1.03506 1260758437
-0.368058 -0.32054499 1.03293 1258850440
-0.368058 -0.32054499 1.03496 1260692644
-0.136117 -0.32628101 1.06604 1258718854
-0.136117 -0.32628101 1.06384 1258587268
-0.136117 -0.32628101 1.06552 1256251616
-0.136117 -0.32628101 1.06341 1258587268
-0.136117 -0.32628101 1.06557 1257567476
-0.136116 -0.32628101 1.06471 1256646374
-0.136117 -0.32628101 1.0635999 1258389889
-0.136116 -0.32628101 1.06621 1254804170
-0.38738 -0.30457601 1.0122401 1256251616
-0.38738 -0.30457601 1.01386 1255856858
-0.38738 -0.30457601 1.01223 1258850440
-0.38738 -0.30457601 1.01351 1256120030
-0.38738 -0.30457601 1.01262 1257172718
-0.38738 -0.30457601 1.01325 1260100507
-0.38738 -0.30457601 1.01109 1256251616
-0.38738 -0.30457601 1.01231 1258324096
0.20472001 -0.31530601 1.04661 1261218988
0.20472001 -0.31530601 1.04638 1259639956
0.20472001 -0.31530601 1.04707 1260626851
0.20472001 -0.31530601 1.04646 1259113612
0.20472001 -0.31530601 1.0472701 1260758437
0.20472001 -0.31530601 1.04746 1259574163
0.20472001 -0.31530601 1.0489 1258982026
0.20472001 -0.31530601 1.04643 1260232093
-0.371571 -0.309203 1.03555 1258521475
-0.371571 -0.309203 1.03544 1258850440
-0.371571 -0.309203 1.03248 1260626851
-0.371571 -0.309203 1.03411 1259903128
-0.371571 -0.309203 1.03491 1259837335
-0.371571 -0.309203 1.03327 1260758437
-0.371571 -0.309203 1.03347 1258850440
-0.371571 -0.309203 1.03418 1260890023
-0.36250201 -0.30881301 1.03254 1259508370
-0.36250201 -0.30881301 1.0343699 1260429472
-0.36250201 -0.30881301 1.03304 1258653061
-0.36250201 -0.30881301 1.03136 1260692644
-0.36250201 -0.30881301 1.03236 1258718854
-0.36250201 -0.30881301 1.03338 1258587268
-0.36250201 -0.30881301 1.03423 1260100507
-0.36250201 -0.30881301 1.03395 1258587268
-0.135184 -0.31627101 1.0581599 1254804170
-0.135184 -0.31627101 1.05733 1257567476
-0.135184 -0.31627101 1.05837 1256383202
-0.135184 -0.31627101 1.0566601 1258455682
-0.135184 -0.31627101 1.0564899 1258324096
-0.135184 -0.31627101 1.0588 1258784647
-0.135184 -0.31627101 1.05836 1258718854
-0.135184 -0.31627101 1.05678 1258718854
-0.381973 -0.30191201 1.01701 1259903128
-0.381973 -0.30191201 1.0172499 1260363679
-0.381973 -0.30191201 1.0151401 1258916233
-0.381973 -0.30191201 1.01454 1260297886
-0.381973 -0.30191201 1.0149601 1259639956
-0.381973 -0.30191201 1.01424 1259310991
-0.381973 -0.30191201 1.01463 1260034714
-0.381973 -0.30191201 1.01472 1259310991
-0.37148899 -0.30723399 1.03523 1258850440
-0.37148899 -0.30723399 1.03267 1258455682
-0.37148899 -0.30723399 1.03438 1260890023
-0.37148899 -0.30723399 1.03434 1259442577
-0.37148899 -0.30723399 1.03359 1260363679
-0.37148899 -0.30723399 1.0355 1260890023
-0.371488 -0.30723399 1.03273 1259310991
-0.37148899 -0.30723399 1.03509 1260955816
-0.365863 -0.30115601 1.03409 1261021609
-0.365863 -0.30115601 1.03343 1261021609
-0.365863 -0.30115601 1.0341001 1259047819
-0.365863 -0.30115601 1.03197 1261087402
-0.365863 -0.30115601 1.03233 1260363679
-0.365863 -0.30115601 1.03385 1258784647
-0.365863 -0.30115601 1.03143 1260955816
-0.365863 -0.30115601 1.0310301 1259113612
0.16913299 -0.30254701 1.04312 1260429472
0.16913299 -0.30254701 1.04518 1259574163
0.16913299 -0.30254701 1.04308 1260297886
0.16913299 -0.30254701 1.04364 1259376784
0.16913299 -0.30254701 1.04451 1259903128
0.16913299 -0.30254701 1.04544 1260429472
0.16913299 -0.30254701 1.04444 1258916233
0.16913299 -0.30254701 1.04389 1259179405
-0.38199601 -0.29389599 1.02163 1259376784
-0.38199601 -0.29389599 1.02192 1259179405
-0.38199601 -0.29389599 1.02078 1260429472
-0.38199601 -0.29389599 1.01896 1259574163
-0.38199601 -0.29389599 1.02193 1260100507
-0.38199601 -0.29389599 1.02118 1260429472
-0.38199601 -0.29389599 1.0194499 1259179405
-0.38199601 -0.29389599 1.0216 1260495265
-0.37462899 -0.29749301 1.03424 1258455682
-0.37462899 -0.29749301 1.0342 1259639956
-0.37462899 -0.29749301 1.0329 1260561058
-0.37462899 -0.29749301 1.03227 1260429472
-0.37462899 -0.29749301 1.03414 1259245198
-0.37462899 -0.29749301 1.03352 1260824230
-0.37462899 -0.29749301 1.03179 1258916233
-0.37462899 -0.29749301 1.03398 1259376784
0.219831 -0.29863599 1.0367 1259771542
0.219831 -0.29863501 1.03564 1261416367
0.219831 -0.29863599 1.0356899 1260429472
0.21983001 -0.29863501 1.03821 1261284781
0.219831 -0.29863501 1.03868 1260429472
0.219831 -0.29863599 1.0362999 1261153195
0.219831 -0.29863501 1.03842 1261416367
0.219831 -0.29863599 1.03615 1261416367
-0.36758801 -0.29167199 1.0313801 1260890023
-0.36758801 -0.29167199 1.0314 1261021609
-0.36758801 -0.29167199 1.0331399 1258653061
-0.36758801 -0.29167199 1.03368 1261087402
-0.36758801 -0.29167199 1.03118 1259705749
-0.36758801 -0.29167199 1.03193 1258850440
-0.36758801 -0.29167199 1.03192 1260890023
-0.36758801 -0.29167199 1.03404 1258521475
-0.36744699 -0.28776601 1.03124 1259705749
-0.36744699 -0.28776601 1.03352 1260890023
-0.36744699 -0.28776601 1.03379 1258850440
-0.36744699 -0.28776601 1.03097 1261284781
-0.36744699 -0.28776601 1.03249 1258521475
-0.36744699 -0.28776601 1.03101 1258850440
-0.36744699 -0.28776601 1.03379 1260561058
-0.36744699 -0.28776601 1.0319999 1258718854
-0.31766501 -0.290654 1.04774 1258389889
-0.31766501 -0.290654 1.04926 1259376784
-0.31766501 -0.290654 1.05029 1258389889
-0.31766501 -0.290654 1.05065 1260100507
-0.31766501 -0.290654 1.04803 1259376784
-0.31766501 -0.290654 1.05081 1258455682
-0.31766501 -0.290654 1.0499001 1260232093
-0.31766501 -0.290654 1.0494699 1259903128
-0.37880901 -0.28157499 1.03203 1259903128
-0.37880901 -0.28157601 1.03118 1260561058
-0.37880901 -0.28157601 1.02983 1258850440
-0.37880901 -0.28157601 1.03198 1260495265
-0.37880901 -0.28157601 1.02876 1259113612
-0.37880901 -0.28157601 1.02951 1260561058
-0.37880901 -0.28157601 1.02941 1260232093
-0.37880901 -0.28157601 1.02931 1258982026
-0.37649 -0.28241101 1.0331399 1260166300
-0.37649 -0.28241101 1.03478 1258850440
-0.37649 -0.28241101 1.03177 1261087402
-0.37649 -0.28241101 1.0334899 1259113612
-0.37649 -0.28241101 1.0324301 1260561058
-0.37649 -0.28241101 1.03286 1261218988
-0.37649 -0.28241101 1.03325 1259442577
-0.37649 -0.28241101 1.03324 1261218988
0.034848299 -0.296729 1.08489 1258982026
0.034848399 -0.296729 1.08559 1259179405
0.034848299 -0.296729 1.08622 1259245198
0.034848299 -0.296729 1.08705 1258982026
0.034848299 -0.296729 1.08619 1258982026
0.034848299 -0.296729 1.08614 1258916233
0.034848299 -0.296729 1.08508 1258850440
0.034848299 -0.296729 1.0862401 1258653061
-0.37093699 -0.28021699 1.0307 1261284781
-0.37093699 -0.28021699 1.03071 1261218988
-0.37093699 -0.28021699 1.0321701 1259113612
-0.37093601 -0.28021699 1.0310301 1261284781
-0.37093699 -0.28021699 1.03378 1260495265
-0.37093699 -0.28021699 1.0309 1259047819
-0.37093601 -0.28021699 1.0327801 1261416367
-0.37093699 -0.28021699 1.03377 1259639956
0.22348601 -0.28173599 1.03912 1260166300
0.22348601 -0.28173599 1.03965 1261613746
0.22348601 -0.28173599 1.03936 1260034714
0.22348601 -0.28173599 1.03927 1261613746
0.22348601 -0.28173599 1.03711 1260692644
0.22348601 -0.281737 1.03671 1261087402
0.22348601 -0.281737 1.03652 1261482160
0.22348601 -0.28173599 1.03859 1261416367
-0.38953099 -0.27446201 1.01668 1260100507
-0.38953099 -0.27446201 1.01744 1260363679
-0.38953099 -0.27446201 1.01816 1258587268
-0.38953099 -0.27446201 1.01872 1260692644
-0.38953099 -0.27446201 1.01943 1259968921
-0.38953099 -0.27446201 1.01916 1260166300
-0.38953099 -0.27446201 1.01741 1260297886
-0.38953099 -0.27446201 1.01955 1259047819
-0.37815601 -0.27857199 1.03456 1258718854
-0.37815601 -0.27857199 1.03425 1258916233
-0.37815601 -0.27857199 1.03184 1261021609
-0.37815601 -0.27857199 1.03432 1259837335
-0.37815601 -0.27857199 1.03456 1260561058
-0.37815601 -0.27857199 1.03404 1261416367
-0.37815601 -0.27857199 1.03407 1258784647
-0.37815601 -0.27857199 1.0340199 1260758437
0.065519102 -0.290409 1.08541 1258916233
0.065519102 -0.290409 1.08513 1258916233
0.065519199 -0.290409 1.08498 1258916233
0.065519199 -0.290409 1.08634 1258916233
0.065519102 -0.290409 1.08565 1258850440
0.065518998 -0.290409 1.08531 1258850440
0.065519199 -0.290409 1.08522 1258784647
0.065519102 -0.290409 1.08582 1258850440
-0.324247 -0.288032 1.08427 1260100507
-0.32424799 -0.288032 1.08453 1260100507
-0.324247 -0.288032 1.08172 1259310991
-0.324247 -0.288032 1.08235 1259837335
-0.324247 -0.288032 1.08337 1259639956
-0.324247 -0.288032 1.08435 1258389889
-0.324247 -0.288032 1.08131 1258389889
-0.324247 -0.288032 1.0837801 1256383202
-0.394573 -0.26766899 1.01245 1259442577
-0.394573 -0.26766899 1.01369 1258225406
-0.394573 -0.26766899 1.01319 1259903128
-0.394573 -0.26766899 1.01221 1256251616
-0.394573 -0.26766899 1.01318 1259968921
-0.394573 -0.26766899 1.01431 1260495265
-0.394573 -0.26766899 1.01208 1259113612
-0.394573 -0.26766899 1.01279 1260034714
-0.38019699 -0.273105 1.0342 1258784647
-0.38019699 -0.273105 1.03297 1258982026
-0.38019699 -0.273105 1.03272 1260758437
-0.38019699 -0.273105 1.03381 1260100507
-0.38019699 -0.273105 1.0355 1259968921
-0.38019699 -0.273105 1.03528 1260890023
-0.38019699 -0.273105 1.0328799 1259047819
-0.38019699 -0.273105 1.03457 1260758437
-0.172545 -0.279926 1.05994 1257962234
-0.172545 -0.279926 1.06086 1258225406
-0.172545 -0.279926 1.0604 1258324096
-0.172545 -0.279926 1.05922 1256646374
-0.172545 -0.279926 1.0598201 1256646374
-0.172545 -0.279926 1.05926 1255725272
-0.172545 -0.279926 1.05867 1254935756
-0.172545 -0.279926 1.05919 1257435890
-0.155541 -0.28110099 1.0633399 1258455682
-0.155541 -0.28110099 1.06353 1258718854
-0.155541 -0.28110099 1.06467 1258718854
-0.155541 -0.28110099 1.06537 1257435890
-0.155541 -0.28110099 1.06299 1257567476
-0.155541 -0.28110099 1.06468 1257304304
-0.155541 -0.28110099 1.06426 1255988444
-0.155541 -0.28110099 1.06364 1258587268
-0.056311298 -0.28136799 1.0641201 1258521475
-0.056311298 -0.28136799 1.06671 1258587268
-0.056311399 -0.28136799 1.06506 1258587268
-0.056311399 -0.28136799 1.06554 1258389889
-0.056311399 -0.28136799 1.06577 1258324096
-0.056311399 -0.28136799 1.06533 1258324096
-0.056311399 -0.28136799 1.06655 1255856858
-0.056311499 -0.28136799 1.06411 1257567476
-0.045871999 -0.28264999 1.0707999 1258521475
-0.045871899 -0.28264999 1.07177 1258521475
-0.045871899 -0.28264999 1.0704401 1258455682
-0.0458721 -0.28264999 1.07046 1258093820
-0.045871899 -0.28264999 1.07121 1258521475
-0.045871999 -0.28264999 1.07096 1258653061
-0.045871999 -0.28264999 1.06917 1254672584
-0.045871899 -0.28264999 1.06941 1256251616
0.039614499 -0.28205499 1.06785 1258521475
0.039614599 -0.28205499 1.06915 1258916233
0.039614599 -0.28205499 1.06821 1258916233
0.039614599 -0.28205499 1.06949 1258455682
0.039614499 -0.28205499 1.06668 1258455682
0.039614499 -0.28205499 1.0687 1258324096
0.039614499 -0.28205499 1.06695 1255330514
0.039614599 -0.28205499 1.06739 1255198928
0.056952599 -0.27983499 1.06119 1258916233
0.056952599 -0.27983499 1.06059 1258916233
0.056952599 -0.27983499 1.05819 1259047819
0.056952599 -0.27983499 1.05802 1258784647
0.056952499 -0.27983499 1.0591 1258850440
0.056952499 -0.27983499 1.0598201 1258850440
0.0569527 -0.27983499 1.0590301 1257435890
0.056952599 -0.27983499 1.05957 1255198928
0.112046 -0.28078401 1.06293 1259245198
0.112046 -0.28078401 1.0640399 1259113612
0.112046 -0.28078401 1.06152 1259179405
0.112045 -0.28078401 1.06151 1258718854
0.112046 -0.28078401 1.06218 1258653061
0.112046 -0.28078401 1.06442 1258784647
0.112046 -0.28078401 1.06197 1257435890
0.112046 -0.28078401 1.06446 1256646374
-0.397798 -0.26570499 1.01399 1256120030
-0.397798 -0.26570499 1.01378 1256514788
-0.397798 -0.26570499 1.01279 1258653061
-0.397798 -0.26570499 1.01319 1256514788
-0.397798 -0.26570499 1.01274 1256646374
-0.397798 -0.26570499 1.01343 1259968921
-0.397798 -0.26570499 1.01406 1256514788
-0.397798 -0.26570499 1.01425 1258653061
-0.38055399 -0.27145901 1.03475 1259179405
-0.38055399 -0.27145901 1.03448 1258850440
-0.38055399 -0.27145901 1.03591 1261021609
-0.38055399 -0.27145901 1.0351599 1259639956
-0.38055399 -0.27145901 1.0334001 1260495265
-0.38055399 -0.27145901 1.03659 1261218988
-0.38055399 -0.27145901 1.03627 1259245198
-0.38055399 -0.27145901 1.03666 1261153195
0.046806201 -0.28054699 1.07052 1258653061
0.046806201 -0.28054699 1.07134 1258455682
0.046806298 -0.28054699 1.068 1258718854
0.046806499 -0.28054801 1.06821 1255725272
0.046806298 -0.28054801 1.06975 1256251616
0.046806298 -0.28054801 1.06918 1256909546
0.046806399 -0.28054699 1.06994 1255462100
0.046806399 -0.28054699 1.0712399 1258225406
0.062674001 -0.27979201 1.06534 1258784647
0.062674001 -0.27979201 1.06713 1258850440
0.062674001 -0.27979201 1.0684201 1258850440
0.062674098 -0.27979201 1.0660599 1257435890
0.062673897 -0.27979201 1.06655 1257304304
0.062674001 -0.27979201 1.06539 1257699062
0.062674001 -0.27979299 1.0655299 1255198928
0.062673897 -0.27979201 1.06569 1257435890
-0.337237 -0.27790001 1.0680799 1259639956
-0.337237 -0.27790001 1.0671901 1258324096
-0.337237 -0.27790001 1.06776 1258982026
-0.337237 -0.27790001 1.06589 1256646374
-0.337237 -0.27790001 1.06573 1256777960
-0.337237 -0.27790001 1.06696 1257041132
-0.337237 -0.27790001 1.0688601 1255462100
-0.337237 -0.27790001 1.06717 1256777960
-0.170477 -0.27554101 1.05907 1256251616
-0.170477 -0.27554101 1.05889 1255067342
-0.170477 -0.27554101 1.05646 1254409412
-0.170477 -0.27554101 1.05913 1257304304
-0.170477 -0.27554101 1.0586801 1257304304
-0.170477 -0.27554101 1.05944 1256646374
-0.170477 -0.27554101 1.05898 1258916233
-0.170477 -0.27554101 1.05767 1259442577
-0.15742899 -0.277392 1.06636 1257435890
-0.15742899 -0.277392 1.06611 1255198928
-0.15742899 -0.277392 1.0650001 1254409412
-0.15742899 -0.277392 1.0645601 1257435890
-0.15742899 -0.277392 1.06375 1258324096
-0.15742899 -0.277392 1.06695 1258587268
-0.15742899 -0.277392 1.06426 1258225406
-0.15742899 -0.277392 1.06397 1259705749
-0.049118102 -0.27691701 1.0635999 1258093820
-0.049118102 -0.27691701 1.0622 1254935756
-0.049118198 -0.27691701 1.0631 1254672584
-0.049118198 -0.27691701 1.06504 1256777960
-0.049118102 -0.27691701 1.06247 1256514788
-0.049118102 -0.27691701 1.06352 1256251616
-0.049118001 -0.27691701 1.06206 1258587268
-0.049118102 -0.27691701 1.0616601 1259705749
-0.00661154 -0.27700299 1.06215 1258225406
-0.0066114999 -0.27700299 1.06481 1255067342
-0.0066116401 -0.27700299 1.0625401 1255067342
-0.0066116401 -0.27700299 1.06253 1255725272
-0.0066115302 -0.27700299 1.06288 1255593686
-0.0066116098 -0.27700299 1.0625 1255462100
-0.0066116098 -0.27700299 1.06435 1258521475
-0.0066117099 -0.27700299 1.0621099 1259771542
0.021662099 -0.27605399 1.06145 1258093820
0.021662099 -0.27605399 1.06086 1255198928
0.0216622 -0.27605399 1.06129 1255330514
0.021662099 -0.27605399 1.06029 1257304304
0.021662001 -0.27605399 1.06046 1256383202
0.021662099 -0.27605399 1.0604399 1256646374
0.0216622 -0.27605399 1.06165 1258225406
0.021662099 -0.27605399 1.05986 1259442577
-0.39627901 -0.26209301 1.01311 1259113612
-0.39627901 -0.26209301 1.01322 1257435890
-0.39627901 -0.26209301 1.01447 1260034714
-0.39627901 -0.26209301 1.01343 1256646374
-0.39627901 -0.26209301 1.0132101 1260166300
-0.39627901 -0.26209301 1.0118999 1260561058
-0.39627901 -0.26209301 1.01397 1259245198
-0.39627901 -0.26209301 1.01513 1260100507
-0.259435 -0.27262801 1.05319 1256646374
-0.259435 -0.27262801 1.05273 1256514788
-0.259435 -0.27262801 1.05585 1256514788
-0.259435 -0.27262801 1.05406 1257172718
-0.259435 -0.27262801 1.0546401 1257435890
-0.259435 -0.27262801 1.0528001 1257567476
-0.259435 -0.27262801 1.05413 1258982026
-0.259435 -0.27262801 1.05486 1259442577
-0.25423899 -0.272706 1.0559601 1256514788
-0.25423899 -0.272706 1.05504 1256514788
-0.25423899 -0.272706 1.05576 1256514788
-0.25423899 -0.272706 1.05339 1257567476
-0.25423899 -0.272706 1.0556099 1257567476
-0.25423899 -0.272706 1.0546499 1257567476
-0.25423899 -0.272706 1.05357 1259047819
-0.25423899 -0.272706 1.05524 1259639956
-0.229176 -0.272147 1.05153 1256777960
-0.229176 -0.27214801 1.05088 1256777960
-0.229176 -0.272147 1.0515701 1256909546
-0.229176 -0.272147 1.05369 1258225406
-0.229176 -0.272147 1.05301 1258587268
-0.229176 -0.272147 1.0513999 1258653061
-0.229176 -0.27214801 1.0517401 1259837335
-0.229176 -0.27214801 1.0508 1259639956
-0.21575999 -0.272917 1.05577 1255856858
-0.21576101 -0.272917 1.05391 1257304304
-0.21575999 -0.27291599 1.0554 1257567476
-0.21575999 -0.27291599 1.05718 1258521475
-0.21576101 -0.27291599 1.0539401 1258455682
-0.21575999 -0.272917 1.05407 1258587268
-0.21575999 -0.27291599 1.05705 1259903128
-0.21575999 -0.27291599 1.05457 1260166300
-0.19375101 -0.27163601 1.0492899 1256646374
-0.19375101 -0.27163601 1.05186 1257699062
-0.19375101 -0.27163601 1.05112 1257830648
-0.19375101 -0.27163601 1.05136 1258718854
-0.19375101 -0.27163601 1.0520999 1258784647
-0.19375201 -0.27163601 1.04918 1258850440
-0.19375201 -0.27163601 1.05014 1259903128
-0.19375101 -0.27163601 1.05168 1259903128
-0.17074101 -0.27401999 1.06058 1254804170
-0.17074101 -0.27401999 1.05874 1257435890
-0.17074101 -0.27401999 1.06144 1256909546
-0.17074101 -0.27401999 1.05981 1258784647
-0.17074101 -0.27401999 1.0605299 1258850440
-0.17074101 -0.27401999 1.05861 1258587268
-0.17074101 -0.27401999 1.05867 1259442577
-0.17074101 -0.27401999 1.06135 1259047819
-0.16756301 -0.27459601 1.06101 1253883068
-0.16756301 -0.27459601 1.0617599 1256909546
-0.16756301 -0.27459601 1.06305 1257172718
-0.16756301 -0.27459601 1.0633399 1258850440
-0.16756301 -0.27459601 1.0624599 1258587268
-0.16756301 -0.27459601 1.06056 1258455682
-0.16756301 -0.27459601 1.06343 1259310991
-0.16756301 -0.27459601 1.06102 1258916233
-0.162268 -0.27461499 1.06086 1254672584
-0.162268 -0.27461499 1.06169 1256646374
-0.162268 -0.274616 1.06108 1257435890
-0.162268 -0.27461499 1.06112 1258324096
-0.162268 -0.27461499 1.06208 1258521475
-0.162268 -0.27461499 1.06093 1258225406
-0.162268 -0.27461499 1.0620199 1259245198
-0.162268 -0.27461499 1.06264 1258784647
-0.053884301 -0.272199 1.0512201 1255198928
-0.053884201 -0.272199 1.05156 1257567476
-0.053884301 -0.272199 1.05242 1256777960
-0.053884301 -0.272199 1.05109 1257962234
-0.053884301 -0.272199 1.052 1258225406
-0.053884301 -0.272199 1.05382 1258587268
-0.0538841 -0.272199 1.05404 1259639956
-0.053884301 -0.272199 1.05111 1259771542
-0.043812498 -0.275011 1.06197 1255856858
-0.043812301 -0.275011 1.06489 1256251616
-0.043812301 -0.275011 1.06384 1256514788
-0.043812402 -0.275011 1.0645601 1258784647
-0.043812301 -0.275011 1.0620199 1258916233
-0.043812301 -0.275011 1.06457 1258521475
-0.043812301 -0.275011 1.06444 1259442577
-0.043812301 -0.275011 1.06286 1258916233
-0.022385599 -0.27295801 1.05469 1256646374
-0.0223857 -0.27295801 1.05584 1257172718
-0.0223857 -0.27295801 1.0545599 1256777960
-0.022385599 -0.27295801 1.05696 1258324096
-0.0223858 -0.27295801 1.0562201 1258225406
-0.0223858 -0.27295801 1.05428 1258455682
-0.0223857 -0.27295801 1.0542901 1259310991
-0.0223857 -0.27295801 1.05683 1259508370
-0.0066018002 -0.27464101 1.06223 1255067342
-0.0066016898 -0.27463999 1.06163 1255593686
-0.00660183 -0.27464101 1.06069 1255593686
-0.00660179 -0.27464101 1.0605299 1258389889
-0.0066016801 -0.27464101 1.06231 1258455682
-0.0066017299 -0.27464101 1.0624599 1258389889
-0.0066018398 -0.27463999 1.06292 1259837335
-0.0066017499 -0.27464101 1.06261 1259771542
0.0074836402 -0.27217501 1.05356 1256251616
0.00748367 -0.27217501 1.05137 1256646374
0.0074836798 -0.27217501 1.0532399 1256646374
0.0074837301 -0.27217501 1.05112 1258587268
0.0074837301 -0.27217501 1.05427 1258455682
0.00748369 -0.27217501 1.05284 1258587268
0.0074837101 -0.27217501 1.0513099 1259771542
0.0074836598 -0.27217501 1.0509501 1259574163
0.0233416 -0.273096 1.05597 1255330514
0.0233416 -0.27309501 1.05691 1256383202
0.023341401 -0.27309501 1.05726 1256646374
0.023341401 -0.27309501 1.0562 1258225406
0.023341401 -0.27309501 1.05617 1258521475
0.023341499 -0.27309501 1.05638 1258225406
0.023341499 -0.27309501 1.0572701 1259442577
0.023341401 -0.27309501 1.057 1259968921
0.037556101 -0.27412599 1.05883 1255330514
0.037556 -0.27412599 1.05844 1255856858
0.037556 -0.27412599 1.06058 1255198928
0.037555899 -0.27412599 1.06121 1258225406
0.037556 -0.27412599 1.0588599 1258521475
0.037555899 -0.27412599 1.06102 1258389889
0.037556101 -0.27412599 1.06067 1259442577
0.037556 -0.27412599 1.06073 1260034714
0.067530602 -0.27394599 1.0580601 1257699062
0.067530602 -0.27394599 1.0603 1256120030
0.067530699 -0.27394599 1.0602 1256120030
0.067530602 -0.27394599 1.06001 1257699062
0.067530602 -0.27394599 1.05887 1257699062
0.067530602 -0.27394599 1.05924 1257304304
0.067530699 -0.27394599 1.05873 1260100507
0.067530602 -0.27394599 1.05808 1259574163
0.071209103 -0.27452099 1.062 1257435890
0.071209103 -0.27452099 1.06338 1256120030
0.0712092 -0.27452099 1.0606 1257435890
0.071209297 -0.27452099 1.0619299 1257699062
0.071209297 -0.27452099 1.06187 1257304304
0.0712092 -0.27452099 1.06108 1257304304
0.0712092 -0.27452099 1.06205 1259705749
0.071209297 -0.27452099 1.05992 1260297886
0.10956 -0.273141 1.05475 1257435890
0.10956 -0.273141 1.05606 1256383202
0.10956 -0.273141 1.05641 1256646374
0.10956 -0.273141 1.05652 1256120030
0.10956 -0.273141 1.05805 1256514788
0.10956 -0.273141 1.05577 1257172718
0.10956 -0.273141 1.05562 1259113612
0.10956 -0.273141 1.0549901 1260100507
0.171716 -0.271267 1.0486 1257435890
0.171716 -0.271267 1.05057 1254804170
0.171716 -0.271267 1.05057 1254014654
0.171716 -0.271267 1.04909 1256383202
0.171716 -0.271267 1.0497 1255462100
0.171716 -0.271267 1.04934 1255067342
0.171716 -0.271267 1.04792 1257567476
0.171716 -0.271267 1.0500799 1258718854
-0.37433699 -0.26501301 1.0315599 1261153195
-0.37433699 -0.26501301 1.03351 1261350574
-0.37433699 -0.26501301 1.0319999 1259442577
-0.37433699 -0.26501301 1.03273 1261153195
-0.374338 -0.26501301 1.03159 1260626851
-0.37433699 -0.26501301 1.03303 1258718854
-0.37433699 -0.26501301 1.03312 1261284781
-0.37433699 -0.26501301 1.03364 1259508370
-0.30757901 -0.27133399 1.05762 1255988444
-0.30757901 -0.27133399 1.05847 1256251616
-0.30757901 -0.27133399 1.05681 1256251616
-0.30757901 -0.27133399 1.05606 1258324096
-0.30757901 -0.27133399 1.05612 1258324096
-0.30757901 -0.27133399 1.0554301 1258324096
-0.30757901 -0.27133399 1.05608 1259047819
-0.30757901 -0.27133399 1.0563 1259245198
-0.26280701 -0.27054599 1.0538501 1256383202
-0.26280701 -0.27054599 1.05485 1256646374
-0.26280701 -0.27054599 1.05518 1257304304
-0.26280701 -0.27054599 1.05381 1258850440
-0.26280701 -0.27054599 1.0525399 1259113612
-0.26280701 -0.27054599 1.0527101 1258916233
-0.26280701 -0.27054599 1.05423 1258718854
-0.26280701 -0.27054599 1.0538 1259376784
-0.25763699 -0.27064601 1.05284 1256514788
-0.25763699 -0.27064601 1.05435 1257435890
-0.25763601 -0.27064601 1.05243 1257567476
-0.25763601 -0.27064601 1.0552 1258982026
-0.25763601 -0.27064601 1.05285 1259047819
-0.25763699 -0.27064601 1.05302 1259113612
-0.25763601 -0.27064601 1.05444 1259442577
-0.25763601 -0.27064601 1.05396 1259639956
-0.22528 -0.27185801 1.05733 1257172718
-0.225281 -0.27185801 1.05721 1258653061
-0.225281 -0.27185801 1.05747 1258455682
-0.22528 -0.27185801 1.05847 1259639956
-0.225281 -0.27185801 1.05983 1259837335
-0.22528 -0.27185801 1.06019 1259837335
-0.225281 -0.27185801 1.05819 1259968921
-0.225281 -0.27185801 1.0588599 1260166300
0.057030901 -0.272421 1.06229 1255198928
0.057030901 -0.27241999 1.06215 1258225406
0.057030801 -0.27241999 1.06208 1258093820
0.057030901 -0.272421 1.05981 1259771542
0.057030801 -0.27241999 1.06252 1259508370
0.057030801 -0.272421 1.0595599 1259639956
0.057030901 -0.272421 1.0610501 1260034714
0.057030901 -0.27241999 1.06084 1259903128
0.15417001 -0.2723 1.06197 1256514788
0.15417001 -0.2723 1.06025 1257041132
0.154171 -0.2723 1.0622 1256514788
0.15417001 -0.2723 1.05897 1257830648
0.15417001 -0.2723 1.0609699 1258225406
0.154171 -0.2723 1.06091 1258093820
0.15417001 -0.2723 1.0607899 1259113612
0.15417001 -0.2723 1.06142 1258784647
-0.37431899 -0.26310301 1.03089 1261021609
-0.37431899 -0.26310301 1.03234 1261284781
-0.374318 -0.26310301 1.03223 1259113612
-0.37431899 -0.26310301 1.03134 1261218988
-0.37431899 -0.26310199 1.0329601 1259968921
-0.37431899 -0.26310301 1.0308 1258916233
-0.37431899 -0.26310301 1.0328799 1261350574
-0.37431899 -0.26310301 1.03317 1259310991
-0.32718 -0.271047 1.06204 1255725272
-0.32718 -0.271047 1.06444 1257435890
-0.32718 -0.271047 1.06221 1257699062
-0.32718 -0.271047 1.06477 1258587268
-0.32718 -0.271047 1.06399 1258718854
-0.32718 -0.271047 1.0633 1258784647
-0.32718 -0.271047 1.06299 1258653061
-0.32718 -0.271047 1.0634201 1258916233
-0.32330701 -0.27077001 1.06151 1256120030
-0.32330701 -0.27077001 1.06113 1257699062
-0.32330701 -0.27077001 1.06284 1257962234
-0.32330701 -0.270771 1.06118 1258718854
-0.32330701 -0.27077001 1.06138 1258784647
-0.32330701 -0.27077001 1.06103 1258850440
-0.32330701 -0.27077001 1.06271 1258850440
-0.32330701 -0.27077001 1.0609601 1259113612
-0.31108201 -0.26937699 1.05697 1256514788
-0.31108201 -0.26937699 1.05705 1258225406
-0.31108201 -0.26937699 1.05562 1258225406
-0.31108201 -0.26937699 1.05556 1258850440
-0.31108201 -0.26937699 1.05557 1258982026
-0.31108201 -0.26937699 1.0575401 1258982026
-0.31108201 -0.26937699 1.05811 1259047819
-0.31108201 -0.26937699 1.05606 1259245198
0.17458799 -0.26646101 1.04459 1255067342
0.17458799 -0.26646101 1.04504 1257041132
0.17458799 -0.26646101 1.04559 1256514788
0.17458799 -0.26646101 1.0436701 1258718854
0.17458799 -0.26646101 1.0454201 1258718854
0.17458799 -0.26646101 1.0446 1258324096
0.17458799 -0.26646101 1.04646 1258784647
0.17458799 -0.26646101 1.04591 1258718854
0.17769299 -0.26589599 1.04175 1257962234
0.17769299 -0.26589599 1.04141 1256514788
0.17769299 -0.26589599 1.04338 1258455682
0.17769299 -0.26589599 1.04414 1258718854
0.17769299 -0.26589599 1.04313 1258324096
0.17769299 -0.26589599 1.0448 1258718854
0.17769299 -0.26589599 1.04251 1259442577
0.17769299 -0.26589599 1.04416 1258521475
-0.392223 -0.25828001 1.0194401 1258850440
-0.392223 -0.25828001 1.02223 1259705749
-0.392223 -0.25828001 1.02226 1260626851
-0.392223 -0.25828001 1.0203201 1259705749
-0.392223 -0.25828001 1.01938 1258982026
-0.392223 -0.25828001 1.0210201 1260363679
-0.392223 -0.25828001 1.02079 1258718854
-0.392223 -0.25828001 1.0212801 1260166300
-0.27052599 -0.26736301 1.05546 1258389889
-0.27052599 -0.26736301 1.05732 1258982026
-0.27052599 -0.26736301 1.05776 1257172718
-0.27052599 -0.26736301 1.05603 1259574163
-0.27052599 -0.26736301 1.05633 1259310991
-0.27052599 -0.26736301 1.05734 1258916233
-0.27052599 -0.26736301 1.05708 1259508370
-0.27052599 -0.26736301 1.05731 1259837335
-0.0459713 -0.271433 1.07134 1259442577
-0.0459713 -0.271433 1.07165 1259245198
-0.0459713 -0.271433 1.07348 1258916233
-0.045971401 -0.271433 1.07319 1259245198
-0.0459713 -0.271433 1.07265 1258718854
-0.0459713 -0.271433 1.0728199 1258225406
-0.0459713 -0.271433 1.07197 1258389889
-0.0459713 -0.271433 1.073 1256646374
0.13542099 -0.26976401 1.06624 1258324096
0.13542099 -0.26976401 1.0674 1258982026
0.13542099 -0.26976401 1.06566 1259113612
0.13542099 -0.26976401 1.06446 1259442577
0.13542099 -0.26976401 1.06731 1258587268
0.13542099 -0.26976401 1.06678 1258784647
0.13542099 -0.26976401 1.06727 1259179405
0.13542099 -0.26976401 1.06435 1260232093
-0.37423 -0.25924799 1.0326101 1259968921
-0.37423101 -0.25924799 1.03311 1261350574
-0.37423101 -0.25924799 1.03175 1258850440
-0.37423101 -0.25924799 1.03312 1261284781
-0.37423101 -0.25924799 1.03184 1259310991
-0.37423101 -0.25924799 1.03025 1259113612
-0.37423101 -0.25924799 1.03211 1260890023
-0.37423101 -0.25924799 1.03256 1259113612
-0.267241 -0.26565501 1.05832 1257699062
-0.267241 -0.26565501 1.05715 1259245198
-0.267241 -0.26565501 1.0558701 1259179405
-0.267241 -0.26565501 1.05641 1259968921
-0.267241 -0.26565501 1.05625 1259968921
-0.267241 -0.26565501 1.05823 1259968921
-0.267241 -0.26565501 1.059 1259771542
-0.267241 -0.26565501 1.05678 1260100507
-0.056242399 -0.26733199 1.06577 1259639956
-0.056242399 -0.267333 1.0648201 1259113612
-0.056242399 -0.267333 1.06585 1259442577
-0.0562425 -0.267333 1.06406 1257962234
-0.056242399 -0.267333 1.06328 1258455682
-0.0562425 -0.267333 1.06346 1258587268
-0.056242399 -0.267333 1.0627 1256646374
-0.056242298 -0.267333 1.06529 1256909546
0.107099 -0.26365 1.04845 1260232093
0.107099 -0.26364899 1.0494699 1260495265
0.107099 -0.26364899 1.05084 1260297886
0.107099 -0.26364899 1.04799 1260626851
0.107099 -0.26364899 1.04849 1260626851
0.107099 -0.26364899 1.0503401 1260692644
0.107099 -0.26364899 1.0481 1260626851
0.107099 -0.26364899 1.0509599 1260626851
-0.375976 -0.25737 1.03233 1261350574
-0.375976 -0.25737 1.03221 1261284781
-0.375976 -0.25737 1.03295 1259310991
-0.375976 -0.25737 1.03055 1261350574
-0.375976 -0.25737 1.03228 1260890023
-0.375976 -0.25737 1.03144 1259047819
-0.375976 -0.25737 1.03293 1261153195
-0.375976 -0.25737 1.03145 1259837335
0.243001 -0.265046 1.0637701 1258587268
0.243001 -0.265046 1.06402 1259508370
0.243001 -0.265046 1.06303 1257830648
0.243001 -0.265046 1.06436 1261876918
0.243001 -0.265046 1.06308 1258850440
0.243001 -0.265046 1.06285 1257830648
0.243001 -0.265046 1.06196 1260495265
0.243001 -0.265046 1.06297 1258718854
-0.38663599 -0.255703 1.0319099 1260495265
-0.38663599 -0.25570199 1.03204 1260824230
-0.38663599 -0.25570199 1.03128 1258718854
-0.38663599 -0.25570199 1.03282 1260692644
-0.38663599 -0.25570199 1.03313 1259442577
-0.38663599 -0.25570199 1.03163 1260890023
-0.38663599 -0.25570199 1.03224 1260561058
-0.38663599 -0.25570199 1.03386 1258587268
0.19386099 -0.26859099 1.08551 1258850440
0.19386099 -0.26859099 1.08395 1258093820
0.19386099 -0.26859099 1.08632 1258718854
0.19386099 -0.26859099 1.08631 1259508370
0.19386099 -0.26859 1.08667 1258850440
0.19386099 -0.26859099 1.08672 1258718854
0.19386099 -0.26859099 1.08606 1259837335
0.19386099 -0.26859099 1.08525 1258916233
-0.322045 -0.25857601 1.05247 1259179405
-0.322045 -0.25857601 1.05258 1259047819
-0.322045 -0.25857601 1.05286 1259376784
-0.322045 -0.25857601 1.0510401 1258916233
-0.322045 -0.25857601 1.05379 1259179405
-0.322045 -0.25857601 1.05209 1259376784
-0.322045 -0.25857601 1.05226 1259179405
-0.322045 -0.25857601 1.05299 1259771542
-0.384159 -0.25253999 1.0347199 1260890023
-0.38416001 -0.25253999 1.03392 1259245198
-0.384159 -0.25253999 1.0359401 1261482160
-0.384159 -0.25253999 1.03671 1258587268
-0.384159 -0.25253999 1.0357 1261087402
-0.384159 -0.25253901 1.03684 1261482160
-0.384159 -0.25253999 1.03514 1260692644
-0.384159 -0.25253999 1.03643 1261350574
0.196509 -0.24799199 1.03337 1259047819
0.196509 -0.24799199 1.03194 1257435890
0.196509 -0.24799199 1.0309401 1258653061
0.196509 -0.24799199 1.0332201 1258455682
0.19650801 -0.24799199 1.03184 1255462100
0.196509 -0.24799199 1.03365 1257962234
0.196509 -0.24799199 1.0317301 1256251616
0.196509 -0.24799199 1.03371 1256777960
0.19955599 -0.24750599 1.0301501 1259245198
0.19955599 -0.24750599 1.03194 1258653061
0.19955599 -0.24750599 1.03213 1259179405
0.19955599 -0.24750599 1.02987 1255462100
0.19955599 -0.24750599 1.03 1257962234
0.19955599 -0.24750599 1.03035 1259113612
0.19955599 -0.24750599 1.0288 1255330514
0.19955599 -0.24750599 1.03095 1256909546
-0.394905 -0.242834 1.0188 1258784647
-0.394905 -0.242834 1.01924 1259508370
-0.394905 -0.242834 1.01873 1260429472
-0.394905 -0.242834 1.0173 1260363679
-0.394905 -0.242834 1.01886 1259574163
-0.394905 -0.242834 1.02008 1260824230
-0.394905 -0.242834 1.01991 1258850440
-0.394905 -0.242834 1.01934 1260429472
0.158637 -0.25148699 1.05448 1259968921
0.158637 -0.25148699 1.0536799 1259771542
0.158637 -0.25148699 1.05471 1259639956
0.158637 -0.25148699 1.05646 1261021609
0.158637 -0.25148699 1.05564 1260495265
0.158637 -0.25148699 1.05643 1259903128
0.158637 -0.25148699 1.05365 1261087402
0.158637 -0.25148699 1.0548199 1261021609
0.201563 -0.245967 1.03101 1259179405
0.201563 -0.245967 1.03073 1257962234
0.201563 -0.245967 1.03071 1259113612
0.201563 -0.245967 1.03212 1255330514
0.201563 -0.245967 1.0302 1257567476
0.201563 -0.245967 1.0317 1259310991
0.201563 -0.245967 1.03166 1256909546
0.201563 -0.245967 1.0316401 1258850440
0.209436 -0.25128701 1.05382 1259508370
0.209436 -0.25128701 1.05396 1259113612
0.209436 -0.25128701 1.05514 1259442577
0.209436 -0.25128701 1.05514 1257567476
0.209436 -0.25128701 1.05564 1259310991
0.209436 -0.25128701 1.05523 1259508370
0.209436 -0.25128701 1.05391 1258324096
0.209436 -0.25128701 1.05396 1259245198
0.244524 -0.25307101 1.0615 1258587268
0.244524 -0.25307101 1.06317 1260561058
0.244524 -0.25307101 1.06173 1258324096
0.244524 -0.25307101 1.0634201 1261284781
0.244524 -0.25307101 1.06282 1258521475
0.244524 -0.25307101 1.06121 1257699062
0.244524 -0.25307101 1.0623 1261021609
0.244524 -0.25307101 1.06046 1259442577
0.2465 -0.25328401 1.0624599 1258324096
0.2465 -0.25328401 1.0610501 1258389889
0.2465 -0.25328499 1.06098 1257699062
0.2465 -0.25328401 1.06126 1260890023
0.2465 -0.25328401 1.06418 1258389889
0.2465 -0.25328401 1.0613101 1257699062
0.246501 -0.25328401 1.06277 1258982026
0.2465 -0.25328401 1.06148 1258455682
-0.40299201 -0.238717 1.00849 1256646374
-0.40299201 -0.238717 1.00986 1256251616
-0.40299201 -0.238717 1.01002 1258653061
-0.40299201 -0.238717 1.00849 1256383202
-0.40299201 -0.238717 1.00797 1257041132
-0.40299201 -0.238717 1.00808 1260429472
-0.40299201 -0.238717 1.0099 1256646374
-0.40299201 -0.238717 1.00924 1258093820
-0.38985899 -0.244176 1.03259 1260626851
-0.38985899 -0.244176 1.03216 1260758437
-0.38985899 -0.244176 1.03148 1259179405
-0.38985899 -0.244176 1.03224 1260824230
-0.38985899 -0.244176 1.03141 1260363679
-0.38985899 -0.244176 1.0328701 1260100507
-0.38985899 -0.244176 1.03368 1260824230
-0.38985899 -0.244176 1.0329 1259508370
0.175202 -0.25577199 1.08165 1259310991
0.175202 -0.25577199 1.08103 1259639956
0.175202 -0.25577199 1.08193 1258784647
0.175202 -0.25577199 1.08096 1260955816
0.175202 -0.25577199 1.0822901 1259837335
0.175202 -0.25577199 1.0807 1258521475
0.175202 -0.25577199 1.08146 1261218988
0.175202 -0.25577199 1.08032 1261284781
0.20254999 -0.24336 1.03649 1257567476
0.20254999 -0.24336 1.03714 1256909546
0.20254999 -0.24336 1.03633 1258324096
0.20254999 -0.24336 1.03628 1259310991
0.20255101 -0.24336 1.03758 1258850440
0.20254999 -0.24336 1.03819 1259245198
0.20254999 -0.24336 1.03688 1261021609
0.20255101 -0.24336 1.03855 1262534848
-0.40301901 -0.23502301 1.0094301 1257041132
-0.40301901 -0.23502301 1.00832 1256646374
-0.40301901 -0.23502301 1.00841 1259639956
-0.40301901 -0.23502301 1.00985 1256514788
-0.40301901 -0.23502301 1.00885 1258093820
-0.40301901 -0.23502301 1.0107599 1259837335
-0.40301901 -0.23502301 1.00819 1256383202
-0.40301901 -0.23502301 1.01079 1259376784
-0.39668599 -0.236257 1.01423 1260166300
-0.39668599 -0.236257 1.0143501 1260232093
-0.39668599 -0.236257 1.01433 1258653061
-0.396687 -0.236257 1.01503 1260758437
-0.39668599 -0.236257 1.0132101 1259508370
-0.396687 -0.236257 1.01398 1260626851
-0.39668599 -0.236257 1.0139101 1260297886
-0.39668599 -0.236257 1.0151401 1258653061
-0.38128799 -0.240399 1.03313 1261482160
-0.38128799 -0.240399 1.03391 1261416367
-0.38128799 -0.240399 1.0308 1260626851
-0.38128799 -0.240399 1.0322599 1261613746
-0.38128799 -0.240399 1.03152 1261284781
-0.38128799 -0.240399 1.03257 1258850440
-0.38128799 -0.240399 1.03295 1261547953
-0.38128799 -0.240399 1.03276 1260824230
-0.282608 -0.247339 1.0608 1260561058
-0.282608 -0.247338 1.0639 1260495265
-0.282608 -0.247338 1.06364 1260429472
-0.282608 -0.247339 1.06319 1259771542
-0.282608 -0.247338 1.06338 1259705749
-0.282608 -0.247338 1.06178 1259574163
-0.282608 -0.247338 1.06304 1259310991
-0.282608 -0.247339 1.0617501 1258653061
-0.274968 -0.246833 1.06034 1260692644
-0.274968 -0.246833 1.0617 1260363679
-0.274968 -0.246833 1.0584 1260495265
-0.274968 -0.246833 1.06164 1259574163
-0.274968 -0.246833 1.06147 1259442577
-0.274968 -0.246833 1.059 1259376784
-0.274968 -0.246833 1.06145 1258916233
-0.274968 -0.246833 1.05932 1258521475
0.12486 -0.24839801 1.06727 1261021609
0.12486 -0.24839801 1.06616 1260692644
0.12486 -0.24839801 1.06831 1260758437
0.12486 -0.24839801 1.06759 1259771542
0.12486 -0.24839801 1.0672899 1259903128
0.12486 -0.24839801 1.06581 1259968921
0.12486 -0.24839801 1.06638 1259508370
0.12486 -0.24839801 1.06627 1259508370
0.206457 -0.244029 1.04687 1258324096
0.206457 -0.244029 1.04776 1258850440
0.206457 -0.244029 1.04914 1259245198
0.206457 -0.24403 1.04774 1261021609
0.206457 -0.244029 1.04968 1260692644
0.206457 -0.24403 1.04796 1260955816
0.206457 -0.24403 1.04637 1262534848
0.206457 -0.244029 1.04655 1262469055
-0.40301299 -0.233165 1.00913 1257304304
-0.40301201 -0.233164 1.01072 1256251616
-0.40301201 -0.233164 1.01046 1259968921
-0.40301201 -0.233165 1.00855 1256383202
-0.40301201 -0.233164 1.00863 1258850440
-0.40301201 -0.233164 1.00956 1260100507
-0.40301201 -0.233165 1.0098 1257172718
-0.40301201 -0.233164 1.0106 1259639956
-0.387707 -0.239279 1.0359401 1260692644
-0.387707 -0.239279 1.03641 1259574163
