# .PCD v0.7 - Point Cloud Data file format
VERSION 0.7
FIELDS x y z rgb
SIZE 4 4 4 4
TYPE F F F U
COUNT 1 1 1 1
WIDTH 1148
HEIGHT 1
VIEWPOINT 0 0 0 1 0 0 0
POINTS 1148
DATA ascii
-0.372529 -0.3734 1.0225199 1260100507
-0.37215 -0.371144 1.02148 1260232093
-0.36145499 -0.37774599 1.03966 1260824230
-0.108891 -0.376735 1.04216 1258521475
-0.292638 -0.37673101 1.04746 1259376784
-0.27453601 -0.37583399 1.04497 1258850440
-0.194482 -0.375853 1.04503 1257962234
-0.131584 -0.375182 1.04316 1257172718
-0.33758101 -0.376284 1.05159 1259639956
-0.29497799 -0.375563 1.04958 1258587268
-0.29142401 -0.375489 1.0493701 1258455682
-0.248744 -0.37438801 1.0463001 1257172718
-0.24147999 -0.373934 1.04503 1257172718
-0.195665 -0.37287 1.04206 1256120030
-0.183852 -0.37355399 1.04397 1255593686
-0.17346901 -0.37366199 1.04427 1255593686
-0.168175 -0.37349299 1.0438 1255593686
-0.148818 -0.37291199 1.0421799 1255856858
-0.147082 -0.37291101 1.04217 1255856858
-0.131531 -0.373115 1.04275 1255988444
-0.117685 -0.37326899 1.04318 1255725272
-0.091479301 -0.37268901 1.0415601 1256120030
-0.084527999 -0.372637 1.04141 1256120030
-0.058547702 -0.37288401 1.0421 1256251616
-0.056818102 -0.37292501 1.04222 1256251616
-0.0290049 -0.37243801 1.0408601 1256251616
-0.022071799 -0.37246799 1.04094 1256383202
-0.020346699 -0.37262499 1.04138 1256251616
-0.0168851 -0.37279499 1.04186 1256383202
-0.332266 -0.37428299 1.0513999 1257962234
-0.31632099 -0.374066 1.05079 1256777960
-0.298628 -0.37382701 1.05012 1256646374
-0.29514301 -0.373844 1.0501699 1256514788
-0.27929899 -0.37370899 1.04979 1255988444
-0.27569601 -0.373564 1.0493799 1255725272
-0.271983 -0.37326699 1.04855 1255593686
-0.266615 -0.37308601 1.04804 1255462100
-0.25586301 -0.37268099 1.0469 1255330514
-0.241658 -0.37228799 1.0458 1255330514
-0.23114 -0.372181 1.0455 1255067342
-0.229371 -0.372136 1.04537 1254935756
-0.225886 -0.372132 1.04536 1254804170
-0.21194001 -0.37210301 1.04528 1254409412
-0.096792899 -0.37119299 1.04273 1254540998
-0.082899101 -0.37119499 1.04274 1254540998
-0.079418801 -0.37116501 1.04265 1254540998
-0.067278102 -0.37125301 1.0429 1254540998
-0.063803598 -0.371252 1.0429 1255330514
-0.053361099 -0.371113 1.04251 1254935756
-0.039449699 -0.37092599 1.04198 1254804170
-0.0325175 -0.371041 1.04231 1254804170
-0.023840399 -0.37109599 1.04246 1254804170
0.028245701 -0.37103 1.04228 1255725272
0.068109401 -0.370671 1.04127 1256514788
0.100923 -0.370157 1.03983 1257962234
0.120168 -0.37075299 1.0415 1257962234
0.126921 -0.37020999 1.0399801 1258324096
0.155301 -0.37180001 1.04445 1258521475
0.156597 -0.37075001 1.0415 1259376784
-0.370478 -0.35687 1.0076801 1260034714
0.139148 -0.368568 1.04074 1257435890
0.156727 -0.36509699 1.0309401 1257567476
0.160074 -0.36489701 1.03038 1257567476
0.210602 -0.363242 1.0257 1261284781
-0.26790699 -0.371023 1.05312 1255067342
-0.236112 -0.370675 1.05213 1254672584
-0.227181 -0.37040001 1.05135 1254146240
-0.20237 -0.36986199 1.04983 1254146240
-0.186416 -0.369434 1.04861 1254146240
-0.184652 -0.369398 1.04851 1254146240
-0.177321 -0.36868101 1.04647 1254146240
-0.15111899 -0.36854401 1.04609 1254277826
-0.149372 -0.368532 1.04605 1254277826
-0.14588 -0.368512 1.046 1254277826
-0.137146 -0.368453 1.04583 1254277826
-0.13362999 -0.36836299 1.04558 1254146240
-0.044678599 -0.367277 1.0425 1255988444
-0.0429365 -0.36723 1.0423599 1254804170
-0.034248799 -0.36715901 1.04216 1254672584
-0.032506298 -0.36708301 1.04195 1254540998
-0.0168864 -0.36707899 1.04193 1254804170
-0.303343 -0.369519 1.05435 1257172718
-0.283851 -0.36929199 1.0537 1256777960
-0.26635101 -0.369362 1.0539 1256777960
-0.26457801 -0.36933801 1.05383 1256646374
-0.25735301 -0.36904499 1.053 1256383202
-0.246452 -0.36848101 1.0513901 1256251616
-0.244698 -0.36847699 1.05138 1256251616
-0.221708 -0.36810401 1.05032 1255856858
-0.218228 -0.36813599 1.05041 1255856858
-0.21647701 -0.36813399 1.0504 1255856858
-0.213026 -0.368218 1.05064 1255856858
-0.17049 -0.36706099 1.04734 1256514788
-0.161651 -0.36679599 1.04659 1256646374
-0.098690599 -0.36603999 1.04443 1257962234
-0.088183299 -0.36575201 1.04361 1256909546
-0.0307761 -0.36522999 1.04212 1256777960
0.00740697 -0.364999 1.0414701 1257172718
0.0143294 -0.36458099 1.04027 1256514788
0.0282024 -0.36472499 1.0406801 1256514788
0.076677799 -0.364438 1.03987 1256251616
0.081909299 -0.364595 1.04032 1256383202
0.085380599 -0.36462 1.04039 1256383202
0.099265799 -0.36469999 1.04062 1256383202
0.120198 -0.36510301 1.04177 1256383202
0.14146399 -0.366249 1.04504 1255725272
0.210425 -0.35916999 1.02484 1261350574
-0.32630301 -0.36772799 1.05477 1258389889
-0.31578499 -0.367755 1.05485 1258653061
-0.29964399 -0.36735201 1.05369 1258653061
0.00220078 -0.36275399 1.04052 1258455682
0.0177889 -0.36254901 1.03993 1258455682
0.054196499 -0.36276501 1.04055 1258389889
0.055920601 -0.36270601 1.04038 1258389889
0.0662871 -0.362537 1.0398999 1258324096
0.076687798 -0.36257499 1.04001 1258324096
0.0905976 -0.36278099 1.0405999 1258389889
0.101003 -0.362802 1.04066 1258455682
0.113178 -0.36293501 1.0410399 1258389889
0.130908 -0.36401799 1.04415 1257962234
0.139798 -0.36452499 1.0456001 1257699062
0.141628 -0.36475301 1.04626 1257567476
0.153449 -0.363857 1.04369 1256909546
-0.36218199 -0.34794199 1.0032901 1260890023
-0.312141 -0.36566401 1.05441 1259245198
-0.15445299 -0.362423 1.0450701 1259442577
-0.103764 -0.36169201 1.04296 1259376784
-0.372958 -0.34679499 1.0053101 1259310991
-0.32378 -0.36299199 1.0522799 1259639956
-0.281508 -0.362726 1.05151 1259705749
-0.20503999 -0.36068901 1.04561 1259047819
-0.073963299 -0.35847801 1.0391999 1259508370
0.029925199 -0.35886201 1.04032 1259771542
0.11144 -0.35909599 1.041 1259639956
0.13264699 -0.360181 1.04415 1259705749
-0.36219999 -0.35575899 1.0368299 1261284781
-0.38222399 -0.34694999 1.0166 1258455682
-0.35505599 -0.353618 1.03614 1261482160
-0.28739101 -0.355308 1.0411 1260034714
-0.19743299 -0.355692 1.04222 1259376784
-0.37588099 -0.34392601 1.01319 1260363679
-0.36427799 -0.35037899 1.03783 1261087402
-0.35670599 -0.34973499 1.03592 1261811125
0.16569901 -0.34885699 1.03335 1260034714
-0.355012 -0.34786299 1.03601 1260692644
0.163985 -0.34697399 1.03339 1260561058
0.214194 -0.36932099 1.10602 1261876918
-0.37799001 -0.336853 1.01432 1260495265
-0.37189901 -0.339001 1.02079 1260824230
-0.36405799 -0.34445 1.0372 1261482160
-0.38111699 -0.33104199 1.0136499 1259310991
-0.365668 -0.336716 1.03686 1261482160
-0.357373 -0.33351699 1.03286 1260955816
-0.315227 -0.31544799 0.97689003 1260429472
-0.38205299 -0.32481399 1.01166 1259310991
-0.36785099 -0.33021501 1.0284801 1261087402
-0.38332599 -0.32260799 1.01057 1258653061
-0.36617899 -0.329905 1.03343 1261284781
-0.36625201 -0.328071 1.03364 1261416367
-0.36066699 -0.32579201 1.0324399 1261811125
-0.381643 -0.317036 1.01057 1260166300
0.168273 -0.325822 1.03861 1261218988
-0.38130301 -0.314899 1.00967 1260297886
-0.368058 -0.32054499 1.03387 1261350574
-0.136116 -0.32628101 1.06502 1259047819
-0.38738 -0.30457601 1.01237 1259442577
0.20472001 -0.31530601 1.04808 1261153195
-0.371571 -0.309203 1.03407 1261153195
-0.36250201 -0.30881301 1.03276 1260824230
-0.135184 -0.31627101 1.0577199 1259574163
-0.381973 -0.30191201 1.01592 1261021609
-0.371488 -0.30723399 1.0338399 1261284781
-0.365863 -0.30115601 1.03254 1261482160
0.16913299 -0.30254701 1.04392 1261218988
-0.38199601 -0.29389599 1.0204999 1261284781
-0.37462899 -0.29749301 1.033 1261153195
0.219831 -0.29863501 1.03701 1262337469
-0.36758801 -0.29167199 1.03255 1261350574
-0.36744699 -0.28776601 1.03216 1260692644
-0.31766501 -0.290654 1.04944 1260692644
-0.37880901 -0.28157499 1.0303299 1261284781
-0.37649 -0.28241101 1.03338 1261679539
0.034848299 -0.296729 1.08582 1260034714
-0.37093699 -0.28021699 1.0323 1261876918
0.22348601 -0.28173599 1.03794 1262337469
-0.38953099 -0.27446201 1.01798 1261416367
-0.37815601 -0.27857199 1.0332299 1261482160
0.065518998 -0.290409 1.0845701 1260429472
-0.324247 -0.288032 1.0831 1260363679
-0.394573 -0.26766899 1.01351 1260561058
-0.38019699 -0.273105 1.0341001 1261416367
-0.172545 -0.279926 1.05995 1258850440
-0.155541 -0.28110099 1.0644 1259376784
-0.056311399 -0.28136799 1.06542 1259639956
-0.045871999 -0.28264999 1.07028 1259508370
0.039614599 -0.28205499 1.06803 1259442577
0.056952599 -0.27983499 1.05962 1259771542
0.112046 -0.28078401 1.06322 1259968921
-0.397798 -0.26570499 1.0131299 1259179405
-0.38055399 -0.27145901 1.0350699 1261416367
0.046806399 -0.28054699 1.06977 1259113612
0.062674001 -0.27979201 1.06689 1259376784
-0.337237 -0.27790001 1.06712 1259245198
-0.170477 -0.27554101 1.0580699 1259245198
-0.15742899 -0.277392 1.0651799 1259310991
-0.049118198 -0.27691701 1.06337 1258916233
-0.0066115698 -0.27700299 1.0637 1259179405
0.021662099 -0.27605399 1.06006 1258916233
-0.39627901 -0.26209301 1.0135601 1260692644
-0.259435 -0.27262801 1.05432 1259179405
-0.25423899 -0.272706 1.05462 1259179405
-0.229176 -0.272147 1.05246 1259639956
-0.21575999 -0.272917 1.0554399 1259705749
-0.19375101 -0.27163601 1.05049 1259903128
-0.17074101 -0.27401999 1.05971 1259574163
-0.16756301 -0.27459601 1.06194 1259442577
-0.162268 -0.27461499 1.0620199 1259179405
-0.053884301 -0.272199 1.05268 1259574163
-0.043812301 -0.275011 1.06355 1259442577
-0.0223857 -0.27295801 1.05562 1259508370
-0.0066017401 -0.27464101 1.06212 1259376784
0.0074836798 -0.27217501 1.05259 1259508370
0.023341499 -0.27309501 1.05615 1259376784
0.037555899 -0.27412599 1.06014 1259310991
0.067530602 -0.27394599 1.05944 1259442577
0.071209297 -0.27452099 1.0616699 1259310991
0.10956 -0.273141 1.05633 1259245198
0.171716 -0.271267 1.04909 1258653061
-0.37433699 -0.26501301 1.03219 1261482160
-0.30757901 -0.27133399 1.05682 1259179405
-0.26280701 -0.27054599 1.0537601 1259639956
-0.25763699 -0.27064601 1.05415 1259771542
-0.225281 -0.27185801 1.05887 1260429472
0.057030901 -0.27241999 1.06108 1260429472
0.15417001 -0.2723 1.06062 1259574163
-0.37431899 -0.26310301 1.03214 1261745332
-0.32718 -0.271047 1.06332 1259508370
-0.32330701 -0.27077001 1.06223 1259705749
-0.31108201 -0.26937699 1.05677 1259968921
0.17458799 -0.26646101 1.04536 1259245198
0.17769299 -0.26589599 1.0431401 1259639956
-0.392223 -0.25828001 1.0205801 1260955816
-0.27052599 -0.26736301 1.0564801 1260692644
-0.045971401 -0.271433 1.07259 1259903128
0.13542099 -0.26976401 1.06601 1260297886
-0.37423 -0.25924799 1.0319 1261416367
-0.267241 -0.26565501 1.05741 1261087402
-0.056242399 -0.267333 1.06411 1260100507
0.107099 -0.26364899 1.0494601 1262008504
-0.375976 -0.25737 1.03197 1261876918
0.243001 -0.265046 1.0628099 1260626851
-0.38663599 -0.255703 1.0329 1261482160
0.19386099 -0.26859099 1.0850199 1260166300
-0.322045 -0.25857601 1.05233 1260297886
-0.384159 -0.25253999 1.03549 1261811125
0.45321801 -0.314073 1.28794 1258324096
0.196509 -0.24799199 1.03245 1259179405
0.19955599 -0.24750599 1.03043 1259376784
-0.394905 -0.242834 1.01872 1260955816
0.158637 -0.25148699 1.0550801 1261876918
0.201563 -0.245967 1.03192 1259574163
0.209436 -0.25128701 1.05425 1260232093
0.244524 -0.25307101 1.06173 1260890023
0.2465 -0.25328401 1.0626301 1259837335
-0.40299201 -0.238717 1.00923 1259245198
-0.38985899 -0.244176 1.03232 1261350574
0.175202 -0.25577199 1.0814 1260890023
0.20254999 -0.24336 1.03697 1260561058
-0.40301901 -0.23502301 1.0093 1259574163
-0.39668599 -0.236257 1.0146 1261087402
-0.38128799 -0.240399 1.03239 1262403262
-0.282608 -0.247339 1.06221 1260824230
-0.274968 -0.246833 1.06004 1260626851
0.12486 -0.24839801 1.0668 1261153195
0.206457 -0.244029 1.04804 1261745332
-0.40301201 -0.233165 1.00928 1260232093
-0.387707 -0.239279 1.03575 1262140090
0.072443202 -0.249507 1.08008 1260166300
0.18409 -0.240252 1.04002 1261811125
0.187995 -0.240817 1.04246 1262074297
-0.39698201 -0.233696 1.0197001 1261218988
-0.388832 -0.23701 1.03416 1261218988
-0.165638 -0.24314 1.06093 1259442577
-0.39678499 -0.23170801 1.01919 1261087402
-0.38102901 -0.23885401 1.05064 1261350574
-0.36250001 -0.240493 1.05785 1261547953
-0.39037001 -0.23207501 1.02913 1261679539
-0.38615999 -0.24122 1.0697 1261811125
-0.072593004 -0.241276 1.06997 1259442577
0.076909497 -0.24064 1.06716 1259442577
0.085839197 -0.240758 1.06769 1259639956
0.121158 -0.240263 1.0655 1260166300
0.16695701 -0.242338 1.0747 1261613746
-0.40615201 -0.225621 1.0087301 1259245198
0.130513 -0.239187 1.06944 1259903128
0.161559 -0.24032199 1.07452 1261218988
0.24836101 -0.237748 1.06302 1260692644
-0.38293901 -0.228974 1.0322 1261942711
-0.25421801 -0.23719899 1.0693001 1259113612
-0.084837697 -0.236701 1.06707 1258587268
0.0128755 -0.235926 1.06359 1258718854
0.0216983 -0.23554701 1.06188 1258587268
0.237536 -0.233854 1.05427 1262732227
-0.39852399 -0.22141001 1.00643 1261613746
-0.32563099 -0.23407701 1.0640399 1259508370
-0.30229399 -0.23384701 1.06299 1259047819
-0.272062 -0.233733 1.06248 1259376784
-0.26585701 -0.23294801 1.05891 1259113612
-0.263852 -0.23273601 1.05795 1258850440
-0.21805701 -0.234653 1.0666699 1258587268
-0.21628401 -0.234657 1.06669 1258982026
-0.20195299 -0.23452 1.0660599 1259113612
-0.196656 -0.234556 1.0662301 1258587268
-0.15426099 -0.23490199 1.0678 1258916233
-0.147063 -0.234769 1.0671999 1258718854
-0.136548 -0.235027 1.06838 1258521475
-0.102831 -0.23524199 1.06936 1257699062
-0.0829698 -0.234483 1.06591 1257962234
-0.049089398 -0.23378199 1.0627199 1257962234
-0.034852199 -0.233272 1.06041 1258225406
0.0500209 -0.23370101 1.0623699 1257962234
0.150324 -0.235595 1.07099 1259376784
0.1768 -0.235219 1.06928 1260429472
0.18239 -0.23553801 1.07073 1260626851
0.19008601 -0.23623601 1.0739 1260495265
0.192901 -0.235305 1.06967 1260692644
-0.38015699 -0.22556899 1.03399 1260429472
-0.361646 -0.231353 1.06051 1259639956
-0.32550099 -0.23202901 1.06361 1259113612
-0.31487599 -0.232032 1.06363 1258784647
-0.30927101 -0.231815 1.0626301 1258916233
-0.30742899 -0.23176099 1.06239 1258653061
-0.305922 -0.231959 1.0633 1258521475
-0.281376 -0.232164 1.06424 1258455682
-0.26405901 -0.23097201 1.05878 1258093820
-0.26281101 -0.231425 1.06085 1257962234
-0.25654101 -0.23214699 1.06416 1257699062
-0.216157 -0.23255999 1.0660599 1257830648
-0.208959 -0.232453 1.06557 1257567476
-0.191301 -0.232564 1.06608 1257567476
-0.16807701 -0.23237 1.06519 1258093820
-0.148706 -0.23259699 1.06624 1257304304
-0.146943 -0.232618 1.06633 1257699062
0.098504901 -0.229274 1.05102 1258455682
0.15565801 -0.233601 1.07087 1258718854
0.195182 -0.225677 1.0345401 1260363679
-0.30922499 -0.229828 1.06248 1257567476
0.189034 -0.231004 1.06796 1258916233
0.191581 -0.225623 1.04308 1258784647
-0.40735799 -0.21610001 1.00755 1259442577
-0.40961 -0.21454901 1.00896 1259113612
-0.36572999 -0.22584599 1.0621099 1256777960
-0.34433699 -0.225738 1.0616 1257304304
-0.300001 -0.225639 1.0611399 1257830648
-0.28419799 -0.225722 1.06154 1257304304
-0.271934 -0.225816 1.06198 1257962234
-0.234615 -0.225649 1.0612 1256777960
-0.222324 -0.225732 1.06159 1257567476
-0.220544 -0.22572 1.06153 1256777960
-0.21874499 -0.225688 1.06138 1256777960
-0.213421 -0.225666 1.06128 1257041132
-0.206403 -0.225725 1.06156 1257172718
-0.188794 -0.22581001 1.06196 1257435890
-0.183449 -0.22576299 1.06174 1257172718
-0.176349 -0.225731 1.06159 1257435890
-0.174582 -0.225732 1.06159 1257172718
-0.160391 -0.225667 1.06129 1257435890
-0.149811 -0.22570699 1.06148 1257567476
-0.13743401 -0.225706 1.06148 1257830648
-0.121589 -0.22583 1.06206 1257699062
-0.116327 -0.22591799 1.06247 1257567476
-0.107439 -0.22583599 1.06209 1257435890
-0.10392 -0.225876 1.0622801 1257567476
-0.100412 -0.225945 1.0626 1257435890
-0.089864098 -0.226126 1.06345 1257830648
-0.084588699 -0.226229 1.06394 1257435890
-0.033203401 -0.226275 1.06416 1257830648
-0.0048398101 -0.226128 1.06347 1257699062
0.0111089 -0.22625899 1.06409 1257304304
0.0146369 -0.225998 1.06286 1257699062
0.039436199 -0.226079 1.0632401 1258093820
0.041214 -0.226117 1.06343 1257304304
0.057114098 -0.225953 1.06265 1257435890
0.066103697 -0.22643 1.0649 1257041132
0.067881703 -0.22644401 1.06497 1257041132
0.078416497 -0.22613201 1.0635 1257699062
0.097818002 -0.22593699 1.06258 1257304304
0.122776 -0.22626799 1.06414 1257567476
0.135038 -0.226023 1.06299 1258225406
-0.40778899 -0.21175 1.00448 1259179405
-0.38683599 -0.217849 1.03343 1262600641
-0.35189599 -0.224096 1.0630701 1258521475
-0.33188501 -0.223737 1.06137 1258455682
-0.31252801 -0.223801 1.0616699 1258587268
-0.27533001 -0.223749 1.06143 1258587268
-0.26997301 -0.22370499 1.06122 1258587268
-0.231297 -0.22390901 1.0622 1258784647
-0.22409301 -0.223782 1.06159 1258718854
-0.213486 -0.223785 1.06161 1258784647
-0.17274299 -0.223689 1.06116 1258850440
-0.16379499 -0.223538 1.0604399 1258850440
-0.16027001 -0.22354899 1.06049 1258784647
-0.147907 -0.223552 1.06051 1259113612
-0.137317 -0.223564 1.06057 1259047819
-0.135552 -0.22356699 1.06058 1258982026
-0.112719 -0.223829 1.06183 1259245198
-0.098616697 -0.22393499 1.06233 1259113612
-0.091599897 -0.224084 1.06304 1259113612
-0.080992498 -0.22413 1.06326 1258982026
-0.077405997 -0.22400101 1.06265 1259047819
-0.065015599 -0.22399899 1.06264 1259179405
-0.047357 -0.22419401 1.06356 1258916233
-0.042059399 -0.22428501 1.064 1259179405
-0.0314494 -0.224452 1.06479 1259179405
-0.0279088 -0.22450501 1.06504 1259376784
0.030681601 -0.22486299 1.06675 1259310991
0.034183498 -0.22452401 1.06514 1259113612
0.048360601 -0.224448 1.06478 1259310991
0.13508999 -0.22415701 1.0634 1258982026
0.136925 -0.224261 1.0639 1259179405
0.14570101 -0.224131 1.06328 1259245198
0.18825801 -0.224191 1.06357 1259245198
-0.408586 -0.21031401 1.00644 1259639956
-0.384821 -0.215786 1.03264 1261547953
-0.371732 -0.222358 1.0641 1260166300
0.13134301 -0.221857 1.0617501 1260100507
0.181596 -0.222757 1.0660599 1260363679
-0.38263699 -0.223667 1.07987 1260429472
-0.36451399 -0.22032399 1.06372 1260297886
-0.34836501 -0.220195 1.0631 1260034714
0.148513 -0.22177701 1.0707901 1260561058
-0.39636701 -0.21172699 1.03135 1261876918
0.18898401 -0.217126 1.0577199 1261416367
-0.25480601 -0.21653301 1.06432 1260363679
0.242901 -0.21302401 1.04711 1262403262
-0.413093 -0.203483 1.0092601 1259310991
-0.077130198 -0.21347301 1.0588599 1260758437
-0.395028 -0.206238 1.03234 1261613746
-0.40127999 -0.198092 1.00076 1261613746
0.247814 -0.206036 1.06068 1262534848
0.243505 -0.203439 1.05731 1262929606
-0.41151699 -0.19162101 1.00541 1260363679
-0.38864401 -0.194242 1.0290999 1261876918
-0.41132399 -0.18599001 1.00494 1261218988
-0.403543 -0.184728 0.99811399 1261942711
-0.39022899 -0.18850601 1.0287499 1262337469
0.23510499 -0.19852699 1.0835299 1261679539
0.25189701 -0.193406 1.05558 1262863813
-0.39808601 -0.184696 1.01817 1262074297
-0.39131299 -0.186316 1.0271 1262732227
-0.40736201 -0.180556 1.0159301 1261613746
-0.41414601 -0.176532 1.00366 1260495265
-0.0418077 -0.184065 1.05761 1259179405
-0.035064701 -0.18567 1.06683 1257041132
0.236838 -0.18851399 1.08321 1261811125
-0.41357699 -0.17260601 1.00229 1260955816
-0.0217521 -0.191655 1.11299 1255725272
-0.393603 -0.175248 1.02862 1262403262
0.244627 -0.178372 1.04704 1262600641
-0.0448623 -0.176393 1.04668 1257699062
0.238665 -0.182558 1.08331 1261745332
-0.41621101 -0.166797 1.00059 1259903128
-0.402495 -0.170156 1.02075 1262074297
-0.40280801 -0.169846 1.03025 1261679539
-0.394324 -0.16915099 1.0260299 1262732227
-0.0189976 -0.175179 1.06266 1256120030
0.24026 -0.177092 1.0743001 1262403262
0.249468 -0.171606 1.05275 1262995399
-0.41596699 -0.16118599 1 1260166300
-0.40087101 -0.163176 1.01236 1261942711
-0.40306199 -0.16475999 1.02219 1261350574
-0.344024 -0.16921701 1.04985 1261613746
-0.403871 -0.163901 1.02858 1261482160
-0.33910501 -0.16658901 1.04547 1261153195
-0.41017699 -0.157207 0.99807298 1262074297
-0.40965301 -0.157645 1.00085 1261876918
-0.41073701 -0.15870699 1.0075999 1261482160
-0.395776 -0.161504 1.02537 1262600641
0.23865999 -0.164396 1.04382 1262205883
-0.41625401 -0.15578 1.00069 1261218988
-0.39611 -0.15975399 1.02623 1262140090
-0.035253499 -0.16695499 1.07256 1258093820
0.24075601 -0.168823 1.0846 1262074297
-0.417198 -0.153675 0.99896002 1260166300
-0.0352749 -0.165084 1.07321 1258850440
-0.0279832 -0.16425499 1.06782 1258916233
0.081306301 -0.16961899 1.10272 1260824230
0.253185 -0.163197 1.06098 1262666434
-0.417768 -0.15204699 1.00033 1260626851
-0.40373099 -0.151223 1.01958 1261613746
-0.405893 -0.150783 1.02937 1262008504
-0.39720801 -0.150093 1.02465 1262337469
-0.42291799 -0.142906 1.00068 1259508370
-0.353313 -0.15242 1.06735 1261350574
-0.41933501 -0.139145 1.00009 1261745332
-0.404908 -0.140496 1.00981 1262074297
-0.40657201 -0.137346 1.01395 1261876918
-0.39700499 -0.13625599 1.01975 1261745332
-0.42212099 -0.129278 0.99487501 1260166300
-0.414803 -0.125413 0.99322402 1261876918
-0.40801099 -0.127424 1.00916 1261942711
0.24987601 -0.136978 1.08498 1262337469
-0.41514099 -0.123688 0.99403399 1261745332
0.179441 -0.13639501 1.09631 1260561058
0.252267 -0.134334 1.0797499 1262271676
-0.30905801 -0.125854 1.0266401 1259639956
-0.30696899 -0.125699 1.02538 1259837335
-0.240106 -0.130187 1.0620199 1259771542
0.17667501 -0.133669 1.0905 1260429472
0.248026 -0.13296799 1.0848 1261942711
-0.40967101 -0.122355 1.01327 1261679539
-0.25725299 -0.122909 1.01788 1259903128
-0.15538 -0.12838501 1.06327 1259903128
-0.088436201 -0.128902 1.06757 1259639956
-0.076427698 -0.129646 1.07373 1259574163
-0.0422404 -0.129015 1.0685101 1259574163
-0.0157109 -0.130399 1.07999 1259047819
0.0237533 -0.12978999 1.07495 1259376784
0.0418582 -0.130413 1.08011 1259903128
0.0453461 -0.130097 1.07749 1259639956
0.126348 -0.13034099 1.07953 1259903128
0.24787501 -0.127189 1.05343 1262140090
-0.42386699 -0.118332 0.99508202 1260429472
-0.41024899 -0.119289 1.01889 1261679539
-0.39913499 -0.119012 1.01652 1261416367
-0.176598 -0.124453 1.0630701 1259771542
-0.15192901 -0.124552 1.06391 1259837335
-0.105504 -0.122097 1.04294 1259837335
-0.103722 -0.122043 1.04248 1259442577
-0.086618997 -0.124922 1.06709 1259047819
-0.0686104 -0.124496 1.06345 1259376784
-0.066512696 -0.123889 1.05826 1259113612
-0.043858599 -0.124629 1.06459 1259245198
-0.021100299 -0.126386 1.07961 1258587268
-0.019330399 -0.126571 1.08119 1258389889
0.046946201 -0.125616 1.07304 1259047819
0.162109 -0.12907501 1.10263 1259047819
0.167282 -0.12741999 1.08848 1259179405
-0.200508 -0.121965 1.0584199 1259837335
-0.021065401 -0.124195 1.0778199 1259047819
-0.0083994502 -0.122753 1.0653 1258587268
-0.00130351 -0.122917 1.06672 1258587268
0.175522 -0.124833 1.08339 1259442577
0.249484 -0.12131 1.05282 1262863813
0.26613 -0.123335 1.0704 1262863813
-0.42330599 -0.112697 0.99376702 1261482160
-0.41773799 -0.113432 1.00025 1261350574
-0.26029399 -0.11995 1.05779 1260166300
-0.258403 -0.11989 1.0572701 1260166300
-0.25334001 -0.119994 1.05819 1260429472
0.0308442 -0.121608 1.07248 1259837335
0.104858 -0.120442 1.0622 1260297886
0.26642099 -0.120692 1.06444 1262732227
-0.41082099 -0.113361 1.0161099 1261811125
-0.26468 -0.118391 1.06125 1260495265
0.17006899 -0.120823 1.08314 1261021609
-0.40888 -0.110061 1.00304 1262205883
-0.365244 -0.116947 1.06584 1260166300
-0.29449001 -0.115653 1.05406 1260429472
-0.26823199 -0.116448 1.0613101 1261021609
-0.235863 -0.116177 1.05885 1261218988
-0.031307399 -0.116288 1.0599 1260758437
-0.0136831 -0.116543 1.06223 1260890023
-0.0048476602 -0.116807 1.06464 1261021609
0.082033597 -0.116789 1.06449 1261416367
0.136142 -0.120744 1.10057 1260955816
0.195326 -0.118831 1.08313 1260429472
-0.36685801 -0.113837 1.0551701 1260297886
-0.32246199 -0.114297 1.05944 1260955816
0.194794 -0.116523 1.08018 1261284781
0.21322501 -0.117758 1.09164 1261218988
-0.422804 -0.106938 1.00836 1261811125
-0.41396901 -0.106703 1.02389 1262271676
-0.419034 -0.101506 0.99149001 1261942711
-0.351955 -0.107761 1.05265 1261942711
-0.29313001 -0.107407 1.04919 1262205883
-0.41863501 -0.099198103 0.98665798 1261942711
-0.41308001 -0.102718 1.02169 1262271676
0.27979499 -0.105405 1.06812 1260626851
-0.42582101 -0.096080497 0.99191302 1261350574
-0.42890501 -0.094209 0.99140197 1259968921
-0.425881 -0.0920517 1.00769 1261876918
-0.41413099 -0.092803001 1.01592 1261745332
-0.40317699 -0.099714197 1.09164 1262074297
-0.25677601 -0.094679803 1.05782 1262469055
-0.25189501 -0.094831802 1.05952 1261942711
-0.429616 -0.087065198 0.99304599 1260955816
-0.426862 -0.086355098 1.00605 1261416367
-0.274028 -0.089882299 1.07014 1262403262
-0.41539201 -0.083381198 1.01487 1261876918
-0.41614199 -0.081332497 1.01258 1261416367
-0.414213 -0.087320901 1.0872 1261218988
-0.42713401 -0.078700997 1.00275 1261811125
-0.423244 -0.075568199 0.98590797 1261679539
-0.41160199 -0.083163299 1.08509 1261547953
0.098628901 -0.082106099 1.07142 1261416367
-0.423011 -0.073715799 0.98536402 1262008504
-0.418024 -0.076091997 1.0171601 1261679539
-0.419642 -0.081326202 1.08719 1261876918
0.26407701 -0.080517903 1.07657 1262929606
-0.416987 -0.073150299 1.00245 1262271676
-0.41882199 -0.074064203 1.01499 1261482160
-0.421754 -0.072998501 1.02623 1262205883
-0.407864 -0.071758501 1.00879 1262600641
-0.41178399 -0.077555001 1.09036 1261613746
-0.42181501 -0.068957202 1.02224 1261811125
0.098691598 -0.071022399 1.05305 1260166300
0.175961 -0.0755779 1.12067 1262732227
0.142906 -0.0747803 1.13991 1262140090
0.25015801 -0.072302699 1.10215 1262469055
-0.41712901 -0.063960403 1.00279 1261679539
-0.398442 -0.068047702 1.09863 1262600641
-0.28877401 -0.067647196 1.0922 1261679539
0.15408801 -0.070494302 1.13836 1261547953
-0.43448001 -0.059676301 0.992818 1261613746
-0.431467 -0.060411301 1.00506 1262205883
-0.40871301 -0.060511801 1.00674 1262534848
-0.225417 -0.065730698 1.09373 1260297886
0.0120395 -0.069332503 1.15381 1260100507
0.16902 -0.068306297 1.13677 1261613746
0.180261 -0.068260796 1.1360199 1261811125
0.27900699 -0.064410701 1.0719301 1262271676
-0.43755299 -0.057820901 0.99228603 1259903128
-0.410061 -0.056765899 1.00594 1262403262
-0.35494301 -0.0608088 1.07768 1262534848
-0.214783 -0.062862203 1.11417 1260429472
0.00417352 -0.062408801 1.10621 1260758437
-0.420935 -0.0597881 1.09526 1263258571
-0.21934199 -0.0600315 1.0998 1260363679
-0.00504578 -0.060452402 1.1076 1260363679
0.140365 -0.061105601 1.11965 1260626851
0.161668 -0.0621242 1.13833 1260758437
-0.424265 -0.0538067 1.01994 1262271676
-0.411275 -0.053009 1.00481 1263061192
-0.41290301 -0.058185201 1.10304 1262732227
-0.060961299 -0.0589673 1.11803 1260561058
0.239904 -0.057428099 1.08894 1263982294
0.28169 -0.056711201 1.07535 1263126985
-0.43680301 -0.050439902 0.99058503 1261284781
-0.411679 -0.051212698 1.0058 1262666434
-0.35989499 -0.0556315 1.09272 1261613746
0.162405 -0.057529699 1.13026 1260363679
-0.43800199 -0.048569299 0.98956603 1260100507
-0.328453 -0.051536199 1.09106 1260363679
-0.32196799 -0.051371399 1.08757 1260626851
-0.30224401 -0.051715299 1.09486 1259968921
-0.297553 -0.0515345 1.09103 1260363679
-0.213806 -0.051936802 1.0996 1259508370
0.0172428 -0.052768499 1.11734 1259179405
0.028534399 -0.053000301 1.12225 1259245198
0.085671 -0.052502301 1.11172 1259639956
0.156083 -0.053146102 1.1253999 1259639956
0.181089 -0.0527853 1.11777 1260297886
0.202209 -0.052468099 1.11105 1260495265
0.215266 -0.052045401 1.1021 1260297886
0.24697199 -0.05215 1.1043299 1261876918
-0.43612 -0.044908099 0.98903698 1262008504
-0.39734799 -0.049512301 1.09061 1260297886
-0.38397101 -0.049426898 1.08873 1260100507
-0.32432801 -0.049734101 1.09554 1259639956
-0.309138 -0.049932599 1.09992 1259113612
-0.30394199 -0.049982 1.10101 1259047819
-0.28675699 -0.049547799 1.09144 1259376784
-0.271862 -0.0494835 1.09003 1258850440
-0.208363 -0.049928199 1.09987 1258718854
0.00049229199 -0.050672099 1.11638 1258455682
0.0078916699 -0.050423 1.11089 1258521475
0.0154925 -0.0510807 1.1253999 1258521475
0.088161796 -0.050827201 1.11984 1258982026
0.097614199 -0.0508927 1.12129 1259113612
0.106568 -0.0507094 1.11725 1259047819
0.17935 -0.050244302 1.10703 1259310991
0.18881799 -0.050310198 1.10848 1259113612
0.20217399 -0.0504173 1.11086 1259245198
0.205742 -0.050384801 1.11014 1259376784
0.233649 -0.050025199 1.1022201 1260561058
0.25308299 -0.050237902 1.10692 1260824230
0.279562 -0.048747402 1.07406 1262929606
-0.42781401 -0.044627301 1.02437 1262140090
-0.41413301 -0.044079602 1.01179 1262008504
-0.427495 -0.047628898 1.09337 1260363679
-0.41152999 -0.047467899 1.08968 1259442577
-0.40652099 -0.047518499 1.09085 1259574163
-0.40472901 -0.047521599 1.09092 1259179405
-0.399333 -0.047527801 1.0910701 1259179405
-0.38829899 -0.047511801 1.0907 1258850440
-0.359743 -0.0475788 1.09225 1258850440
-0.34306201 -0.047788698 1.09709 1258653061
-0.151152 -0.048356801 1.11024 1258225406
-0.101142 -0.048317999 1.10938 1257567476
0.097837299 -0.0489434 1.12385 1257830648
0.099792399 -0.048984099 1.12479 1257567476
-0.42792201 -0.042755499 1.02463 1262534848
-0.41424599 -0.042231701 1.01206 1261942711
-0.441311 -0.039477501 0.989595 1259968921
0.11608 -0.044629 1.1192501 1258389889
0.133195 -0.0447415 1.12209 1257962234
0.167285 -0.0448604 1.1251 1258718854
0.195347 -0.044849001 1.12482 1258225406
0.21791901 -0.0448668 1.12528 1258587268
0.251555 -0.044847801 1.12482 1259903128
0.255465 -0.0445497 1.11734 1260100507
-0.34918201 -0.0418166 1.0991 1258455682
-0.28470701 -0.041756399 1.09755 1258455682
-0.23348001 -0.042077299 1.10603 1257962234
-0.220382 -0.0420385 1.10502 1258587268
-0.212842 -0.0420033 1.1041 1257830648
-0.210859 -0.041974898 1.10335 1257830648
-0.198668 -0.0421171 1.1071 1257962234
-0.180006 -0.0420647 1.1057301 1258324096
-0.17254899 -0.042042799 1.10516 1257699062
-0.16892 -0.0420557 1.1055 1257830648
-0.15807299 -0.042109199 1.10691 1258225406
-0.152169 -0.042006299 1.10421 1257699062
-0.133876 -0.042036999 1.10502 1257962234
-0.102799 -0.0421235 1.10732 1257962234
-0.084510498 -0.042200599 1.10936 1258324096
-0.062336199 -0.042199802 1.10936 1258850440
-0.018057199 -0.0423593 1.11358 1258587268
-0.0087714996 -0.0423037 1.11212 1258455682
0.0116094 -0.042319398 1.11255 1258916233
0.026500201 -0.042424299 1.11532 1258718854
0.0302299 -0.042444602 1.11585 1258653061
0.037698202 -0.042482302 1.11685 1259047819
0.073140003 -0.0425376 1.11832 1258587268
0.076828398 -0.042516999 1.11778 1258587268
0.082412399 -0.042516101 1.1177599 1258653061
0.10846 -0.042508699 1.1175801 1259113612
0.12554599 -0.042620901 1.12055 1258850440
0.148065 -0.042655502 1.12147 1258916233
0.17061099 -0.042687401 1.1223201 1259047819
0.172552 -0.0427051 1.12279 1259442577
0.17998099 -0.0426929 1.12247 1259047819
0.229431 -0.0428482 1.12659 1259310991
0.240655 -0.042841598 1.12642 1259245198
0.24611799 -0.042489301 1.1171499 1260166300
-0.43538201 -0.036306798 1.00251 1262271676
-0.42069599 -0.039808899 1.0994 1260166300
-0.40267599 -0.039478701 1.0902801 1259179405
-0.390775 -0.0397452 1.0976501 1259179405
-0.38526899 -0.039742999 1.0976 1259310991
-0.37694401 -0.0398288 1.09998 1259245198
-0.367715 -0.039821301 1.0997699 1259047819
-0.35693699 -0.0398449 1.10043 1258982026
-0.31391999 -0.0399676 1.10385 1259245198
-0.290151 -0.039733902 1.0974 1258850440
-0.28110799 -0.039747398 1.09778 1258916233
-0.27937901 -0.0397617 1.09817 1258916233
-0.25982299 -0.039847501 1.1005599 1258916233
-0.248439 -0.039785702 1.09886 1258916233
-0.24120399 -0.039799701 1.09925 1258916233
-0.23014601 -0.039787099 1.09891 1258916233
-0.18476599 -0.039868101 1.10118 1259113612
-0.170248 -0.039904099 1.10218 1259245198
-0.1595 -0.0399707 1.10403 1259245198
-0.148267 -0.039916899 1.10255 1259574163
-0.113576 -0.039986901 1.1045001 1259574163
-0.098705001 -0.0399248 1.1028 1259376784
-0.095023103 -0.039921202 1.1027 1259705749
-0.089566201 -0.039944999 1.1033601 1259376784
-0.067557298 -0.039970901 1.10409 1259771542
0.00418123 -0.040124699 1.10839 1259705749
0.0060286401 -0.0401318 1.10859 1259705749
0.018978599 -0.040183298 1.11002 1259705749
0.024535 -0.040198602 1.11045 1259705749
0.039340999 -0.040207699 1.11071 1260034714
0.043063398 -0.0402283 1.11128 1259705749
0.052346099 -0.040249199 1.11186 1259837335
0.0597765 -0.040264301 1.11229 1259771542
0.095211901 -0.040362801 1.1150301 1259574163
0.099736802 -0.040693 1.1241699 1259574163
0.133385 -0.040674899 1.12369 1260100507
0.13532899 -0.0406968 1.12429 1260232093
0.14093301 -0.040692698 1.12418 1260363679
0.20314801 -0.040775899 1.12652 1260363679
0.208882 -0.040796202 1.12708 1260429472
-0.405002 -0.037522402 1.09165 1260166300
-0.41281399 -0.039121501 1.13826 1260232093
-0.370682 -0.037916102 1.10315 1259903128
-0.26722601 -0.037834998 1.10085 1259968921
-0.26554701 -0.037857201 1.1015 1260034714
-0.246897 -0.037810199 1.10015 1260034714
-0.217507 -0.037797399 1.09979 1260100507
-0.202905 -0.037806898 1.10007 1260166300
-0.17893399 -0.038164601 1.11051 1260034714
-0.114193 -0.038162999 1.11051 1260034714
-0.080395803 -0.037925702 1.10361 1260495265
-0.034508299 -0.038000099 1.10581 1260692644
-0.018106 -0.038368899 1.11657 1260890023
-0.0068793502 -0.037996601 1.1057301 1260824230
0.047159798 -0.0385077 1.1206599 1260758437
0.0527367 -0.038490798 1.12017 1260824230
-0.43457201 -0.032191701 0.98926198 1261876918
0.112248 -0.0363678 1.11822 1261153195
0.25422999 -0.036425699 1.1201 1261679539
-0.44178799 -0.0303038 0.98697698 1259903128
-0.43612599 -0.030832 1.00422 1262271676
-0.122528 -0.034343101 1.11905 1260955816
-0.076737702 -0.033877101 1.10388 1261284781
-0.435653 -0.026905701 0.99549502 1261547953
-0.42322201 -0.0269584 0.99746197 1262205883
-0.41759101 -0.0272405 1.00793 1262469055
-0.028849101 -0.0297335 1.10071 1261679539
-0.00134848 -0.029745299 1.1011699 1261613746
-0.42781499 -0.025497099 1.01226 1261942711
-0.41674399 -0.0254387 1.00995 1261416367
0.0076805302 -0.0272181 1.08114 1261482160
0.025678599 -0.0272069 1.0807101 1261416367
0.240998 -0.027327601 1.0857 1261811125
-0.436239 -0.023277801 0.99683499 1261745332
-0.43426299 -0.021108801 0.98111802 1262140090
-0.43351799 -0.021152001 0.98313397 1261482160
0.21350101 -0.024111001 1.12177 1260626851
-0.43787801 -0.019612901 0.99678499 1261284781
-0.43091899 -0.0181864 1.0196 1262600641
-0.443793 -0.013939 0.98413002 1259705749
-0.462953 -0.0124684 1.01167 1258982026
-0.44390199 -0.0121333 0.98437202 1259968921
-0.40392801 -0.0109703 1.04647 1261613746
-0.43296099 -0.0066146702 0.97086799 1262337469
0.29267201 -0.0053968998 1.08957 1262337469
-0.440961 -0.00312413 0.99624902 1261745332
-0.430886 -0.0031588301 1.00761 1261613746
0.19949999 -0.0035447199 1.13782 1259968921
0.21529301 -0.0014093 1.10224 1259771542
-0.42999801 0.000536434 0.99392098 1262732227
-0.41984099 0.0023813201 1.00128 1262271676
-0.43481901 0.0058784001 0.97140503 1261745332
0.20862301 0.0068993401 1.13591 1261547953
-0.442361 0.0077394699 0.98095298 1262205883
-0.44367301 0.0078799902 0.99861598 1261547953
-0.43305799 0.0132641 0.989564 1262995399
-0.44674101 0.0148785 0.97624201 1259639956
-0.43454 0.0153695 1.0082999 1262074297
-0.42034799 0.0152201 0.99852598 1261482160
0.28038999 0.0166547 1.09121 1262205883
-0.43733701 0.0165626 0.96981299 1261942711
-0.44323301 0.016912101 0.990201 1261613746
-0.423172 0.017102299 1.0012701 1262732227
-0.44555399 0.018485099 0.97720498 1261153195
-0.435031 0.020871401 1.00555 1261745332
-0.40651301 0.022956399 1.1056401 1261876918
-0.40544999 0.0230006 1.10777 1261679539
-0.44500899 0.0218895 0.96892899 1259903128
0.28251901 0.026711499 1.09242 1262074297
-0.434488 0.0262811 1.00045 1261284781
-0.44079399 0.0286387 1.01887 1262403262
-0.449451 0.0293024 0.97860098 1260890023
-0.44777399 0.0298438 0.99663502 1261811125
-0.42437601 0.0299503 1.00018 1261745332
-0.448753 0.0317447 0.998815 1261942711
-0.43721199 0.031752601 0.99905401 1261942711
-0.44058499 0.032604799 0.96985 1261679539
0.28867701 0.036839101 1.09507 1262600641
-0.44142199 0.037884898 0.96814102 1262008504
-0.444895 0.038465101 0.982939 1261284781
0.22200599 0.0482697 1.12701 1262140090
-0.45071799 0.0434976 0.97429103 1260561058
-0.44532001 0.043604899 0.97668898 1261416367
-0.44031799 0.0449223 1.00615 1261613746
-0.44069701 0.045133099 1.01086 1262008504
-0.45422399 0.0453142 0.97485101 1259376784
-0.44128299 0.0470534 1.01221 1262403262
-0.44453201 0.0469396 0.97141302 1261547953
-0.447707 0.047797799 0.98915201 1261942711
0.173576 0.0540151 1.11735 1260890023
-0.0359147 0.054816101 1.09251 1260561058
-0.37996799 0.0560284 1.07737 1261284781
0.100619 0.058994699 1.13414 1260429472
0.10256 0.0590242 1.13471 1260626851
0.162305 0.056781702 1.09161 1260692644
0.189906 0.0574321 1.10409 1260429472
0.194236 0.0576258 1.10781 1260626851
0.202849 0.0574519 1.10446 1260363679
0.217291 0.0578692 1.11247 1260166300
0.22613101 0.058237799 1.11955 1260561058
-0.43110299 0.053853899 1.00032 1262600641
-0.22411001 0.0571637 1.06164 1260363679
-0.19586299 0.056162201 1.0430501 1260495265
-0.18178 0.0577618 1.0727201 1260034714
-0.161487 0.057534698 1.0685 1260232093
-0.137942 0.058113299 1.0792201 1259639956
-0.086867303 0.058830298 1.0925 1259771542
-0.084792003 0.058653399 1.08922 1260166300
-0.077041499 0.0582802 1.0822901 1260232093
-0.070355803 0.058718901 1.09043 1259442577
-0.046454001 0.058354799 1.08366 1259968921
-0.043144099 0.058763798 1.0912499 1260034714
-0.025190201 0.059287999 1.10097 1260297886
0.106169 0.0599446 1.11309 1260692644
0.107775 0.059806701 1.11053 1260692644
0.211054 0.0597216 1.10891 1259508370
-0.18518201 0.060259201 1.08215 1259310991
-0.164552 0.059967101 1.0769 1259639956
-0.141923 0.060260601 1.08216 1258718854
-0.13006 0.060612999 1.08848 1259442577
-0.12577 0.060294598 1.08276 1259179405
-0.116101 0.060899701 1.09361 1259310991
-0.43241999 0.057706799 1.0033799 1262534848
-0.23936801 0.061809801 1.07456 1259705749
-0.209819 0.062070601 1.07908 1259837335
-0.198191 0.0623709 1.08429 1259771542
-0.19047201 0.062209699 1.08149 1259442577
-0.079652697 0.0628969 1.09338 1259113612
0.172738 0.065375298 1.13633 1259837335
0.176607 0.065406501 1.13687 1259245198
0.23980901 0.066126898 1.14935 1258718854
-0.446632 0.057713401 0.972462 1261416367
-0.43327999 0.059669301 1.00537 1262205883
-0.245904 0.064088702 1.07968 1260626851
-0.226493 0.0641945 1.08146 1260297886
-0.222616 0.064115301 1.08012 1260232093
-0.182873 0.064695597 1.08988 1260034714
-0.121667 0.064972997 1.09452 1259245198
-0.0603939 0.065750197 1.1075799 1259574163
-0.44376799 0.061811499 1.01019 1262205883
-0.161226 0.067517303 1.10323 1260100507
-0.120101 0.067128398 1.0968699 1260166300
-0.104419 0.066450201 1.08579 1259771542
-0.0513441 0.0680172 1.1113501 1259771542
0.254372 0.070675001 1.1546299 1259771542
-0.17447799 0.069700003 1.1057 1260824230
-0.450064 0.066919103 0.97639197 1261679539
-0.44235799 0.068240501 0.99565101 1261679539
-0.157051 0.075387701 1.09974 1260955816
-0.43423599 0.070638403 1.00371 1261679539
-0.45282501 0.071457803 0.98953301 1261745332
-0.444924 0.072864398 1.00899 1262732227
-0.434838 0.0723048 1.00125 1262534848
-0.45161799 0.0728155 0.98331499 1261021609
0.153933 0.085288301 1.15141 1260495265
-0.44100299 0.074767001 0.98521399 1261942711
-0.39778399 0.080291703 1.05794 1259837335
0.156969 0.086960897 1.14557 1261416367
0.159275 0.087178797 1.14844 1261087402
0.26337099 0.088088498 1.16039 1261613746
-0.456321 0.079052202 0.993554 1261876918
-0.44166899 0.078506798 0.98670101 1261876918
-0.43407899 0.079222098 0.99567997 1262534848
-0.39333901 0.086698398 1.08956 1261350574
-0.453372 0.080064401 0.98356599 1261087402
-0.37614101 0.0893583 1.09762 1262205883
-0.47608599 0.082975902 0.996822 1259047819
-0.440642 0.0816385 0.98075902 1262403262
-0.44436499 0.084459797 0.99272501 1261876918
-0.44861901 0.085908704 1.00974 1262271676
-0.43419999 0.084735401 0.99595797 1261679539
0.248721 0.099075198 1.1641901 1262074297
-0.43622899 0.090302698 0.99680197 1262403262
-0.451527 0.089568302 0.96905899 1261613746
-0.45674399 0.091256797 0.98731399 1261350574
-0.43449399 0.102578 1.0880899 1261876918
-0.45867401 0.095286898 0.99148399 1261876918
-0.43455201 0.095430396 0.992971 1262074297
-0.42626399 0.102169 1.06304 1262074297
-0.45361999 0.098577298 0.970083 1261284781
-0.46224201 0.100478 0.971223 1260363679
-0.444691 0.101644 0.98248303 1261613746
-0.450178 0.111028 1.0019799 1262337469
0.31866601 0.121675 1.09785 1262929606
0.31833401 0.123564 1.0967 1263061192
-0.436674 0.114757 0.98655403 1262600641
0.31920201 0.127212 1.09342 1262863813
-0.46289301 0.11412 0.96582901 1259968921
-0.44487801 0.115289 0.97571403 1261942711
-0.45948899 0.117493 0.97914398 1261613746
-0.45923901 0.118387 0.97171301 1261613746
-0.43704101 0.119846 0.98368102 1262337469
-0.43733901 0.129509 1.04716 1262469055
0.30239999 0.136712 1.10523 1262140090
-0.44810501 0.12335 0.98279101 1261679539
0.310011 0.138033 1.09958 1262666434
-0.459923 0.124367 0.97659999 1261416367
-0.463772 0.127676 0.96098298 1259968921
-0.46184301 0.131115 0.96030003 1261350574
-0.439165 0.13575999 0.981103 1262929606
-0.46485099 0.139881 0.959903 1260824230
-0.46446401 0.140247 0.96241599 1261942711
-0.46063101 0.140545 0.96445799 1261679539
-0.45723 0.146135 1.0028 1262337469
-0.47062799 0.141941 0.96190703 1259047819
-0.46432 0.14148401 0.958808 1261021609
-0.46368399 0.143049 0.95749497 1261284781
-0.45235899 0.146617 0.981363 1261613746
0.327831 0.164057 1.0979199 1262600641
-0.44128001 0.148543 0.98217303 1262008504
-0.464479 0.14631601 0.95584798 1260495265
-0.46295699 0.146339 0.95599401 1261613746
-0.452306 0.149666 0.97771698 1261942711
-0.464306 0.148018 0.95549101 1261087402
-0.45576099 0.15372699 0.992329 1261679539
-0.46463901 0.14988101 0.956177 1260824230
-0.46058801 0.151695 0.96774399 1261613746
-0.45162499 0.16242801 1.0241801 1262469055
-0.405817 0.180787 1.13989 1262469055
-0.40532601 0.183139 1.1547101 1262403262
-0.31237701 0.18977299 1.19651 1260692644
-0.41511601 0.19155499 1.19393 1261416367
0.31053001 0.179812 1.10797 1262271676
-0.46722099 0.156708 0.95494401 1259705749
-0.442518 0.160441 0.977678 1262929606
-0.408131 0.189916 1.15721 1260692644
0.330562 0.17969599 1.0948499 1262534848
-0.46095699 0.15959901 0.96178597 1261547953
-0.45028201 0.162101 0.97685701 1261613746
-0.401447 0.18369 1.1069 1261745332
-0.46183199 0.16167299 0.96361202 1261350574
-0.438041 0.166042 0.98963702 1261679539
-0.46609101 0.191842 1.14336 1262403262
0.32021999 0.185121 1.1032 1262929606
-0.45431 0.166572 0.98204702 1261284781
-0.456359 0.16974799 0.99003899 1262337469
-0.444251 0.168285 0.981507 1261745332
-0.46823499 0.16528 0.95376801 1260363679
-0.47632599 0.196087 1.13148 1260955816
-0.45824999 0.199709 1.15237 1260495265
-0.41430801 0.20074099 1.1583101 1260100507
-0.373252 0.203605 1.17483 1258982026
-0.463774 0.16771699 0.95767802 1261876918
-0.47606301 0.198057 1.13085 1260166300
-0.44518 0.20112599 1.14837 1259771542
-0.43842399 0.20066001 1.14571 1259705749
-0.43239799 0.202305 1.1551 1259639956
-0.42331699 0.20349 1.16186 1259442577
-0.41680801 0.20314801 1.1599 1259639956
-0.39302799 0.19798 1.13041 1259442577
-0.38087901 0.204605 1.16821 1258455682
-0.288001 0.20498 1.1703399 1258982026
-0.46875101 0.1684 0.95159 1259574163
-0.44437599 0.172475 0.97460902 1262666434
-0.45949599 0.2045 1.1555099 1258455682
-0.45782799 0.204614 1.15615 1258455682
-0.431445 0.20489 1.1576999 1258718854
-0.426568 0.205327 1.16017 1258455682
-0.42254299 0.206192 1.16506 1258389889
-0.36386499 0.207036 1.16982 1258324096
-0.46250701 0.171933 0.95178902 1261811125
-0.463393 0.175824 0.96351898 1261613746
-0.47186199 0.204548 1.12087 1260034714
-0.458543 0.205273 1.12484 1258324096
-0.42110601 0.20713501 1.13503 1258324096
-0.411955 0.207287 1.13587 1258324096
-0.39963201 0.208757 1.1439199 1258324096
-0.39745399 0.209618 1.14864 1258389889
-0.39579999 0.209756 1.14939 1258389889
-0.38812599 0.209747 1.14934 1258324096
-0.38082799 0.20994601 1.15043 1258225406
-0.367199 0.209823 1.14975 1257962234
-0.36539301 0.209885 1.1501 1257962234
-0.36245999 0.210408 1.1529599 1257962234
-0.35781699 0.21221 1.16283 1258093820
-0.291042 0.215838 1.1827 1258225406
-0.444143 0.180204 0.97766799 1261350574
-0.46327001 0.20947801 1.13644 1259113612
-0.449094 0.205587 1.11533 1259245198
-0.45170599 0.209382 1.13592 1259310991
-0.42260101 0.21186601 1.14938 1259376784
-0.406093 0.212244 1.15143 1259310991
-0.40186399 0.213053 1.15582 1259310991
-0.390091 0.21398801 1.16088 1259508370
-0.38775101 0.213764 1.15967 1259310991
-0.376665 0.215156 1.16722 1259179405
-0.34665701 0.215841 1.17093 1259574163
-0.339026 0.21349099 1.15819 1259574163
-0.46602499 0.17852899 0.95902801 1261284781
-0.456871 0.18318699 0.98403698 1261811125
-0.409338 0.216074 1.16063 1259903128
-0.39741701 0.21801899 1.17108 1260166300
-0.38862401 0.218559 1.17398 1260166300
-0.47306499 0.182832 0.95389497 1259968921
-0.46485201 0.185748 0.95990199 1260955816
-0.454669 0.189503 0.97929502 1262666434
-0.46622801 0.186782 0.95616603 1261547953
-0.44687101 0.190759 0.97651201 1262008504
-0.45654401 0.191155 0.96942198 1261547953
-0.46364099 0.195822 0.95740199 1261811125
-0.455212 0.199111 0.97347999 1261745332
-0.47261801 0.197098 0.94663399 1260166300
-0.457892 0.202792 0.96545303 1262140090
-0.458058 0.20569301 0.96242398 1261876918
-0.45616299 0.208491 0.97551203 1262732227
-0.45958701 0.208886 0.96902698 1261416367
-0.45945999 0.213138 0.97217298 1261153195
-0.46713999 0.21036001 0.95153397 1260890023
-0.46829399 0.212633 0.95388502 1261153195
-0.46967101 0.213567 0.95024103 1261613746
-0.45903999 0.21931 0.96787298 1261087402
-0.450243 0.220727 0.96629202 1262929606
-0.467884 0.21945199 0.953049 1261416367
-0.460237 0.22189 0.96362901 1261482160
-0.47775099 0.2199 0.94743198 1260495265
-0.453356 0.226641 0.97646397 1261811125
-0.46251601 0.22576 0.96503299 1261876918
-0.461797 0.226987 0.97027701 1261021609
-0.47247699 0.22714099 0.95591801 1261153195
-0.43388399 0.224473 0.94469303 1260429472
-0.472238 0.228782 0.95543402 1261350574
-0.46208 0.230064 0.96078598 1261876918
-0.480591 0.229442 0.943712 1258982026
-0.479689 0.229764 0.945032 1259837335
-0.47435099 0.23177101 0.95328403 1261350574
-0.46262699 0.235503 0.96863198 1261153195
-0.46370199 0.236187 0.964158 1261811125
-0.47463199 0.23462801 0.950665 1261876918
-0.46344101 0.237004 0.96028799 1262205883
-0.49631 0.25224301 0.971398 1260100507
-0.33801201 -0.35401899 1.06723 1260758437
-0.358464 -0.33606201 1.0334001 1261416367
-0.372318 -0.32505 1.0129499 1260955816
0.22778299 -0.33804101 1.05882 1260758437
-0.35887301 -0.32898399 1.03474 1260626851
0.23118199 -0.320952 1.05905 1260561058
-0.34491599 -0.324516 1.07797 1260692644
0.0088233203 -0.31671399 1.0600801 1258784647
0.227502 -0.307275 1.04082 1261153195
-0.388412 -0.29902101 1.01227 1259968921
-0.0089925099 -0.31705999 1.07832 1259574163
0.0020694099 -0.30757499 1.05548 1257962234
0.0089805704 -0.30466601 1.05252 1257699062
0.019320199 -0.29537499 1.0414701 1259508370
-0.392683 -0.28512201 1.01495 1260100507
-0.31656301 -0.27578199 1.00385 1260429472
0.236169 -0.29044601 1.05897 1261284781
-0.0296252 -0.30222201 1.10593 1259639956
-0.34948701 -0.298893 1.09708 1260166300
0.23812699 -0.28324801 1.06033 1261482160
-0.37110701 -0.27252999 1.02878 1261613746
0.031328902 -0.282487 1.06762 1259574163
0.120028 -0.28422701 1.0746599 1259705749
-0.32639 -0.28336999 1.0721101 1260100507
-0.30443999 -0.280967 1.06434 1259310991
-0.26932999 -0.28077 1.06417 1259113612
-0.177696 -0.279219 1.06022 1258784647
-0.166454 -0.28062001 1.06508 1258389889
-0.050191998 -0.28100401 1.0679801 1258850440
-0.043405902 -0.28170699 1.0704401 1259376784
0.048637498 -0.280579 1.06792 1259047819
0.069495603 -0.281304 1.07065 1259310991
0.079648197 -0.279908 1.0661 1259245198
0.100465 -0.28041199 1.0680799 1259047819
-0.149413 -0.274423 1.0573699 1259639956
-0.125075 -0.27403 1.05637 1259837335
-0.104002 -0.27306601 1.05338 1259771542
0.0158689 -0.27373701 1.0573 1259442577
0.062302899 -0.27523199 1.06302 1259179405
-0.391626 -0.26291499 1.02125 1261153195
-0.23478401 -0.27340701 1.0592999 1260034714
-0.22487999 -0.274001 1.06146 1259968921
