# .PCD v0.7 - Point Cloud Data file format
VERSION 0.7
FIELDS x y z rgb
SIZE 4 4 4 4
TYPE F F F U
COUNT 1 1 1 1
WIDTH 1113
HEIGHT 1
VIEWPOINT 0 0 0 1 0 0 0
POINTS 1113
DATA ascii
-0.040178601 0.0263633 0.71421403 1274991801
-0.036462002 0.0263502 0.71385199 1274660527
-0.11445 0.027549099 0.73033899 1274926772
0.0101685 0.027088 0.71792799 1274267311
-0.147127 0.0281714 0.731107 1248173201
-0.0136265 0.027679101 0.71813297 1269133151
-0.0084235398 0.0276885 0.71837097 1269331041
-0.0061908602 0.0276847 0.71826798 1270120814
0.0375374 0.0299353 0.776582 1246907974
-0.0069355699 0.028272901 0.718355 1272687509
0.00199038 0.0282591 0.71798998 1274595765
-0.0158644 0.028860601 0.71843803 1272225422
-0.149719 0.0297202 0.725326 1273157308
-0.136041 0.0300177 0.73256397 1274598832
-0.000239516 0.0293363 0.71574903 1274200751
0.0056841802 0.0293056 0.71499199 1271832460
-0.0300024 0.0300317 0.71848297 1273079959
-0.0150693 0.0299291 0.71600902 1274266288
-0.014328 0.029929601 0.71601999 1274200494
-0.038182799 0.030612901 0.71840501 1273145236
-0.023234701 0.030523499 0.716286 1274002346
-0.0128412 0.0305035 0.71580398 1271701388
-0.086256199 0.0310924 0.71604198 1274529962
-0.062548101 0.031104101 0.71627897 1269722973
-0.049338799 0.031195 0.71835297 1271829120
-0.0276802 0.031100599 0.71615201 1272885148
-0.078035302 0.031649899 0.71545303 1269461085
-0.063366704 0.031725701 0.71714699 1271433591
-0.0508161 0.031773198 0.71820402 1274462125
-0.036600299 0.031700902 0.71655202 1272949145
-0.019505899 0.031657699 0.71555299 1270780029
-0.081060998 0.032257002 0.71600097 1270119015
-0.065582998 0.0328875 0.71701902 1273211288
-0.054434098 0.032881599 0.71687502 1271765641
-0.094419897 0.033426501 0.716093 1271370879
-0.093701802 0.033434901 0.71627301 1271962759
-0.068479002 0.033434998 0.71624303 1271436418
-0.064056098 0.033449601 0.71655101 1271501183
-0.119331 0.034133699 0.71873701 1274927284
-0.111668 0.034067102 0.71732497 1272622992
-0.0833655 0.034038499 0.71668899 1271699846
-0.055868398 0.0340182 0.71622801 1270780545
-0.104139 0.034618299 0.71663702 1272819093
-0.12755699 0.035899699 0.71895403 1272689813
-0.126794 0.035894599 0.71885097 1272360081
-0.135122 0.036517002 0.71959001 1273479328
-0.150216 0.037149101 0.72050202 1274663347
-0.14787699 0.037123799 0.72000903 1274137260
-0.14858299 0.037700001 0.71981698 1272755353
-0.14174899 0.037667301 0.71918601 1271111041
-0.20906299 0.0418883 0.78758597 1225590530
-0.157869 0.0383684 0.72137499 1274466223
-0.15941399 0.038968101 0.72160399 1274401458
0.0121473 0.042576998 0.703408 1270583680
0.033211902 0.0498298 0.73430699 1246382658
0.26418301 0.052046102 0.73165798 1245921592
0.017361799 0.0531835 0.73938298 1267432046
0.022483399 0.0532219 0.73163098 1245657905
0.0265467 0.0537793 0.73929 1248092504
0.263257 0.053357001 0.73329902 1246579263
0.26238501 0.054685801 0.73510998 1246711364
0.0134949 0.055434 0.73728901 1249667681
0.0096776197 0.0560362 0.73731601 1248287054
-0.0040685702 0.056667101 0.73772401 1268812927
0.0142549 0.056621 0.73711002 1248091992
0.26793501 0.056689698 0.73781699 1247894095
-0.0101816 0.057874899 0.73781002 1247958349
-0.020888099 0.058501799 0.73814797 1248614991
-0.0201234 0.058500901 0.73813701 1248549198
-0.160238 0.058341902 0.72874397 1266774114
-0.043100901 0.059163 0.73891598 1269469576
-0.095106103 0.061220702 0.75695199 1269993341
-0.051537301 0.059786301 0.73918802 1269600905
-0.043871999 0.059772599 0.73901403 1267365486
-0.159289 0.0603345 0.731318 1270389126
-0.072981402 0.0609973 0.73929101 1269863305
-0.0614715 0.060972299 0.73898 1266904165
0.245021 0.056558602 0.67858702 1247103808
-0.102885 0.0622271 0.739618 1270192010
-0.077569902 0.062196799 0.73924202 1248746322
0.246603 0.059926301 0.70521802 1246710338
0.26747501 0.063678898 0.74937201 1248617821
-0.103633 0.063420199 0.73948699 1248746324
-0.102878 0.0634268 0.73956299 1248614994
-0.13286801 0.064085498 0.74023497 1270323854
-0.122834 0.064050101 0.73982 1267167077
0.212294 0.0608675 0.702847 1245922365
-0.140499 0.064671502 0.740049 1269864331
-0.13591801 0.064680398 0.74014801 1268153457
-0.132774 0.064642303 0.73970997 1249797468
-0.131218 0.064630501 0.739573 1248942159
-0.137989 0.0651749 0.738922 1247299132
0.190245 0.061941098 0.702057 1246252099
0.186023 0.062559903 0.70258898 1245725501
-0.155503 0.066941701 0.73851198 1247958605
0.221847 0.064176902 0.70778197 1246119235
0.17238501 0.064344503 0.703345 1245133621
0.192792 0.064594202 0.70606202 1244935984
0.21589801 0.064947702 0.709912 1246974542
0.14760201 0.064907499 0.703255 1247369813
0.143879 0.065443002 0.70285898 1246251332
0.152988 0.065604001 0.70458299 1245988161
0.190817 0.065318197 0.70148998 1245856571
0.174757 0.066410601 0.70705003 1245659198
0.203428 0.065974899 0.70239198 1245658683
0.241465 0.066235296 0.70514297 1246316348
0.163957 0.0676369 0.70784003 1245988158
0.166876 0.0676319 0.70778501 1246711883
0.219979 0.067511298 0.70649201 1248224861
0.152482 0.068326198 0.70901901 1244606507
0.163349 0.068265401 0.708381 1247304531
0.21309 0.069174901 0.71779001 1244605992
0.230653 0.067784101 0.70334703 1246777414
0.118429 0.068317398 0.70300603 1247434834
0.156286 0.068962499 0.70962298 1248159330
0.19642401 0.068610497 0.70597702 1226710295
0.115051 0.069046803 0.704611 1247368528
0.141693 0.069590203 0.710141 1248027997
0.18905599 0.069163799 0.70576298 1245001003
0.0918286 0.069715902 0.705589 1246645319
0.118178 0.069743603 0.705854 1244737578
0.12509 0.069930598 0.70774299 1243684890
0.13258199 0.070016801 0.70861101 1247435091
0.18303201 0.069670796 0.70507997 1245066797
0.0992679 0.0703848 0.706532 1246512449
0.101471 0.070390902 0.70659202 1246380607
0.105107 0.070375703 0.70643699 1245920568
0.110946 0.070367597 0.706352 1244737321
0.072105497 0.070869297 0.705643 1246908235
0.077939898 0.070859097 0.70553899 1246053440
0.098690197 0.071070999 0.707636 1244999466
0.177872 0.070799202 0.70488602 1247105359
0.161082 0.071049601 0.70169997 1226776088
0.178756 0.071434602 0.70549297 1248223838
0.55147398 0.14317 1.41381 1245455385
-0.20468301 0.075443201 0.73935002 1248092504
0.067185499 0.072228096 0.70770001 1246316098
0.094494604 0.072377197 0.70914698 1245525294
0.105134 0.0726256 0.71157402 1248881253
0.147604 0.071427703 0.69981402 1247697493
0.22352199 0.072076298 0.706128 1244540453
0.071000598 0.072959498 0.70920599 1244671273
0.094676502 0.073095202 0.71051198 1248748894
0.051102601 0.073437802 0.70826101 1245987131
0.074103802 0.073701799 0.71079397 1244078621
0.079957798 0.073670201 0.71048599 1247434318
0.14589299 0.072798498 0.70204401 1247039819
0.14811701 0.072819598 0.70224702 1245395248
0.50853699 0.13308699 1.28329 1249666133
0.081459999 0.074276701 0.71075398 1266777716
0.019578001 0.074643798 0.708776 1247697749
0.0246781 0.074529402 0.70768797 1246184510
0.057149898 0.074826904 0.710495 1244538402
0.089549698 0.075470701 0.716591 1249013096
0.138726 0.073996402 0.70256698 1246316860
0.0144176 0.075103499 0.70767301 1246776647
0.0622897 0.075392798 0.710374 1267040632
0.138109 0.074628197 0.70313001 1244211485
0.135141 0.075169303 0.702838 1243684629
0.163757 0.0756137 0.70697802 1246185024
-0.0068250801 0.076141402 0.706622 1247502167
-0.00097371801 0.0763565 0.70861501 1246710856
0.0034356201 0.076498903 0.70993298 1246315326
0.0277739 0.076712698 0.711905 1244605478
0.117088 0.075833298 0.70369798 1247960921
0.130869 0.075796798 0.70335197 1226644242
-0.020734999 0.076739296 0.70683599 1248487780
-0.00610267 0.076834098 0.70770198 1245725499
0.0210979 0.077142604 0.71052903 1245526578
0.0284552 0.077140801 0.710509 1249539950
0.112719 0.076408699 0.70372301 1245132080
0.139339 0.076621599 0.70567 1245395247
0.15567 0.076747701 0.70682299 1245789752
-0.026601801 0.077346198 0.70712501 1247960921
-0.00024056299 0.0776994 0.71034098 1244868650
0.0137359 0.077698603 0.71032703 1246249788
-0.024537601 0.078345403 0.71096599 1245132336
0.0049166698 0.078405097 0.71149403 1245197099
0.0115136 0.078171901 0.70937401 1249211242
-0.00171415 0.078961 0.71128601 1246120001
-0.058067702 0.0790409 0.70684898 1248553058
-0.018645 0.0794928 0.71087098 1244012825
-0.0164306 0.080042697 0.71061301 1248618591
-0.65635502 0.165907 1.4626 1244666642
-0.069507197 0.080724902 0.71155101 1245460018
-0.028956899 0.080665298 0.711007 1247631440
0.115627 0.080348402 0.708143 1245066287
-0.091806799 0.081474498 0.71305197 1267369859
-0.088078298 0.081441097 0.712758 1248356193
-0.027482999 0.081240296 0.710971 1267566719
0.108341 0.080960102 0.708453 1244869417
-0.087174296 0.081865601 0.71140403 1245066026
0.0292133 0.081832498 0.71105999 1249013861
0.051134702 0.081563503 0.70871198 1248158039
0.076033801 0.081506699 0.708206 1247040073
0.067295402 0.082158998 0.70886302 1246843208
-0.113631 0.082974799 0.71099299 1248224350
0.057780098 0.082775503 0.70920497 1247105351
-0.10867 0.083702803 0.71225899 1245723446
0.053396501 0.083388798 0.709512 1246907716
-0.132109 0.084176399 0.711371 1248290655
-0.1278 0.084249802 0.71198899 1246579012
0.059237201 0.0839139 0.70906401 1245855028
0.0681061 0.083985299 0.70966297 1245066026
0.075402804 0.083927304 0.70916998 1244605475
-0.13356701 0.084745899 0.71129 1245526839
-0.099263497 0.085019499 0.71357101 1243618582
-0.103694 0.085597798 0.71354997 1244933928
-0.022374701 0.085466102 0.71241498 1249145447
0.0181525 0.085234098 0.71046299 1247500111
0.0276937 0.085162699 0.70986301 1246776391
0.031378701 0.085188299 0.71007502 1246447936
0.049007401 0.085155502 0.70979297 1245329454
-0.094794601 0.086149797 0.71330601 1267764096
-0.142731 0.086680204 0.71291202 1244603681
0.042431299 0.0863913 0.71045399 1244539169
0.0233221 0.087042898 0.71105897 1245394995
0.0387915 0.087056801 0.71116602 1244145181
-0.143778 0.088030003 0.71444601 1226707728
-0.137724 0.087944299 0.71374702 1245394477
0.025538599 0.087647498 0.71126598 1244407842
0.0115351 0.088160597 0.71073997 1244802854
-0.155904 0.088934697 0.71237898 1245131306
-0.0046656802 0.088893197 0.71197897 1245657653
-0.15099899 0.089232199 0.710127 1268158341
-0.107937 0.090121903 0.717188 1267040888
-0.052662 0.090171099 0.71293598 1247631696
-0.037145399 0.090142399 0.71270299 1246907970
-0.183056 0.091550097 0.71469402 1249145961
-0.140829 0.092595302 0.71826899 1266842220
-0.046038698 0.091955602 0.71326703 1245460784
-0.050498702 0.092587598 0.713664 1245131822
-0.034370001 0.094108097 0.71638399 1245131822
-0.175708 0.094888903 0.71793699 1248092507
-0.077220798 0.094470903 0.71473402 1245065772
-0.118011 0.095698103 0.71522301 1246974026
-0.13041 0.0961373 0.71416497 1247302475
-0.16936401 0.097000599 0.71626103 1247236939
-0.069089398 0.096813798 0.71484101 1246513475
-0.0682998 0.096744001 0.71432602 1246842440
-0.129072 0.097989 0.71494597 1244737063
-0.147205 0.101732 0.71671802 1245329198
-0.160414 0.102219 0.71604002 1246052924
-0.158406 0.126561 0.82534498 1245593400
-0.15140299 0.14707799 0.90619802 1244868394
0.52816999 0.22057 1.31905 1249140041
-0.136343 0.18588901 1.05045 1244474145
-0.62303901 0.246223 1.38515 1226511635
0.562702 0.235769 1.31995 1248283960
-0.63995302 0.25231901 1.4065599 1226183183
-0.65243399 0.25492501 1.41467 1244276253
0.568106 0.247059 1.35234 1247890231
-0.034161199 0.245111 1.25252 1245394738
-0.13422801 0.22199801 1.0595 1226578712
-0.13745899 0.22339199 1.02627 1244277027
-0.121523 0.21465699 0.94377702 1246184767
-0.104841 0.211577 0.90119803 1245856574
-0.51084101 0.32935101 1.3248 1246251330
-0.109461 0.23928501 0.94089901 1246447940
-0.0437176 0.33409899 1.30533 1243750683
-0.175455 0.25319201 0.91908503 1247567700
-0.126109 0.31647599 1.0467 1245988415
-0.045926701 0.36778501 1.18759 1245001263
0.196568 -0.182888 0.847902 1248743998
0.20527799 -0.18382999 0.85544401 1272163460
0.20580401 -0.176457 0.861902 1271504762
0.20974401 -0.174868 0.85992199 1270056560
0.198273 -0.17060199 0.85569602 1249533512
0.220254 -0.159266 0.81992698 1247628853
0.206724 -0.161874 0.87431997 1270454647
0.196225 -0.14504801 0.784087 1247363375
0.169045 -0.149186 0.844284 1247101750
0.217637 -0.14870299 0.85153502 1249595712
0.21964701 -0.14631701 0.85287797 1267622733
0.178083 -0.144105 0.84836298 1267167325
0.18408699 -0.14237399 0.84906799 1270717562
0.21811301 -0.14162099 0.85722703 1249269313
0.192013 -0.138197 0.850793 1246707248
0.21846101 -0.135701 0.862535 1249662792
0.190992 -0.130641 0.85894102 1247693631
0.219285 -0.12589601 0.86971599 1247757620
0.226898 -0.126029 0.86934799 1244141845
0.181692 -0.122281 0.86921901 1249798228
0.19905099 -0.120405 0.848818 1245525287
0.221698 -0.11566 0.880925 1247034156
0.17870601 -0.112173 0.86981601 1247365947
0.20277999 -0.109321 0.84866202 1244209176
0.14871401 -0.116979 0.96279502 1247826251
0.091789998 -0.114558 0.98379999 1247368525
0.092046402 -0.111579 0.95150203 1247499854
0.184477 -0.10773 0.88592398 1249404242
-0.105829 -0.10298 0.91747099 1268810096
-0.53125399 -0.131797 1.3551199 1246834472
0.193891 -0.104272 0.86050302 1244473372
-0.13089 -0.100928 0.91739398 1269137515
-0.50518698 -0.128002 1.36675 1246111517
-0.029061601 -0.099239297 0.90292501 1273021590
-0.493386 -0.12624399 1.35572 1245454358
0.18362699 -0.100828 0.87779802 1248942414
-0.027574601 -0.096065998 0.89841098 1273284761
0.17314 -0.100973 0.898884 1247039559
-0.48449299 -0.123159 1.36835 1245979933
-0.142066 -0.092924602 0.90255499 1273330291
0.19676401 -0.098935597 0.88407302 1246248497
0.21989 -0.097628303 0.88643098 1248677438
-0.149224 -0.085937403 0.88789099 1273727867
-0.45914501 -0.114792 1.3800499 1246573352
-0.0231898 -0.086726703 0.88502598 1272101768
0.023006501 -0.091428503 0.95351201 1246776130
0.21348999 -0.091049902 0.88326102 1245196317
0.274784 -0.097588003 0.95278698 1226578449
-0.35826999 -0.114772 1.43839 1247295016
0.221935 -0.090478398 0.90153998 1248613702
0.031903502 -0.088321403 0.94866902 1246249787
0.198431 -0.088999398 0.89870501 1247627067
0.221643 -0.087859198 0.90439802 1248680262
-0.206193 -0.077896699 0.94848698 1247298362
-0.019840701 -0.077658102 0.872311 1271509630
-0.115841 -0.074143998 0.876441 1273347476
-0.165604 -0.072380498 0.87926799 1269468282
-0.413064 -0.099476501 1.4558001 1245126677
0.274023 -0.085377298 0.93476897 1245789491
-0.103764 -0.071546704 0.87413698 1272820876
0.22113 -0.081159398 0.91030902 1248548677
-0.123717 -0.069562502 0.87235498 1272820876
0.24208499 -0.080274098 0.89810097 1245790519
-0.39532799 -0.094285302 1.4388 1245323288
0.0110003 -0.073794201 0.92452103 1248550468
-0.58046699 -0.077839002 1.3464299 1249594944
-0.165208 -0.062653601 0.865637 1269534072
0.229656 -0.074049398 0.89181602 1247106125
-0.158453 -0.060518201 0.86044002 1271638653
0.186664 -0.071548201 0.90569597 1247628613
0.0116212 -0.0669453 0.917781 1246510890
0.187622 -0.070879303 0.90596998 1247497537
-0.212484 -0.0611609 0.932087 1246575924
0.031970698 -0.065281004 0.91730499 1247499339
-0.0369603 -0.057578102 0.84561199 1268680041
0.27404499 -0.067537203 0.90793198 1246249273
-0.083246604 -0.054433402 0.84683299 1269139309
-0.102951 -0.0532539 0.84680098 1268877418
0.27540401 -0.065367401 0.90572798 1244669984
-0.062693797 -0.053435899 0.841748 1249806171
-0.034497499 -0.054113898 0.84035403 1248230750
-0.212689 -0.0511273 0.92110801 1247496511
-0.081828803 -0.0474298 0.83551401 1249344852
-0.164977 -0.044773001 0.84136498 1267367768
-0.078062899 -0.046151798 0.83357602 1268158326
-0.017621299 -0.047535799 0.82689899 1248237444
0.031401601 -0.050271198 0.89803499 1246380859
-0.059032898 -0.045254499 0.83068597 1249679463
-0.0150615 -0.046293501 0.82657999 1249023101
0.032396998 -0.049542699 0.89635402 1247302217
-0.059603799 -0.0445414 0.82912803 1267444081
-0.211547 -0.0419663 0.90617502 1247299648
-0.547701 -0.044075601 1.35206 1249662276
-0.0996591 -0.041501801 0.82832497 1267247985
0.0122528 -0.042270601 0.81806499 1267498336
-0.077981502 -0.038637899 0.82045299 1266982498
-0.12952401 -0.036684401 0.82363498 1268547685
-0.111329 -0.037187502 0.82455498 1249281635
-0.111409 -0.035821199 0.82136703 1247306568
-0.086981997 -0.035799801 0.82003301 1249807204
-0.211188 -0.033114601 0.89400798 1248021825
-0.0065170499 -0.0358552 0.810018 1248622168
-0.102959 -0.032740202 0.817325 1266851186
-0.0118142 -0.034389399 0.80653101 1249147732
0.031822 -0.035873801 0.877747 1246447165
-0.15601499 -0.028688399 0.81410903 1273942171
-0.061756302 -0.0298924 0.809062 1267964780
0.27146399 -0.039323099 0.85212499 1245525805
-0.54589701 -0.020558299 1.4085 1248412466
-0.000104114 -0.0302392 0.80375099 1249474905
0.27125701 -0.0379817 0.85104299 1245921078
-0.105547 -0.026776399 0.80724198 1248099933
-0.0636613 -0.027902801 0.806126 1249014596
0.0133796 -0.029763 0.86597699 1247496507
-0.031702802 -0.027452299 0.79850698 1267111273
-0.0124112 -0.0267199 0.79874998 1267307381
-0.16388699 -0.0213538 0.80749297 1267631446
-0.15599599 -0.021556901 0.80305302 1272560261
-0.128214 -0.022314999 0.80314797 1247894845
-0.040265702 -0.023440201 0.79707903 1266848611
-0.0192714 -0.024013 0.79609197 1267111020
-0.20964199 -0.0175045 0.87067199 1248023630
0.270863 -0.0306849 0.84137899 1247304017
0.013472 -0.022277299 0.85495001 1248680784
-0.14972199 -0.0160286 0.79576099 1272689554
-0.110782 -0.016472699 0.79549599 1249481835
0.032435101 -0.0201026 0.855012 1246513728
0.0145167 -0.019369001 0.78475797 1267100504
-0.12852 -0.0129176 0.786255 1271177859
-0.113738 -0.0126871 0.78797102 1267708298
0.0328671 -0.0161408 0.84810001 1246842437
0.27127001 -0.0229614 0.82845497 1246184247
-0.208396 -0.0086998297 0.85409999 1246378289
-0.155628 -0.0096728997 0.78595102 1272427908
-0.0302261 -0.0120355 0.77827501 1248822617
-0.020508001 -0.0111159 0.77596402 1248750669
-0.155239 -0.0054323399 0.779531 1272757383
0.0142893 -0.0091514103 0.83605897 1248023365
-0.028979599 -0.0079412796 0.76975203 1248689494
-0.075407602 -0.00588215 0.776676 1267438438
-0.078630097 -0.0046387399 0.773256 1266783844
0.032098401 -0.0057240902 0.83475 1245657650
-0.163219 -0.00092631002 0.77724099 1266710362
0.0314002 -0.0037732001 0.83298898 1245394477
-0.16293301 0.00144633 0.77390099 1267301982
0.0088331997 -0.0039574802 0.75470197 1267431507
-0.0354666 -0.00129589 0.76200002 1249672030
-0.154928 0.00282652 0.76590598 1270128230
-0.093504697 0.00099289801 0.76310802 1248889969
-0.0574334 7.06315e-06 0.76451999 1248617284
-0.0093953097 -0.00163359 0.755395 1267958108
0.0147394 0.00095216901 0.82171798 1248482632
-0.0539166 0.0021039201 0.75781101 1267169113
-0.10396 0.00426848 0.76169598 1248163169
0.0152153 0.00079316599 0.74261397 1268879461
-0.16249999 0.0072850902 0.76529598 1267631706
0.033984601 0.0041786698 0.81851 1246643778
-0.123664 0.0071972101 0.76021802 1267761753
-0.1206 0.0071132998 0.760333 1249735247
-0.0525125 0.0071542002 0.75025398 1273741725
-0.137082 0.0133137 0.75330698 1273281692
0.035531498 0.0113735 0.80723101 1247104842
0.27219 0.0037056101 0.79031402 1246183221
-0.46852699 0.055562399 1.37507 1246374946
-0.15428001 0.015903899 0.746957 1270982766
-0.153753 0.016521599 0.747738 1274336165
0.034904201 0.0138221 0.80477798 1246512192
0.27238601 0.00711066 0.78461999 1245657649
-0.074970402 0.016690699 0.73851901 1274136226
-0.51681501 0.072981 1.4394701 1247163949
-0.044442199 0.0098852096 1.65887 1245073713
-0.041515999 -0.0236149 0.79709399 1267961716
-0.159242 0.0252422 0.73216999 1271573654
0.035870899 0.023690101 0.79019499 1246183994
-0.114476 0.0249098 0.72957599 1271307128
-0.027458999 0.0225586 0.71564901 1272822411
-0.203317 0.0330365 0.78570598 1245590059
0.0033650701 0.021824401 0.70994198 1269337186
-0.60661101 0.087130301 1.4008 1247887408
-0.0074695302 0.0233646 0.71133298 1268941914
0.27254599 0.018912399 0.76900399 1246775103
-0.204105 0.0349469 0.78570902 1245918256
-0.0377708 0.026639299 0.71294701 1272817035
-0.042789999 0.027351899 0.71290702 1271830652
0.0157388 0.025869301 0.71675998 1270977665
0.0085110897 0.026690099 0.71726698 1272096144
-0.059510499 0.0290519 0.71380597 1272883599
-0.0152214 0.028512901 0.71690601 1271699844
-0.077719398 0.0307892 0.71453601 1272686474
-0.073329702 0.030640701 0.71432501 1271502199
-0.201083 0.0393955 0.77099502 1246839871
-0.091568097 0.031802598 0.714894 1272752525
-0.158693 0.034597199 0.71741802 1269930116
0.27251601 0.024800399 0.759628 1246644545
-0.11401 0.0341697 0.71466601 1271898245
-0.066365696 0.032821801 0.7159 1272948629
-0.058385499 0.0325763 0.71585602 1272488846
-0.0489235 0.032266699 0.71556997 1272423310
-0.0020117699 0.0308332 0.71543503 1270254967
0.0176882 0.034626599 0.77117902 1244800284
-0.121057 0.0348894 0.713875 1271898500
-0.085035101 0.033890001 0.71506 1271502465
0.0377892 0.034743 0.77263302 1246974026
-0.144274 0.036903702 0.71598399 1273346968
-0.19918901 0.045588199 0.75751901 1247104586
-0.198505 0.0502881 0.749578 1246052923
0.0388778 0.046578702 0.756275 1246578752
0.0298294 0.0508864 0.73216802 1246250560
0.0104349 0.055422802 0.73612899 1266773344
-0.0134078 0.0568606 0.737019 1268548728
-0.017827701 0.057557199 0.73676199 1267101283
-0.028324001 0.0585443 0.73736697 1267693678
-0.053010099 0.059951998 0.73770499 1268089206
-0.050824601 0.059921701 0.73804402 1268155255
0.266785 0.050030898 0.73452997 1245986871
0.56991899 0.129281 1.4924901 1244738604
-0.143558 0.064451702 0.73650098 1269533561
-0.159569 0.065613396 0.73703098 1249405276
-0.138992 0.064882398 0.73638302 1248744260
0.26377299 0.0528928 0.73359501 1246512958
0.247703 0.053644098 0.69903803 1245723959
0.21548501 0.059942301 0.70147097 1245791036
0.217682 0.059949599 0.70205802 1245724986
0.187868 0.061397199 0.70153499 1247238225
0.243835 0.060518201 0.70438099 1246053434
0.172107 0.063138202 0.70245397 1246185539
0.177046 0.063046202 0.70295697 1246053438
0.14781199 0.064517803 0.70271999 1247567444
0.165921 0.063939601 0.702797 1245857346
0.239254 0.061889399 0.70523602 1245856825
-0.20190699 0.0801275 0.72936398 1246974279
0.208096 0.063477099 0.70538199 1245725758
0.220226 0.063827999 0.70676202 1245921855
0.14516699 0.068882003 0.70942098 1246052924
0.152881 0.068595603 0.70918101 1246514506
0.159171 0.068348996 0.708893 1247171922
0.119689 0.070575602 0.70760202 1245460017
0.0212433 0.074423902 0.70802099 1247829590
0.0062416601 0.075542897 0.70845902 1247763538
-0.0087043997 0.076536402 0.70804 1246842184
0.080963001 0.073972702 0.71065599 1249671023
-0.092634797 0.0802515 0.710702 1248421472
-0.042567801 0.0784031 0.70932698 1248026714
-0.036853202 0.078247301 0.70954603 1247039819
0.047467299 0.075859897 0.71216899 1246117687
-0.054038301 0.079324603 0.70917702 1246512708
0.021671601 0.077359103 0.71274 1245197613
0.0418084 0.076453902 0.71109998 1248815201
0.058204699 0.076027296 0.71186602 1267566206
0.155591 0.071308903 0.70162702 1245592889
0.169432 0.072040699 0.70589399 1244737832
-0.00189469 0.079112597 0.711685 1247697488
0.166614 0.072645701 0.70559502 1245396275
0.14181399 0.073548302 0.70244801 1246249787
-0.039346699 0.0815318 0.71200103 1248552283
0.10551 0.075359903 0.70282698 1248684381
-0.17730799 0.086290799 0.70955402 1247500622
-0.067568801 0.083070002 0.71224099 1246709821
0.122972 0.075227 0.70209098 1248223323
0.13348401 0.074944101 0.70251697 1244473122
0.21227901 0.0730206 0.70700902 1245066026
-0.086392596 0.084255397 0.71219403 1246182966
-0.144995 0.088323899 0.71117198 1249141339
-0.18744101 0.0906028 0.70941699 1247434317
0.128626 0.080119602 0.70965499 1244802088
0.135539 0.079645097 0.70810503 1244144157
0.111667 0.081217997 0.70947599 1244737318
0.081216201 0.082817897 0.70961601 1245526064
0.099637702 0.082131602 0.70916402 1244539685
0.073422201 0.083765797 0.71039301 1245066283
0.022787999 0.086616799 0.71057397 1245921078
0.032127898 0.086186796 0.70984697 1245460527
-0.057782602 0.092264302 0.71123898 1245525551
-0.121252 0.096926898 0.71268702 1245066796
-0.0555683 0.095129304 0.71515298 1245262640
-0.60363603 0.23835 1.37831 1245393457
-0.152035 0.137807 0.88465202 1245460785
-0.13709199 0.167659 1.0425 1245658419
-0.15707301 0.1322 0.83789903 1246184510
-0.155201 0.145165 0.86658001 1246250303
-0.137191 0.17998999 1.04926 1245723959
-0.068600997 0.26062801 1.43484 1247368783
0.54277903 0.220884 1.25708 1249271112
0.52655399 0.230369 1.28429 1248284214
0.246885 0.19024 1.04913 1225986575
-0.134339 0.28426099 1.3933001 1247566416
0.532938 0.232824 1.25938 1246378795
0.65221602 0.24338201 1.28438 1246569769
-0.43401101 0.320687 1.4345599 1246448448
0.68357402 0.260773 1.34601 1245191709
-0.14177699 0.23578499 1.10391 1245723702
-0.180535 0.229086 1.02672 1247764309
0.72626102 0.268356 1.31319 1246970685
-0.31626901 0.33270499 1.33428 1246843207
-0.144327 0.29531801 1.20894 1245789495
-0.126157 0.32689399 1.2946 1244868650
-0.0507764 0.340051 1.32145 1245000236
-0.12696201 0.26494899 1.03878 1244803371
-0.36357701 0.35622099 1.31357 1247369038
-0.12579 0.280164 1.05615 1245131565
-0.20807 0.337201 1.2316099 1246843208
-0.0261709 0.35591301 1.26267 1243815964
-0.078322098 0.349222 1.221 1245395760
-0.25588199 0.36566299 1.2385401 1247302737
-0.124448 0.305702 1.06303 1244277027
-0.096105903 0.37598899 1.25191 1246843721
-0.101638 0.35921299 1.1931 1246711621
-0.33806601 0.397499 1.25976 1247106639
-0.077970304 0.38525799 1.2539901 1245395761
-0.26437601 0.369115 1.1796499 1247041356
-0.130208 0.38117701 1.2170399 1247699033
-0.12164 0.33280101 1.06841 1245395763
-0.087384202 0.392739 1.22936 1246185791
-0.149032 0.179637 0.97964901 1244737060
-0.151123 0.17821699 0.94285202 1245132590
0.206209 -0.154392 0.83498597 1249073222
0.0249616 0.087080099 0.71038997 1244934184
0.12644 0.075066999 0.70179302 1247039049
0.216057 0.0639669 0.70678401 1244869677
-0.0407741 -0.106501 0.91539001 1270586244
0.0118961 0.055404902 0.73638201 1249470813
0.272928 0.0205868 0.76735598 1246117943
-0.159841 0.0213378 0.74548101 1270916976
-0.035478201 0.000957262 0.757182 1268940388
0.00274247 -0.00317645 0.75517398 1266839628
0.184057 -0.153547 0.83165699 1271374986
-0.084503397 -0.024783099 0.804564 1268099958
-0.0176029 -0.036905199 0.81417501 1249674074
0.181747 -0.15146799 0.830383 1268677218
-0.0295108 -0.0419285 0.82316601 1247381353
-0.54702902 -0.117495 1.26017 1248806977
0.16409101 -0.15360899 0.86733598 1246509614
0.145005 0.067425802 0.71031302 1244672813
0.198397 -0.67836601 1.67241 1267432295
0.348575 -0.68355399 1.6715 1243947031
0.198826 0.072058402 0.70892203 1245199158
-0.47274399 -0.53201801 1.51281 1267561313
0.081446797 0.072940104 0.71327299 1248225121
0.346706 -0.66248399 1.67135 1244670495
0.57057399 -0.66435999 1.64347 1225395971
-0.0146335 0.057856299 0.74069202 1249273695
-0.508075 -0.50265402 1.47815 1266771541
-0.061775099 -0.054598 0.84332699 1267631202
-0.56511402 -0.11916 1.25062 1246242077
-0.443977 -0.51742297 1.51107 1267758434
-0.43288401 -0.515845 1.50621 1269732734
0.18851 -0.640692 1.6754301 1269141882
-0.44577399 -0.51645499 1.51228 1247888950
0.197421 -0.174422 0.85650599 1248021306
0.19011299 -0.63832599 1.6736 1247693627
-0.40223601 -0.505808 1.4986 1267298395
0.190152 -0.62513697 1.68273 1268813177
-0.273709 -0.29341701 1.48772 1247493428
-0.37487 -0.48523 1.49571 1267955811
0.54297799 -0.605452 1.61861 1225723400
0.00282171 0.0216319 0.712681 1269668982
0.227634 -0.59424102 1.65149 1226184205
-0.53318799 0.178927 1.55258 1245922875
0.197522 -0.57101899 1.70541 1249470548
-0.36958 -0.497545 1.6955 1268284520
-0.108928 0.034903999 0.72049701 1272885403
-0.34704 -0.48308501 1.70375 1268350825
-0.33904201 -0.45144799 1.6403199 1247823159
-0.46616599 -0.52647901 1.50361 1249336396
-0.49035001 -0.47508201 1.5025899 1244863508
0.330827 -0.67776799 1.6727 1244539168
-0.33564901 -0.46724001 1.70011 1266836820
0.21699201 -0.41238099 1.46229 1226775315
-0.060965501 -0.054888502 0.84387702 1267105888
0.19913299 -0.664469 1.69529 1247693622
0.218137 -0.41090599 1.47524 1243618837
0.093041196 0.079162098 0.72388399 1245724986
-0.40192699 -0.50456202 1.49743 1248087352
-0.30916101 -0.43454599 1.70818 1249861714
0.22882199 -0.38020101 1.45207 1226775574
-0.304162 -0.42373499 1.70669 1248940354
0.546278 -0.62679499 1.5703501 1243881498
0.214283 -0.48311001 1.73478 1247299897
-0.385988 -0.49469501 1.49683 1249271882
0.21402501 -0.14092 0.83005798 1248938036
0.340536 -0.64139903 1.65531 1245460270
0.18864299 -0.14004099 0.83603799 1246247989
-0.12481 -0.098313898 0.909742 1272692127
0.191149 -0.61797303 1.6705 1247233334
0.18453 -0.13790999 0.83740997 1266968912
-0.445943 -0.44622099 1.4509799 1243943694
-0.058214199 0.0033468499 0.75853598 1266774617
-0.36773199 -0.47629201 1.49817 1247955252
-0.43671 -0.44133201 1.44717 1245192478
0.22995999 -0.36991501 1.47041 1226118412
0.21935999 -0.59209597 1.64625 1226117649
0.221231 -0.42680499 1.6392601 1249142613
0.221313 -0.41803101 1.61924 1248223314
-0.412568 -0.44517499 1.4822299 1245126172
0.19525699 -0.60016102 1.68926 1248943952
-0.335446 -0.308189 1.48194 1246310440
0.49326101 -0.60213202 1.63983 1244209688
0.180584 -0.129728 0.851219 1267300711
0.24033301 -0.426994 1.67216 1248221253
0.18155999 -0.128673 0.85440898 1267827053
0.26836899 -0.353172 1.62094 1247102775
0.263993 -0.35825899 1.64257 1248418637
-0.415865 -0.258086 1.38008 1245124883
-0.16257399 -0.081014097 0.90021402 1275048362
-0.392869 -0.26584801 1.42775 1245058837
-0.0218879 -0.088072099 0.88231802 1270196085
-0.33985299 -0.27859801 1.4728301 1246442283
0.26154301 -0.35646799 1.65605 1247301184
-0.339607 -0.236929 1.4546 1246308385
-0.33805099 -0.27153099 1.46667 1246835247
-0.39904001 -0.226869 1.36139 1244993810
0.2159 -0.112614 0.85375899 1246969127
-0.44067401 -0.164801 1.26895 1244468242
-0.47443601 -0.15764999 1.18738 1244665876
0.187959 -0.099560097 0.880427 1267300707
-0.160899 -0.083327897 0.899701 1271808331
-0.023741201 -0.091372304 0.88595003 1270326904
0.24566799 -0.113521 0.92685199 1226380816
0.248356 -0.113547 0.928819 1244144924
-0.0413411 -0.0079550399 0.77565598 1267175015
-0.409895 -0.15446299 1.2615401 1244664846
0.263291 -0.051521402 0.84061497 1244474919
-0.199082 -0.080379501 0.95748198 1249008211
-0.0226072 -0.0030378001 0.762784 1267697003
-0.20580301 -0.070721701 0.94081098 1247825733
-0.389294 -0.50037801 1.4973201 1270785417
0.26196599 -0.106193 0.92188698 1226644756
-0.38211799 -0.116178 1.34533 1243877900
-0.20757701 -0.069017299 0.94100398 1247956548
0.24364901 -0.385461 1.40474 1243948827
-0.118076 -0.0449428 0.83992702 1249607007
-0.40615699 -0.16705699 1.34754 1244467466
0.033365801 -0.0222828 0.84113199 1246909263
-0.0175971 -0.047591101 0.828022 1248303494
0.244681 -0.38348001 1.40286 1225987081
0.0086074201 -0.050856099 0.831222 1249017441
-0.113068 -0.040229101 0.83443803 1267110775
0.193095 -0.080261201 0.883829 1269008756
-0.074810602 -0.0379407 0.82443899 1267899499
0.18773299 -0.0768333 0.88154203 1268943991
0.261969 -0.085104801 0.88741899 1243816991
-0.144526 0.081839003 0.98361701 1245197615
-0.332948 -0.443847 1.65084 1247558703
-0.339351 -0.318178 1.50001 1246374691
-0.079757698 -0.0073516099 1.70487 1248874301
-0.33954701 -0.182785 1.44866 1246047522
-0.123178 -0.023588501 0.81085598 1249740651
-0.43911001 0.059152499 1.43075 1246638633
-0.146522 0.0043332698 1.70894 1247376201
-0.0021450899 -0.030745801 0.80546302 1266780268
0.62741202 -0.041152898 1.57941 1226709010
0.263179 -0.069301799 0.86587203 1244014371
0.57016999 -0.034935299 1.59942 1243618067
-0.209879 -0.0365026 0.90139002 1247496257
0.22507299 0.0854633 0.766554 1226709265
-0.157019 0.0234755 1.6773601 1248031066
-0.165582 -0.0132342 0.80411297 1267170665
-0.066481099 0.031555701 1.61808 1246913601
-0.12961701 -0.0097191604 0.789258 1270067347
0.084785603 0.028657099 1.6326801 1246448711
0.210887 0.079001501 0.98095202 1244275483
0.263212 -0.056880899 0.84720802 1226645015
-0.15871701 0.12456 0.82168102 1245264438
-0.45235699 -0.090145603 1.21419 1247098665
-0.34522399 0.067427903 1.63293 1244934959
-0.34618399 0.069030598 1.63015 1244540202
-0.21014699 -0.0251026 0.88693899 1247956294
-0.342895 0.070808202 1.6215301 1246119490
0.172132 -0.046987899 0.84550899 1248224607
-0.15704501 0.126232 0.822887 1244804143
-0.00999106 0.14854699 1.48024 1246975056
-0.355093 0.072162598 1.64643 1244935472
-0.14733 0.125385 0.83873898 1244606508
0.217224 0.147407 0.998348 1244869423
0.084792897 0.046607599 1.60429 1247106642
0.22786801 0.146789 0.990058 1244080161
0.21991999 0.0908783 0.97002101 1243750422
0.227156 0.103028 0.83647299 1226644504
0.26302901 -0.357705 1.65001 1247432775
-0.39264101 0.097467698 1.6216 1244869680
-0.15736499 0.13751 0.85208702 1245001014
0.55759501 0.13395301 1.3254 1246973510
-0.399593 0.104188 1.60526 1245067056
-0.26723301 0.195002 1.42873 1246712653
0.221339 0.100455 0.97421497 1244078105
-0.160686 -0.0778163 0.88789099 1274319507
-0.146267 0.137556 0.86767 1244540716
-0.34200701 -0.24542899 1.4651 1245651481
-0.407285 0.108413 1.60681 1245330486
-0.39500701 -0.224049 1.35519 1245452824
0.0319269 0.094443403 1.56879 1246777679
0.21593501 -0.41914499 1.4522901 1243815962
0.025664 0.099175997 1.5143 1245922370
-0.29543701 0.214314 1.43643 1246844239
-0.44694099 0.131988 1.59443 1245067058
0.24133 -0.40389401 1.42371 1226512660
0.0146212 -0.075207204 0.85924101 1266711642
0.22474 0.114364 0.981435 1244538403
0.50671601 0.164573 1.33851 1245854515
-0.44709399 -0.200215 1.31789 1245124888
-0.026682399 0.20607799 1.39518 1245724986
-0.12807401 0.14078601 1.00401 1244802603
-0.143316 0.20925599 0.98938602 1245199933
-0.47664601 0.14464299 1.6075 1245001268
-0.31036299 0.13874701 1.54133 1246251591
-0.120091 0.217801 1.0158 1245855805
0.228634 0.12736399 0.89128298 1243814679
-0.0302788 -0.104932 0.90583903 1270061434
-0.50294203 0.160621 1.56476 1243882785
-0.131107 0.222991 1.01209 1245001526
0.22609 0.128556 0.98848403 1244078365
-0.037122902 0.235136 1.36734 1246448967
0.235614 0.133518 0.87992799 1243817504
0.035276599 -0.00265662 0.820526 1247369811
0.20038299 -0.0621926 0.908831 1248816484
-0.50424498 0.16463999 1.55551 1244606505
-0.53317302 0.168486 1.6091599 1243948066
0.52325702 0.197423 1.26736 1246576433
-0.085758999 -0.0529784 0.84423298 1269143672
0.22638001 0.135433 0.98907399 1244145186
-0.42342299 -0.18044201 1.34725 1245189905
-0.0103914 -0.0162153 0.78252602 1266779753
0.227108 0.137813 0.98470497 1245527609
-0.36456901 0.277394 1.36507 1247436378
0.00041081 0.25868499 1.29482 1244013855
-0.380274 -0.121561 1.3938299 1245323803
-0.157755 0.0162392 0.760692 1272037008
-0.024773199 0.26715299 1.32567 1245067571
-0.43658301 -0.102444 1.34535 1245126421
-0.028873 -0.0109843 0.77871698 1249740909
-0.430069 -0.099488698 1.35401 1246046498
-0.16250101 0.020773601 0.75924802 1272167314
-0.34240901 -0.30066001 1.48348 1245453075
-0.37485099 -0.118248 1.42685 1247492657
0.0333234 -0.011959 0.83642697 1246907463
-0.53887999 -0.205548 1.25002 1244467986
-0.156845 0.068544999 0.73981899 1268417403
-0.39789501 -0.083824903 1.3375 1246768934
-0.402601 -0.093390599 1.39599 1245521438
-0.097699597 -0.0060758898 0.78084397 1249480810
0.227392 -0.076750502 0.894207 1245526838
-0.37408701 -0.080236599 1.4261301 1246047010
-0.204511 0.0395624 0.79040599 1248484950
-0.153311 -0.00147724 0.77893102 1273678249
-0.353448 -0.063109003 1.34721 1245980188
0.0372876 0.027779 0.77642399 1246777676
-0.47323 -0.14464299 1.27 1244796948
-0.112288 -0.038853899 0.82715201 1248755296
-0.48917899 -0.115116 1.3142999 1246900009
-0.164598 0.00069327699 0.78299397 1267564644
0.0229233 0.054484598 0.74045801 1247369037
-0.51876402 -0.14139301 1.2745 1245848351
-0.33691901 -0.200509 1.45276 1246506533
-0.17922901 0.089335904 0.71219403 1246579787
-0.173851 0.089011297 0.718638 1247763799
-0.40182099 -0.170343 1.36501 1244927502
-0.17761 0.091641098 0.722054 1248355680
-0.191355 0.100805 0.72556299 1245986620
-0.18986399 0.102306 0.72209603 1245064232
-0.181897 0.105591 0.69775498 1245132082
-0.32489401 -0.20004 1.48069 1248741694
-0.064065501 -0.029749 0.81052202 1268688248
-0.37417901 -0.165638 1.3724999 1244402447
-0.061948899 0.0851928 0.70912498 1246316358
-0.365821 -0.102234 1.44575 1246769962
0.21902899 -0.075035498 0.88922 1266710380
0.0134253 -0.051694799 0.82853198 1249475945
-0.45324099 -0.077851601 1.36062 1248741176
-0.47769201 -0.0901917 1.32789 1248805946
-0.164474 0.00177966 0.78123099 1267696486
-0.375411 -0.119054 1.4331501 1247755317
-0.12901001 0.0024934299 0.77116799 1268488067
-0.125126 0.028144401 0.733459 1272033170
0.020244 0.031160001 1.61959 1247441488
-0.042298499 0.00093719398 0.75988603 1267563873
-0.41983801 -0.097182199 1.37661 1246769705
0.037195999 0.0280098 0.77517998 1246448712
-0.130658 0.101548 0.99094599 1245131568
-0.151288 0.0318943 0.73330098 1270330016
-0.143068 0.0312021 0.73460603 1270922667
0.016337899 0.040243998 0.72599202 1248155215
-0.52180099 -0.070807397 1.3093899 1267160916
-0.0199538 0.0041790199 0.74992901 1271838857
-0.33868399 -0.108369 1.45305 1246899748
-0.338774 -0.20281 1.46434 1247098157
0.037374299 0.033402801 0.76711798 1246515017
-0.451538 -0.104082 1.32024 1246572840
-0.210159 0.0196281 0.82972598 1247168579
-0.45153099 -0.108584 1.3487099 1245783842
0.0164988 0.044317 0.729541 1248745806
-0.365417 -0.10179 1.4452699 1247164462
-0.38080999 -0.123199 1.40079 1246310694
-0.15953 0.0406342 0.72534102 1272887967
0.146559 0.050246399 1.58655 1246119747
-0.34226701 -0.070611 1.48654 1246244127
0.015803199 0.032952901 0.72127998 1266772571
-0.161759 0.0411359 0.72630399 1272756894
-0.298466 0.091417797 1.58619 1247106642
-0.21102899 -0.0022894701 0.86229903 1247562567
-0.55772197 -0.0418403 1.25512 1249594687
-0.162158 0.064334601 0.74054903 1268352893
-0.38117599 -0.12102 1.42206 1246769191
-0.376497 -0.081322297 1.42362 1245980705
-0.55555898 0.048456501 1.30249 1249399881
-0.42754701 0.124853 1.57128 1244738093
-0.16226099 0.0226015 0.75240099 1271445387
-0.209805 0.035125799 0.81001401 1247498311
-0.0282396 0.023872299 0.71790999 1271178622
-0.53727901 0.00128339 1.29936 1248609080
0.038677599 0.034926798 0.76678401 1247436121
-0.45243701 0.0236037 1.4005001 1247689523
-0.162843 0.051922601 0.732283 1269008759
-0.40066099 0.018732499 1.44665 1245520154
0.038486201 0.035734799 0.76593202 1247106127
-0.064486198 -0.0101978 1.67224 1267037283
0.588184 -0.049979798 1.64519 1243879698
-0.52655602 0.049106199 1.29329 1248544058
-0.51885402 -0.0329642 1.31916 1266701645
-0.198063 0.083311804 0.73782003 1247369044
-0.52720302 0.0149349 1.33685 1248938816
0.0257829 0.052908301 0.743554 1246382403
0.017278099 0.054643098 0.73944801 1248814430
-0.064686097 -0.0106274 1.6743799 1266903637
0.220568 0.115313 1.47258 1246511419
-0.44855401 0.0093253898 1.3905801 1246900521
-0.039711699 0.0070721102 1.67384 1244480564
-0.18337201 0.090304203 0.72419202 1247829849
-0.50593501 0.0294067 1.35523 1248873021
0.58188599 -0.016434999 1.59971 1226643733
-0.15930399 0.068306603 0.74337697 1249010268
0.228508 0.131447 0.98939103 1246119484
-0.51287198 -0.0036090801 1.31467 1249333830
-0.033748802 0.0065083201 1.6649801 1245400623
0.102942 0.106239 1.5153 1246646602
0.037744101 0.0282057 1.63266 1248954475
-0.43256399 -0.013584 1.40941 1247624242
-0.068126597 0.01064 1.6531301 1248680781
0.086500399 0.073296599 0.71427202 1248488294
-0.0269123 0.0075698802 1.6647 1245598771
-0.45557001 0.00437932 1.38702 1247755317
0.209489 0.072165899 0.97788203 1244406554
-0.18988 0.087946102 0.72882402 1247566679
-0.43733999 0.056475598 1.43107 1246902833
-0.15617201 0.151333 0.88505602 1245988160
-0.45962599 0.059973501 1.41754 1246375460
-0.20527001 0.089250602 0.74510401 1245197611
-0.160629 0.109517 0.80331498 1244144675
-0.29735401 0.131264 1.53908 1246711884
-0.36742201 0.042241398 1.62684 1226312709
-0.203135 0.092676699 0.741 1244408352
-0.126132 0.146249 1.00284 1246579784
-0.320436 0.042132601 1.6607701 1244078880
-0.0826784 0.092696004 1.56354 1246909264
0.037827801 0.029662 1.62614 1247044428
0.20236 0.084100403 1.54555 1246841154
0.194951 0.130615 0.76121902 1244013084
0.211595 0.086544201 0.98232698 1244078105
0.19934499 0.12834001 0.80741298 1226777111
-0.32624301 0.050458699 1.65861 1245198132
-0.40720299 0.111531 1.58184 1244605992
-0.50281799 0.087587699 1.416 1247032878
-0.43134999 0.124335 1.59123 1245197874
-0.45517099 0.082995102 1.4461401 1245586972
0.10309 0.11038 1.51346 1246712397
0.085312702 0.047443099 1.6055 1247500886
-0.517829 0.137272 1.5467401 1226050053
-0.34677199 0.068876803 1.63545 1245132338
0.0180398 0.118419 1.51922 1246909262
-0.45553601 0.13635699 1.59194 1244804397
0.14392 0.051043302 1.5925 1246778446
0.213654 0.13353699 0.98676401 1245001524
0.21680801 0.098362997 0.97818297 1226381583
0.085307002 0.14903399 1.47135 1246580551
-0.454317 0.140112 1.55795 1243883295
-0.601969 0.154723 1.42811 1245258525
-0.363644 0.078765899 1.6330301 1244474922
0.121474 0.153092 1.4594899 1246382919
-0.279614 0.077034697 1.60751 1246448712
0.140916 0.128554 0.628353 1243881242
0.056575499 0.157438 1.45658 1246251587
-0.41611201 0.0877726 1.55835 1226378760
-0.025654299 0.13029 1.50238 1246711883
-0.23042899 0.14108901 1.53742 1245987648
0.21561199 0.102601 0.99528301 1244407070
-0.47876999 0.151728 1.56259 1244146214
-0.36840501 0.083485901 1.62353 1244408361
-0.158558 0.13232 0.84765899 1245001265
-0.139413 0.18070599 0.96107 1244541486
-0.51235503 0.108333 1.37801 1246047012
-0.51013303 0.16520999 1.55239 1243619614
-0.27928099 0.085540101 1.57584 1246843469
-0.348883 0.0930636 1.58162 1246777676
0.285164 0.135042 1.49893 1246317125
-0.52551103 0.13033301 1.38358 1245061143
-0.096716397 0.084389098 1.58726 1247040850
-0.51968199 0.174446 1.5228601 1243948575
-0.39165699 0.101346 1.59672 1245067056
0.21478 0.11312 0.99096501 1244472862
-0.60949498 0.18196499 1.50019 1226247179
-0.0260354 0.16222499 1.46082 1246251332
-0.075960398 0.165535 1.44951 1246515017
-0.55099398 0.190842 1.5088201 1245988158
-0.55272299 0.192127 1.5000499 1245725243
0.0057766899 0.16995101 1.45454 1246580810
-0.67299902 0.197661 1.55733 1225984518
-0.28837499 0.24814001 1.37982 1246909775
-0.147539 0.207119 1.00744 1246317897
-0.57578301 0.237362 1.40794 1246908235
-0.064459898 -0.0298738 0.809946 1267701868
-0.56203902 0.19936401 1.48039 1246580810
-0.59913599 0.208674 1.5101399 1245067058
0.23497701 0.100001 0.81480002 1244209953
-0.0486883 0.189807 1.42951 1246843470
-0.28607801 0.21527401 1.41961 1246843470
-0.147744 0.203429 0.99938101 1245199671
0.491579 0.187721 1.2328 1245919535
-0.61071402 0.214644 1.4813499 1244343591
-0.29320201 0.216471 1.41031 1247106131
0.19715901 -0.065846302 0.89802903 1248815969
-0.23510601 0.219524 1.41273 1247897695
-0.27177799 0.20213699 1.4613 1247172950
-0.31260601 0.234695 1.38565 1247107154
-0.032347102 0.19662599 1.4153301 1245724988
-0.121932 0.208764 1.0168 1245724991
-0.487005 -0.0127307 1.3521301 1248873794
-0.354619 -0.16938099 1.44038 1247295534
-0.465047 0.21647701 1.46797 1247830878
-0.423531 -0.130248 1.31955 1245322004
-0.204743 0.206793 1.42607 1246712653
-0.50355601 -0.113398 1.27722 1248414010
-0.141773 0.161734 0.91727 1245133623
-0.38854599 -0.14216 1.36182 1244862484
-0.049274102 0.236724 1.35908 1246449483
-0.367883 -0.161588 1.4321899 1245652506
-0.29655901 0.25084999 1.37339 1247371353
-0.120742 0.212558 1.0185699 1246975058
-0.010291 -0.0144984 0.78027999 1249212256
-0.234161 0.255395 1.35963 1247502937
-0.0250987 0.222288 1.38793 1244935472
-0.164446 -0.00284958 0.78620601 1267170409
0.229074 0.14220101 0.92527503 1245264439
0.212274 0.219972 0.98771697 1226184982
-0.30460799 0.224958 1.41573 1246581067
-0.476401 0.276887 1.3846101 1244409388
-0.047893301 -0.0059356401 0.77348697 1267111026
-0.21844099 0.26283601 1.34433 1247173974
-0.46612701 0.25691 1.38831 1244738093
-0.47721201 0.278155 1.3886499 1246515020
-0.18784299 0.102235 0.72338498 1245657653
-0.198956 0.24789201 1.36891 1248027998
-0.128443 -0.00074715901 0.77711302 1267244679
-0.26211101 0.25264999 1.3759201 1247436119
-0.32438901 -0.161974 1.47676 1248150074
-0.45764101 0.057068899 1.4104199 1247493172
-0.243074 0.257341 1.36172 1246845008
-0.026455 0.26960701 1.31157 1245200184
-0.47457501 0.27647901 1.36791 1243618074
-0.473362 0.27747899 1.3687 1246710856
-0.468036 0.29308501 1.3200901 1245723705
-0.47021601 0.281542 1.33915 1244473892
-0.057011299 0.0044146501 0.75466597 1268420719
-0.0675487 0.26801199 1.31754 1247370582
-0.023595801 0.26645601 1.31896 1244606508
-0.30423099 -0.426148 1.6861 1267561314
-0.116697 0.25426 1.02564 1246514507
-0.47369799 0.29787701 1.33004 1244934189
-0.45819801 -0.181679 1.3085099 1244928794
-0.106189 0.00663957 0.76267099 1267635842
-0.37981501 -0.122706 1.39334 1246111261
-0.357236 -0.137648 1.4608999 1249267781
-0.21155199 -0.0059699998 0.86965102 1247628873
-0.54573798 -0.067250699 1.22688 1249791812
-0.440384 -0.104179 1.35904 1246966056
-0.38108799 -0.121761 1.42478 1247231284
-0.47768199 -0.090039097 1.32662 1248937275
-0.431063 -0.100144 1.36375 1247163948
-0.330486 -0.116739 1.43691 1247360558
0.23540901 -0.43148601 1.67048 1247958080
-0.093379997 -0.0717761 0.87008899 1272954011
0.236012 -0.39332899 1.57486 1226775827
-0.50446802 -0.237693 1.30647 1244797205
-0.47991401 -0.157426 1.28215 1244336910
-0.119964 0.220072 1.01126 1244343335
0.52986699 0.181813 1.3219301 1246841407
-0.432621 -0.43699101 1.43156 1244075021
-0.33701301 -0.31209701 1.4910001 1246704942
-0.443645 -0.214459 1.2454799 1244730385
-0.32923499 0.26627901 1.33163 1247699805
0.53925198 0.18864299 1.3203 1247825988
0.142224 0.0504122 1.59872 1247172434
-0.491319 -0.38681999 1.3896 1244929560
-0.39815301 -0.25507599 1.38494 1244664591
-0.156422 0.0201631 0.75032902 1272366733
-0.054654501 0.0141131 0.74468499 1273085597
-0.099239796 -0.101075 0.90883499 1271179410
0.197377 -0.56146097 1.69274 1246247981
-0.664527 0.152576 1.50183 1245981989
-0.088839799 -0.10206 0.90957701 1270652809
0.209793 -0.43952399 1.42756 1226578702
-0.068927303 -0.102899 0.907942 1271771803
-0.14202499 0.028303999 0.73591399 1270988472
-0.054664101 -0.104033 0.90832698 1272692905
-0.362156 -0.49111199 1.68571 1268482413
-0.033338901 0.174429 1.44033 1247172948
-0.44931099 0.140018 1.55723 1245199416
0.22891501 0.14316399 0.925102 1244738092
-0.356978 -0.46509901 1.63764 1246310440
-0.068385698 0.108588 1.54626 1246646603
0.225482 -0.165089 0.82875198 1226641676
0.17812601 -0.077856801 0.90380901 1246974542
-0.355259 -0.489429 1.7015001 1268548978
0.033955999 0.100573 1.53653 1246514765
-0.000256464 0.175548 1.4394701 1245528381
0.22451501 -0.51994002 1.7019 1226118925
-0.0975511 0.121396 1.52518 1246975057
-0.140357 -0.093336403 0.90825999 1273921413
-0.35405499 -0.249238 1.4216599 1244338195
-0.062266599 -0.090923801 0.89173698 1272625560
-0.33363801 -0.46766901 1.7137901 1267495519
-0.458343 0.223553 1.4170901 1246910799
-0.024197901 -0.091368198 0.88741899 1271050371
0.196098 -0.139274 0.81816101 1246050090
-0.13648701 0.191248 0.97900999 1245133364
0.21840499 -0.102695 0.87074602 1249136445
0.185469 -0.13859101 0.83508098 1248219462
0.187948 -0.100766 0.87361002 1269205873
0.218068 -0.39842999 1.49129 1226709012
-0.207293 0.210853 1.40853 1246975825
0.24321701 -0.350642 1.3651 1243750169
-0.0483796 -0.0866092 0.88502902 1271769737
-0.114812 -0.072504401 0.87435299 1272033680
0.26902601 -0.35137901 1.61763 1246905914
-0.137255 -0.069964699 0.87357801 1272427928
-0.204052 0.053001601 0.76862299 1247825730
-0.13023201 0.14934599 1.49088 1246251332
-0.093912497 -0.072339103 0.87168998 1272362904
-0.43542001 -0.193802 1.3234299 1244402703
-0.083015002 -0.072004102 0.87062699 1272099475
0.064223997 -0.107763 0.95263201 1249800547
0.25390401 -0.116463 0.939138 1243750937
-0.314904 -0.25141799 1.48815 1246834728
0.015037 -0.072557397 0.85827798 1249670231
0.25895101 -0.111619 0.93060702 1226710295
-0.60100198 0.20510399 1.55255 1226448658
-0.16007499 -0.059700102 0.862486 1272035473
-0.34168601 -0.22882301 1.4463 1244732181
-0.15658399 0.067800201 0.748348 1268614778
-0.146213 0.164528 1.46296 1246910032
-0.0198269 -0.060048599 0.84701598 1272236973
-0.041048899 -0.0578756 0.84699202 1270328200
