# .PCD v0.7 - Point Cloud Data file format
VERSION 0.7
FIELDS x y z rgb
SIZE 4 4 4 4
TYPE F F F U
COUNT 1 1 1 1
WIDTH 1131
HEIGHT 1
VIEWPOINT 0 0 0 1 0 0 0
POINTS 1131
DATA ascii
-0.265154 0.151895 0.98039401 1250988176
-0.25558999 0.17484599 1.1052901 1252040864
-0.83549398 0.246738 1.5593899 1252698794
-0.86296898 0.25158799 1.57532 1250198660
-0.84052902 0.243535 1.50617 1249442040
0.155067 0.179536 1.0504 1250593418
0.141955 0.192423 1.09443 1250330246
-0.215268 0.27289101 1.5600801 1257304304
-0.49272299 0.295241 1.47852 1257830648
0.149142 0.239898 1.16847 1249705212
0.14838199 0.245894 1.17893 1250856590
-0.41268399 0.30508199 1.49069 1258093820
0.124152 0.24306899 1.14607 1250198660
-0.182864 0.31266901 1.48127 1255198928
-0.282671 0.24073499 1.1277601 1254409412
-0.48116601 0.31721801 1.45439 1257699062
-0.189661 0.326942 1.45601 1255856858
-0.28612199 0.265818 1.1763099 1254014654
0.0432349 0.34152001 1.43323 1252304036
0.13779999 0.272928 1.1317101 1251382934
-0.507698 0.33219501 1.4082299 1259442577
-0.050968301 0.34524301 1.4311 1252567208
-0.0189393 0.34997699 1.42046 1252961966
-0.38866901 0.347945 1.4092 1257567476
-0.14918201 0.35591999 1.40754 1253488310
-0.41449699 0.35021001 1.39785 1258455682
-0.318719 0.338754 1.33602 1256909546
-0.19444101 0.360715 1.3985699 1257041132
0.102875 0.362986 1.38901 1253488310
0.123109 0.30342701 1.13761 1249935488
-0.13574301 0.281562 1.53961 1254014654
0.13786601 0.20990101 1.12603 1245757632
0.15173 0.209039 1.10656 1251777692
-0.20858499 0.28643799 1.5260201 1258982026
-0.27708501 0.189918 1.0305099 1253488310
-0.26878199 0.196898 1.0651799 1253488310
-0.254262 0.207362 1.10797 1253619896
0.083135597 0.29698199 1.51276 1250988176
-0.43215901 0.28666899 1.49605 1255856858
-0.276586 0.29553401 1.50968 1257041132
0.124891 0.225758 1.13361 1248915696
-0.473914 0.291199 1.4920599 1257435890
-0.209204 -0.120492 1.02004 1261679539
-0.58039999 -0.170788 1.4445 1250330246
-0.246684 0.066542201 0.78533202 1257567476
-0.15321501 0.069154099 0.79727697 1254277826
-0.28895301 0.065757401 0.77767301 1254540998
-0.20169 0.070189998 0.79585099 1252304036
-0.183144 0.070528097 0.79640102 1257567476
-0.219008 0.070698097 0.79713899 1251514520
0.108315 0.077106297 0.81108201 1250988176
0.109985 0.077136099 0.81112897 1250856590
-0.248098 0.071803898 0.79971403 1250856590
-0.26034299 0.071045198 0.788248 1252698794
0.061536301 0.0774635 0.80269802 1251119762
0.021453099 0.079019897 0.804838 1251514520
0.0064523099 0.079109199 0.80182201 1252040864
0.157897 0.090265699 0.88301301 1250461832
-0.536924 -0.31526801 1.5732 1248652524
0.0223173 0.0790883 0.80535102 1252172450
-0.13080899 -0.016718101 0.84970599 1262205883
-0.50348198 -0.40742901 1.71064 1250988176
-0.48295599 -0.51579797 2.34835 1251909278
-0.435689 -0.51264 2.35517 1254672584
-0.48476699 -0.50944299 2.3450401 1254146240
-0.59667403 -0.34073001 1.57965 1244441772
-0.49228799 -0.36863199 1.75143 1254672584
0.166979 -0.18872701 0.96935999 1259047819
-0.50275397 -0.34082699 1.7302999 1257699062
-0.370985 -0.49096701 2.58234 1258718854
0.138889 -0.18602 0.984981 1262205883
-0.60751098 -0.280588 1.45136 1249935488
-0.51381803 -0.30417699 1.59631 1247599836
-0.512909 -0.43082899 2.33705 1252040864
-0.51274002 -0.41924599 2.3247499 1250593418
-0.48714 -0.41378 2.3171599 1251777692
-0.45515001 -0.31967801 1.8337899 1253356724
-0.63004303 -0.252148 1.4400001 1247073492
-0.51425803 -0.27798301 1.66667 1252961966
-0.475721 -0.28911099 1.74098 1254935756
-0.49709699 -0.37301001 2.29475 1251382934
-0.59249598 -0.230744 1.42506 1249705212
-0.44946101 -0.36094499 2.31796 1248652524
-0.35966101 -0.35269701 2.3090601 1252567208
-0.51808 -0.25098899 1.65593 1250067074
-0.363837 -0.38368201 2.6199801 1254672584
0.13507301 -0.14226601 0.96335799 1250725004
-0.220728 -0.37900999 2.61655 1261547953
-0.152399 -0.374805 2.5936799 1262337469
0.13140699 -0.14083999 0.95818698 1253093552
-0.46836001 -0.33443901 2.3273301 1247599836
-0.54186398 -0.220769 1.55558 1243389084
-0.52322799 -0.22221801 1.63886 1250330246
-0.32442999 -0.33009699 2.51776 1260890023
-0.49949899 -0.220103 1.66738 1252698794
-0.36261901 -0.333525 2.60761 1251646106
-0.52337003 -0.209078 1.6283 1252435622
0.13327201 -0.110772 0.97806197 1250593418
-0.59616899 -0.16065399 1.38052 1247336664
-0.57425201 -0.16949099 1.49145 1244178600
-0.54377002 -0.163821 1.45137 1242599568
0.114293 -0.106718 0.98084903 1256777960
-0.532103 -0.174545 1.62297 1252567208
-0.50786602 -0.17754599 1.6708 1252172450
-0.25951001 -0.104115 0.984245 1260758437
-0.26414999 -0.101356 0.978975 1260626851
0.19736201 -0.102178 1.07126 1250725004
-0.73132497 -0.149634 1.50336 1251646106
-0.235177 -0.095867097 0.98259997 1263719122
0.123103 -0.093748197 1.01011 1256909546
0.14797799 -0.090554103 1.0038 1254804170
0.201764 -0.092206299 1.0624 1248915696
-0.597763 -0.130467 1.43524 1247073492
0.101778 -0.087112702 1.03394 1257699062
-0.54126799 -0.136604 1.60405 1251909278
-0.32800001 -0.089021198 1.04573 1257830648
-0.57915699 -0.120386 1.45959 1247599836
-0.326682 -0.087630197 1.03804 1255593686
-0.63186002 -0.117593 1.42748 1250593418
0.20041201 -0.080143802 1.0320899 1250988176
0.201731 -0.080079198 1.0430599 1255067342
0.200137 -0.079255797 1.03084 1251382934
-0.26225701 -0.078095302 0.94566703 1263390157
-0.32816201 -0.079637997 1.02904 1254935756
0.10863 -0.074244902 1.02389 1254014654
-0.677903 -0.111165 1.48215 1253751482
0.149211 -0.073002003 1.02435 1253883068
0.154898 -0.0731683 1.02806 1252172450
-0.057854801 -0.0738509 1.02545 1259442577
0.117271 -0.071191803 1.02812 1257962234
-0.21928 -0.064956598 0.933676 1259705749
-0.233022 -0.063322403 0.92785299 1261284781
-0.268866 -0.061743598 0.91800702 1260626851
-0.21452001 -0.0593022 0.92493302 1259376784
-0.25975099 -0.053674798 0.90206701 1263258571
-0.125176 -0.049343199 0.91921699 1261021609
-0.128545 -0.0485548 0.91663599 1260166300
-0.26863 -0.045654301 0.89460999 1261482160
0.204868 -0.043570701 0.97804999 1255462100
0.53041399 -0.073675998 1.94175 1242073224
-0.32493299 -0.047554299 0.97680801 1254804170
-0.22588401 -0.043781999 0.89436102 1260166300
0.53496999 -0.062183499 1.91794 1237895368
-0.26812601 -0.0396723 0.883618 1260429472
-0.165332 -0.0380706 0.889157 1261350574
-0.130466 -0.035618398 0.88932198 1261613746
0.204842 -0.033929098 0.95797497 1253619896
-0.59140801 -0.0556865 1.55395 1250593418
-0.32458499 -0.036320198 0.96054399 1255856858
-0.100354 -0.0309825 0.88254899 1260626851
-0.119755 -0.027579499 0.874668 1260890023
-0.056722499 -0.028485499 0.96952999 1259508370
0.49394 -0.028803499 1.8807 1238948056
-0.26577899 -0.021221399 0.84926301 1260166300
-0.056015301 -0.0199668 0.95251697 1259113612
0.50865901 -0.0182877 1.88679 1242599568
-0.108466 -0.0177422 0.85218501 1262140090
-0.20278201 -0.015936101 0.848333 1262008504
0.206751 -0.0079726204 0.91401899 1256383202
-0.21622799 -0.0107665 0.83681101 1263784915
-0.111271 -0.0078815902 0.83243299 1264837603
-0.076851003 -0.00081061001 0.807625 1262929606
-0.26392201 0.00029014499 0.81578702 1262271676
0.20801701 0.0057918499 0.89173102 1255856858
0.206138 0.0070762699 0.88785797 1257699062
-0.26389199 0.0040233 0.81043202 1262995399
-0.31888101 0.0061210599 0.88571799 1255856858
0.20854799 0.0124042 0.88071102 1255462100
-0.25556499 0.0149972 0.77932 1262469055
-0.071690999 0.0200509 0.87002403 1259113612
-0.047608599 0.0218313 0.87556899 1259574163
0.210611 0.032355901 0.84535402 1253225138
0.21154299 0.043579001 0.83730203 1253356724
-0.060995199 0.044759098 0.86126798 1258225406
-0.070869401 0.046666902 0.84235799 1256777960
0.209194 0.051334798 0.82916999 1252961966
0.196604 0.0605404 0.81860101 1258784647
0.147212 0.062873803 0.80000103 1253225138
0.105738 0.062263101 0.78986102 1250725004
-0.284477 0.066381603 0.79017597 1257435890
0.14659099 0.087787502 0.87989002 1251777692
-0.73364198 0.17506 1.5477 1242599568
0.148968 0.106331 0.92671299 1251909278
-0.72613299 0.205681 1.69207 1247073492
0.120428 0.13728601 1.1081899 1257304304
-0.74675399 0.21406899 1.65505 1249705212
-0.73595101 0.20959599 1.58691 1245494460
-0.254291 0.139691 1.0925 1252040864
-0.72298098 0.209153 1.56602 1249935488
0.159812 0.125928 0.951065 1251251348
-0.75985098 0.22124501 1.5879101 1251119762
0.122995 0.155827 1.12102 1251251348
-0.772883 0.224525 1.54396 1249442040
-0.26379001 0.13568 0.95070499 1252040864
-0.17581999 0.24738701 1.61069 1256514788
-0.26435301 0.142336 0.96339899 1252304036
-0.256872 0.171847 1.10755 1252040864
-0.26585999 0.151978 0.983634 1252567208
-0.13467599 0.26248401 1.5862401 1253883068
-0.85349399 0.24984699 1.4913 1251514520
-0.27516201 0.159463 0.97348303 1254540998
-0.26744601 0.169025 1.01653 1253356724
-0.194479 0.27342799 1.57085 1255330514
-0.160404 0.27638799 1.56617 1254935756
0.137422 0.199498 1.12339 1249935488
0.15398499 0.197687 1.08764 1250067074
-0.27127901 0.194895 1.06881 1253751482
0.138604 0.21122199 1.12459 1243389084
-0.26116401 0.30939001 1.5057499 1258521475
0.00066610501 0.31361601 1.49667 1254014654
-0.45385301 0.31224701 1.48157 1256909546
0.12307 0.313223 1.48391 1253883068
-0.0039666002 0.31662101 1.48892 1252830380
-0.28050101 0.23220301 1.10928 1253751482
0.150709 0.25418901 1.20441 1250461832
-0.398711 0.323737 1.46944 1256909546
-0.25432 0.242902 1.11335 1252830380
0.137234 0.24847101 1.12512 1250198660
-0.19164599 0.330836 1.4644001 1256120030
-0.281425 0.33303699 1.46387 1258389889
-0.55811602 0.31741601 1.38105 1257172718
-0.13830601 0.33455801 1.45093 1252567208
-0.11039 0.33718601 1.4522001 1250330246
-0.36183301 0.34276101 1.42381 1256777960
-0.39759001 0.34896299 1.4256001 1255462100
-0.073875599 0.351037 1.42118 1252040864
-0.189767 0.35398 1.42345 1256909546
0.040616199 0.35325 1.4127899 1250067074
-0.25342101 0.27551699 1.1027499 1250330246
-0.25360501 0.28602099 1.11857 1251119762
-0.220411 0.366806 1.4039201 1254935756
0.1417 0.29976699 1.1601501 1250593418
-0.287779 0.37643 1.3672301 1248389352
-0.12955301 0.37994301 1.3764499 1250593418
0.107624 0.38392699 1.37291 1251777692
-0.43966299 0.37716699 1.33214 1257435890
-0.52047199 0.384388 1.34843 1254935756
-0.38315901 0.38983899 1.34596 1256909546
-0.40897 0.40835199 1.3916 1256120030
-0.25319901 0.39342201 1.33767 1257304304
0.154719 -0.170598 0.95520997 1260166300
0.116803 -0.148028 0.97529799 1259245198
-0.194774 0.29662499 1.53105 1256120030
-0.22851799 -0.022934601 0.85511303 1262074297
-0.132765 -0.017310601 0.85466897 1261745332
-0.114392 -0.00097523798 0.817267 1264048087
-0.499084 -0.43970799 1.71561 1251777692
0.13990501 -0.50586098 2.0483401 1248389352
-0.49952 -0.41652599 1.71078 1251646106
-0.4269 -0.54679102 2.3819499 1258982026
-0.424916 -0.54345298 2.38431 1257041132
-0.49772599 -0.38283601 1.67651 1248126180
-0.58097398 -0.35258099 1.54491 1244968116
-0.47507301 -0.52164102 2.34235 1252172450
-0.47751099 -0.51979297 2.34236 1253093552
-0.48729101 -0.38502899 1.76438 1254540998
-0.57756901 -0.322653 1.52007 1247599836
-0.54045498 -0.479177 2.3812001 1254014654
-0.50462502 -0.337769 1.70829 1253619896
-0.50136101 -0.33974901 1.72629 1257172718
0.167487 -0.184425 0.96627498 1260561058
-0.36511901 -0.48322901 2.5510001 1258784647
-0.456236 -0.35146201 1.83859 1256909546
-0.508331 -0.32384601 1.69196 1251646106
-0.42308 -0.41738999 2.33255 1252698794
-0.63286299 -0.256302 1.4406199 1246283976
0.11401 -0.16596299 0.96383297 1260429472
-0.48819 -0.38490501 2.2893 1251909278
-0.463341 -0.30268699 1.8010499 1254409412
-0.53130502 -0.26394299 1.56977 1246020804
-0.358457 -0.423906 2.5917399 1256646374
-0.521954 -0.248779 1.5132101 1244704944
-0.33536699 -0.41119799 2.57881 1259179405
-0.409877 -0.361478 2.2869799 1254277826
-0.57072997 -0.228512 1.40753 1244968116
-0.336254 -0.397526 2.58448 1258093820
-0.371968 -0.364032 2.3694301 1252304036
-0.12967899 -0.39357799 2.58832 1261284781
-0.221698 -0.37929201 2.5255899 1262337469
0.094344199 -0.15171801 0.99317002 1259705749
-0.366191 -0.36447999 2.43922 1251251348
-0.516415 -0.25223699 1.6567 1250461832
-0.45936799 -0.346477 2.3196299 1246547148
-0.220358 -0.378903 2.56549 1261811125
-0.52253801 -0.24453001 1.63919 1246547148
-0.43487501 -0.27295101 1.84952 1250330246
0.113784 -0.140733 0.98217601 1260232093
-0.46959701 -0.31778899 2.2996299 1247599836
-0.41240001 -0.31168899 2.2860999 1248389352
-0.44283801 -0.24723201 1.7994 1251251348
-0.406701 -0.31071699 2.2932999 1242336396
0.13901401 -0.33903101 2.5908 1253883068
0.116217 -0.13374101 0.98749799 1260429472
-0.60107899 -0.1892 1.43547 1245494460
-0.34147301 -0.31779799 2.5435801 1257567476
-0.52512902 -0.20086899 1.62603 1250725004
-0.078451097 -0.12643 1.02045 1258653061
-0.23795199 -0.118741 1.01589 1260297886
0.15216701 -0.113429 1.0025001 1254409412
-0.69398099 -0.16235501 1.44675 1243915428
-0.24551301 -0.113785 1.00574 1260297886
-0.27363601 -0.113429 1.00738 1257041132
-0.076304004 -0.107599 1.00809 1259508370
0.18767001 -0.113466 1.09656 1252040864
0.19077601 -0.109574 1.08257 1250988176
-0.13484 -0.103717 0.99422097 1263653329
-0.118202 -0.104431 1.00371 1264442845
0.100573 -0.097922496 1.0252399 1257435890
-0.65170199 -0.13277601 1.37721 1252172450
0.15140399 -0.092034698 1.0274 1254014654
-0.641276 -0.12854201 1.40915 1250067074
-0.32257 -0.097073004 1.0577199 1256383202
-0.075670697 -0.087310597 0.98093998 1260166300
-0.32394901 -0.092836797 1.04584 1255988444
-0.32685101 -0.091361903 1.04802 1256383202
-0.58354801 -0.121952 1.46691 1245494460
-0.26903301 -0.082402103 0.95325702 1262403262
-0.26153901 -0.081948899 0.94784403 1264442845
0.20121001 -0.084955797 1.04634 1250988176
-0.64356297 -0.119023 1.45137 1250067074
0.150361 -0.0776636 1.02771 1257830648
-0.094023302 -0.072695501 0.95404398 1261876918
0.160528 -0.074758902 1.02105 1256251616
-0.629067 -0.106505 1.4592 1249442040
-0.199457 -0.0698101 0.94119501 1260561058
-0.13029 -0.069607504 0.94741201 1261613746
0.112644 -0.072256699 1.0257601 1257041132
0.118454 -0.070458002 1.02314 1259047819
0.134597 -0.0674586 1.01455 1250856590
-0.178661 -0.0647493 0.93305302 1260166300
-0.23288301 -0.063442402 0.92789602 1261087402
-0.62645602 -0.0931326 1.49766 1248389352
-0.21295799 -0.059241001 0.91998601 1258784647
-0.61475998 -0.081494197 1.51013 1247863008
-0.26767099 -0.050850701 0.89922303 1260363679
-0.119589 -0.048731402 0.90964901 1260232093
-0.231141 -0.048562702 0.90218002 1261153195
-0.12794399 -0.0481098 0.91044497 1261284781
-0.60165101 -0.070390299 1.5087 1249705212
-0.096434802 -0.0444129 0.913508 1260429472
-0.230666 -0.044034701 0.89422202 1261218988
-0.223479 -0.043886099 0.89125299 1260626851
-0.14382701 -0.042817 0.897654 1261087402
-0.26846799 -0.0427837 0.89061201 1261811125
-0.595707 -0.060708102 1.55575 1247336664
-0.114785 -0.039049398 0.89614499 1261087402
-0.078341998 -0.040997099 0.97557402 1259047819
-0.148459 -0.032624699 0.87993199 1261284781
-0.32453701 -0.034635 0.95772099 1254409412
-0.101356 -0.030308301 0.88355201 1260758437
-0.105693 -0.029634601 0.88296402 1261218988
-0.25742701 -0.0295681 0.86034101 1263587536
0.117974 -0.0261604 0.99111402 1258093820
-0.075707301 -0.0245292 0.940723 1257699062
-0.26705399 -0.022828501 0.85775799 1261153195
-0.22844701 -0.021212 0.85374701 1260890023
0.206545 -0.0147089 0.92641699 1254146240
-0.20403799 -0.015694899 0.84958702 1261547953
0.208231 -0.0132653 0.92588001 1253225138
-0.219318 -0.0151216 0.84324098 1260890023
-0.32092899 -0.0149333 0.92015898 1256120030
-0.2665 -0.0147339 0.84379601 1261613746
-0.108399 -0.0138102 0.84393501 1263258571
0.206452 -0.0118497 0.921749 1257435890
-0.32021201 -0.0070604598 0.90618998 1254277826
-0.145026 -0.00496634 0.82879603 1263324364
-0.112339 -0.0042364998 0.82196999 1264771810
-0.074263401 -0.0041661002 0.81231201 1263916501
0.207522 -0.00072455697 0.90204102 1256909546
-0.169974 -0.0032075201 0.82521802 1263324364
-0.0742075 -0.000712351 0.90822703 1259376784
-0.64698499 0.0112467 1.52765 1252040864
-0.073753104 0.0020497199 0.90388697 1257699062
-0.240306 0.00130973 0.811445 1263653329
0.52283502 0.033928301 1.91819 1243125912
-0.242608 0.00377553 0.80850899 1264048087
0.20859499 0.0079689799 0.88726401 1254409412
-0.31525701 0.0104174 0.86837697 1254014654
-0.264384 0.0086551299 0.80526602 1261876918
-0.26415801 0.0146164 0.79583198 1262403262
-0.071079999 0.0254991 0.86211902 1257962234
-0.311106 0.0259504 0.83669502 1257567476
0.210247 0.031750102 0.84703201 1255593686
0.210208 0.0328453 0.84340698 1254146240
-0.265843 0.035340801 0.80644202 1260561058
0.2032 0.044761501 0.82065803 1255462100
-0.268365 0.095393203 0.85645902 1252961966
0.136452 0.13206001 1.11483 1251119762
-0.26166901 0.102904 0.89139003 1251119762
-0.73185301 0.20968799 1.5942 1248126180
-0.73355198 0.210076 1.57039 1244178600
-0.270174 0.140729 1.09672 1251909278
0.14653 0.124891 0.96279001 1252961966
-0.27198201 0.116396 0.892093 1253488310
-0.746665 0.21652301 1.5378 1250067074
-0.256971 0.15087201 1.10594 1251514520
-0.26397699 0.12719899 0.93843198 1253356724
-0.125835 0.24209601 1.62878 1252435622
-0.217296 0.243773 1.60698 1258093820
0.157683 0.152658 1.0019701 1249442040
-0.26749 0.172554 1.09424 1255067342
-0.266137 0.158397 0.99620301 1253883068
-0.27520999 0.15682299 0.97028399 1253751482
-0.217733 0.273386 1.5660599 1256514788
-0.158097 0.274977 1.5617501 1254409412
-0.255472 0.189914 1.10781 1252698794
-0.274957 0.169383 0.99160802 1252698794
-0.23570301 0.29108599 1.52982 1257304304
-0.276995 0.19260199 1.03537 1252435622
0.139612 0.2106 1.1270601 1246547148
0.152917 0.20755599 1.10829 1249442040
-0.249054 0.29755399 1.52547 1258225406
-0.194831 0.29569301 1.5172 1255198928
-0.338698 0.29798999 1.52068 1258093820
-0.255429 0.217098 1.11132 1253356724
-0.070569903 0.30098301 1.50384 1252435622
-0.270459 0.219973 1.1081001 1250461832
-0.27429 0.31531101 1.4797699 1257172718
-0.209804 0.31598201 1.48361 1256514788
-0.146593 0.31460699 1.4733 1253883068
0.14349601 0.24931 1.164 1251251348
-0.28150499 0.243973 1.13122 1253488310
-0.406019 0.32339099 1.46187 1256383202
-0.176348 0.32706001 1.47083 1253225138
0.107043 0.32555899 1.45902 1252040864
-0.0134546 0.327728 1.46141 1253488310
-0.0086791096 0.33012399 1.44282 1251777692
0.13844299 0.26050901 1.13924 1250461832
-0.17003401 0.34467599 1.43427 1253225138
0.128281 0.32282901 1.3458101 1251646106
-0.473151 0.34381399 1.40816 1257699062
-0.57797003 0.344455 1.4001499 1258521475
-0.56800199 0.352451 1.41776 1257304304
-0.38868099 0.34902501 1.40789 1256120030
-0.28685001 0.35080799 1.41213 1255330514
-0.18944301 0.351704 1.41722 1256383202
-0.0140762 0.35141501 1.41918 1252567208
0.13816001 0.33496901 1.35164 1245757632
-0.27332401 0.356839 1.40958 1256514788
-0.356298 0.359631 1.4059 1255988444
-0.145218 0.35944799 1.40903 1254146240
-0.026187999 0.360201 1.3936 1253093552
-0.229388 0.36471 1.38219 1257830648
-0.258082 0.36957699 1.39105 1256383202
-0.25277799 0.29288599 1.11668 1250988176
0.064621799 0.36655101 1.38256 1253093552
-0.22310001 0.38102499 1.37023 1258784647
-0.36984301 0.374834 1.33913 1255988444
-0.0438159 0.066615701 0.80249202 1252172450
-0.270109 0.13779099 1.0956 1253356724
0.139661 0.209472 1.12447 1247863008
-0.073964298 0.067331202 0.80156398 1254540998
0.148233 -0.072987303 1.02264 1254935756
-0.202905 -0.0147608 0.84891897 1262469055
-0.26437801 0.384121 1.3471 1253883068
0.20997199 0.031390902 0.84664297 1255198928
-0.108707 -0.0136217 0.844706 1264706017
0.155913 -0.17089599 0.95301402 1260495265
-0.44942501 -0.31622401 1.81317 1253225138
-0.37010601 -0.37529799 2.34147 1251777692
-0.148785 -0.361449 2.52509 1262008504
0.11201 -0.138643 0.98379999 1258587268
0.146762 0.063663103 0.80269802 1252961966
-0.339935 -0.321327 2.5657301 1261218988
0.207849 0.000688706 0.90273899 1255462100
0.20477299 0.043288901 0.82080001 1255725272
-0.099803701 -0.033425201 0.88204002 1260824230
-0.239664 -0.118199 1.01545 1260429472
-0.325425 -0.0781193 1.01932 1257041132
-0.171323 0.084817797 0.80023497 1252172450
-0.25425199 0.207417 1.10797 1255593686
0.122265 0.123495 1.11625 1253093552
-0.24856199 0.047221299 0.82273698 1259376784
-0.149777 0.045873102 0.82208598 1259179405
-0.182097 0.046115901 0.82240802 1259508370
0.134105 -0.358464 2.5963399 1257699062
-0.064439401 0.0437272 0.83412999 1256251616
-0.18822999 0.36244601 1.4011101 1255198928
0.166749 0.058781199 0.78202999 1252172450
-0.50639898 -0.37237 1.78054 1255330514
-0.505822 -0.34824499 1.74384 1257699062
0.53635401 -0.048583198 1.8893 1240000744
0.093607299 -0.17459001 0.95164502 1259179405
-0.114429 0.0132945 0.79941797 1262008504
-0.53108299 -0.25277999 1.53478 1249935488
-0.44544899 -0.361305 2.31075 1248652524
-0.226019 -0.386123 2.5957601 1261613746
0.151568 -0.14373501 0.975573 1258389889
-0.226661 0.071136303 0.79609197 1254014654
-0.21151701 0.070595697 0.79770201 1251909278
0.15997 0.11877 0.93539 1251646106
-0.194022 0.328529 1.4564 1256777960
-0.47839901 0.316751 1.45157 1257567476
-0.160172 -0.073314503 0.94757998 1262534848
0.20870499 0.0152252 0.87527001 1256120030
-0.26289099 -0.0638244 0.926103 1263258571
-0.21977501 -0.057918102 0.91950798 1259047819
-0.27303499 0.0718242 0.795582 1255330514
-0.254931 0.163607 1.1052999 1254540998
-0.48204201 -0.50165498 2.3162401 1251514520
0.159931 0.114151 0.92668098 1251777692
0.15277299 -0.155221 0.96629 1254409412
0.071088403 -0.37913799 2.5001199 1262008504
-0.161341 -0.36022899 2.5713201 1261942711
0.039316501 -0.339008 2.5766799 1259442577
-0.119778 -0.30460501 2.49347 1259574163
-0.190944 0.26951599 1.55107 1255988444
-0.44218299 -0.46875101 2.28613 1256251616
-0.149776 -0.121418 1.02266 1261153195
-0.52489299 -0.171499 1.59645 1251777692
-0.204587 -0.102574 0.99682099 1263784915
-0.474352 -0.33324501 1.76149 1255330514
0.17385601 0.048439201 0.76122802 1256383202
-0.64995599 -0.106298 1.40967 1253093552
0.16435701 -0.075682901 1.01887 1255988444
-0.282684 0.29090801 1.5127 1256909546
-0.17086001 0.046232902 0.82553101 1259771542
-0.157488 -0.049694099 0.90735799 1260626851
0.533023 -0.0661126 1.92772 1240527088
-0.0261 0.066318803 0.803186 1254409412
-0.280103 0.197834 1.05358 1253751482
-0.180656 0.0104048 0.80080003 1263587536
-0.20058399 -0.018987101 0.858769 1261087402
-0.12772401 0.243545 1.6201299 1254146240
-0.21248899 -0.059990302 0.92383802 1261482160
-0.239686 0.00273865 0.80329198 1262863813
0.1983 -0.098515697 1.06328 1250593418
-0.22559001 -0.384469 2.5450699 1263061192
-0.224677 0.070645303 0.79587901 1250988176
-0.393287 0.396842 1.34312 1258324096
-0.27509901 0.14744 0.95473999 1255593686
0.022993499 0.0652951 0.803114 1253093552
0.1424 0.061238199 0.78510702 1253883068
-0.27455899 0.13572501 0.93342203 1253619896
-0.067842901 0.0115293 0.80593002 1261021609
0.104462 0.37944901 1.3656501 1252698794
-0.137805 0.0123755 0.804914 1261218988
-0.475775 -0.289606 1.73699 1256646374
-0.110765 0.0115027 0.80722201 1261284781
-0.50554901 -0.34257701 1.74121 1259113612
-0.186915 0.011034 0.80111402 1262469055
-0.36313999 -0.45091999 2.3957 1256646374
0.127652 0.061721701 0.79913503 1250330246
0.100557 0.062826201 0.80631298 1250198660
-0.49300301 -0.206389 1.6971999 1251909278
0.138951 -0.186938 0.98341799 1262863813
-0.26276201 0.12488 0.929483 1250725004
0.135373 -0.174962 0.99294299 1259113612
-0.22394399 0.367275 1.38051 1255462100
0.143887 -0.106589 0.988424 1250856590
-0.17601199 0.069076903 0.79627299 1250725004
-0.118845 0.0065086498 0.80056 1263521743
-0.272892 0.114008 0.89451599 1254277826
0.11427 -0.145804 0.97109097 1261679539
0.189685 -0.360735 2.57212 1259310991
-0.61006701 -0.080748402 1.49357 1249935488
-0.35579699 -0.33912399 2.56916 1253488310
-0.40728399 -0.29610199 2.28561 1250461832
-0.35193899 0.357063 1.39713 1255593686
0.077325702 0.0631008 0.80290502 1252172450
-0.76899499 0.22314601 1.62911 1249442040
-0.215082 0.27306101 1.56145 1258093820
-0.75012398 0.216878 1.60514 1250856590
0.115242 -0.10811 0.98833102 1258225406
0.120726 -0.094642498 1.01212 1259574163
-0.324395 -0.091579698 1.0404201 1256383202
-0.57820898 -0.120323 1.44987 1246547148
-0.57508701 -0.1173 1.4689699 1243652256
0.161365 0.094860397 0.89482898 1251909278
-0.453233 0.29131699 1.51018 1256120030
-0.23310401 -0.0699948 0.93613201 1262337469
-0.26010901 -0.063172102 0.92318797 1263982294
-0.62312198 -0.090616003 1.4948601 1251909278
0.120953 -0.071160197 1.0321701 1258225406
-0.19156601 -0.060743101 0.92744398 1260429472
-0.41884401 0.33317801 1.4328099 1256646374
-0.38986501 0.33074701 1.4314899 1256383202
-0.221487 -0.0141271 0.84737003 1260890023
-0.326478 -0.048415199 0.98197699 1257435890
-0.26905599 -0.044222798 0.89169401 1261613746
-0.19159099 0.32573101 1.45363 1256120030
-0.056024399 -0.025357701 0.95558101 1257567476
-0.486682 -0.40578601 2.27196 1253488310
0.207977 0.00842888 0.88777798 1257699062
-0.509615 -0.276842 1.65145 1250461832
-0.180898 0.084846899 0.80229098 1252567208
-0.49692699 -0.218531 1.6585 1253883068
-0.112153 -0.091309898 0.98187202 1263719122
-0.166025 -0.037577 0.89029801 1261021609
-0.0392658 0.066428602 0.80082601 1253619896
-0.102246 -0.029850701 0.86939198 1262469055
-0.219348 0.070210703 0.79443198 1251777692
-0.237709 0.070558101 0.79341602 1250067074
-0.23114 0.066369899 0.78959101 1254277826
0.13782801 0.057406999 0.79748398 1253883068
-0.32361799 0.0123545 0.89305699 1254540998
-0.087812103 0.0044185501 0.80026603 1261745332
0.168547 0.0551644 0.78864998 1256909546
-0.29292399 0.067301199 0.79578102 1254277826
-0.178697 0.0122575 0.80091703 1260824230
-0.186373 0.046510201 0.82314497 1259179405
-0.018616 0.38376299 1.3571399 1251777692
-0.44048399 -0.55415601 2.4049301 1255330514
-0.115413 -0.403927 2.5866899 1262008504
-0.74215299 -0.155875 1.47324 1253356724
-0.253169 0.27039599 1.11533 1252040864
0.0112998 -0.33295399 2.59655 1258521475
0.0824406 0.35064101 1.40962 1254540998
-0.70564002 -0.14607 1.4634 1248652524
0.197006 -0.101172 1.06698 1250067074
-0.63070703 -0.108447 1.45145 1250856590
-0.229771 -0.0437796 0.89077598 1261087402
0.14775001 0.062579997 0.80267 1251777692
-0.0175601 0.065826803 0.80319101 1252172450
0.0638327 0.36725399 1.38468 1252830380
-0.18256301 -0.072888903 0.94894302 1262271676
-0.204548 0.0036093199 0.81206399 1263192778
-0.079899497 -0.062735297 0.93783498 1261087402
-0.16471601 -0.41053599 2.5171399 1262469055
-0.107194 -0.40455601 2.55303 1262995399
0.51605803 0.035786301 1.91326 1247599836
-0.35352901 -0.37829599 2.54792 1255856858
0.201947 -0.062726699 1.01244 1256120030
-0.116834 0.24002901 1.61365 1253883068
-0.27777699 0.204328 1.05567 1254146240
-0.27528 -0.113891 1.01034 1255198928
-0.19672801 0.31094199 1.47412 1258850440
-0.17245799 -0.015395 0.848822 1262337469
-0.48460299 -0.41487101 2.2989299 1253883068
-0.105551 0.064372599 0.79654199 1254935756
0.149186 0.060219601 0.79323798 1249178868
-0.60496199 -0.0769668 1.49821 1249705212
-0.48565 -0.25060201 1.70732 1252830380
0.141404 -0.362077 2.58652 1259837335
-0.169429 -0.058013801 0.92403603 1260232093
-0.193195 -0.34912899 2.5374401 1262469055
-0.066312402 0.064101703 0.79862398 1253356724
-0.521824 -0.22023401 1.63366 1252961966
0.14924601 -0.128006 0.986417 1254672584
-0.0818206 -0.125542 1.02371 1260363679
0.044009201 0.064456999 0.80346203 1253619896
-0.26672 -0.101235 0.98305202 1262337469
-0.253746 0.071551502 0.795313 1252567208
0.14903501 -0.0939527 1.00493 1256777960
0.197264 -0.098447204 1.0636801 1251119762
-0.13457599 -0.0740171 0.94544399 1262863813
0.102731 0.38087401 1.36358 1251514520
0.097986497 -0.115631 1.02109 1253488310
0.095814899 -0.119001 1.08301 1250988176
0.067983396 -0.118289 1.0855 1252698794
-0.148283 -0.0164697 0.84864098 1259903128
-0.33352399 0.35721701 1.40745 1255856858
-0.54842103 0.346468 1.42624 1257172718
0.14766601 0.230782 1.14555 1249442040
-0.23909099 -0.101944 0.99379498 1263390157
-0.33940899 -0.41478601 2.58952 1259968921
-0.54068297 -0.254646 1.57836 1247599836
-0.72020203 -0.12984499 1.45556 1255725272
-0.23332299 -0.0920128 0.97725099 1263455950
-0.435038 -0.27185801 1.8342299 1253488310
-0.581783 -0.196667 1.41875 1248126180
-0.25458699 0.203428 1.10773 1252830380
0.067505904 -0.33438399 2.52859 1258653061
0.16245501 -0.328058 2.57022 1250856590
-0.34340701 -0.32110301 2.58109 1257962234
-0.55769002 -0.167372 1.47857 1245757632
-0.26262799 -0.058694899 0.916731 1262469055
-0.21757901 -0.120789 1.02074 1257172718
-0.091135502 -0.0552232 0.92188102 1259837335
-0.70686501 -0.065648302 1.42723 1257830648
-0.14237399 -0.102807 0.99822098 1264837603
-0.207756 -0.090765603 0.97792798 1264377052
-0.646249 -0.115966 1.47495 1252172450
-0.12864999 -0.047911599 0.906896 1262140090
-0.091102101 -0.072615199 0.94686002 1261811125
0.150498 -0.0772328 1.02363 1258718854
-0.27060199 -0.068145297 0.93314999 1261613746
-0.12887099 0.083726898 0.80307698 1252961966
0.15646601 -0.072947398 1.02741 1254935756
-0.0519039 0.0167799 0.89406902 1257830648
-0.26074201 0.116693 0.91182703 1252172450
-0.48358101 -0.52114999 2.35603 1255198928
0.16338301 -0.17573901 0.95730799 1258455682
-0.299034 0.33424699 1.44073 1257830648
-0.399198 -0.354954 2.2623701 1255725272
-0.057066198 0.042206399 0.86146301 1255462100
-0.48152301 -0.199269 1.67988 1255462100
-0.26835799 0.218363 1.10303 1252567208
-0.274189 -0.117223 1.01273 1253883068
-0.27244499 0.162976 0.97529799 1253488310
-0.118938 0.346396 1.42476 1250067074
0.52549702 -0.073332801 1.91651 1244968116
-0.32059801 0.01459 0.87808299 1253883068
-0.45817399 -0.425446 2.26315 1255330514
-0.068562202 0.029927701 0.816338 1259047819
0.087820202 -0.188999 0.97245699 1258225406
-0.48389101 -0.30791301 1.72658 1257304304
-0.66147 0.180538 1.6729701 1247336664
-0.40550199 -0.381969 2.23282 1257041132
-0.44901201 -0.31564 1.84378 1255067342
-0.168607 -0.056093998 0.92144001 1260232093
-0.48052299 -0.27924401 1.70523 1255067342
-0.48855001 -0.362169 2.2509699 1250593418
-0.106876 0.067862503 0.79930001 1253883068
-0.119192 -0.40237001 2.5045199 1261942711
-0.51368099 -0.26739901 1.66986 1252961966
-0.54801798 -0.229643 1.4529001 1247073492
-0.50420398 -0.26322299 1.68293 1254277826
-0.220722 -0.379621 2.56551 1262534848
-0.51007402 -0.29037699 1.67031 1253093552
-0.20764901 -0.36464599 2.5539999 1261876918
-0.20773 -0.121309 1.0229 1259903128
-0.47160801 -0.298545 2.2700601 1244968116
-0.3267 -0.33119199 2.52739 1260363679
0.149244 -0.33439499 2.5603299 1255330514
0.122342 -0.14677 0.97993201 1252961966
-0.57476401 -0.195978 1.46645 1248389352
-0.075059503 0.0441688 0.83077103 1258850440
-0.080209903 0.082165398 0.80519497 1251646106
0.198369 -0.098480202 1.06392 1251382934
-0.236471 -0.30238599 2.5004399 1258982026
-0.143894 0.046042401 0.82743698 1259508370
-0.51547801 -0.27636799 1.67924 1254540998
-0.133509 -0.1021 0.99785602 1264179673
-0.74191999 0.21194001 1.63436 1250067074
0.152981 0.19718499 1.08418 1249935488
-0.113232 -0.0957321 0.97988498 1263982294
-0.32264599 -0.0970596 1.05686 1255198928
0.150777 -0.099229597 1.0061899 1255856858
-0.32296801 0.36669201 1.37254 1256777960
-0.21692701 0.360982 1.38551 1254672584
-0.541394 -0.10808 1.57947 1251382934
-0.231401 -0.081236899 0.96283001 1264311259
-0.50810999 -0.32901201 1.71111 1256120030
-0.28015 0.23054899 1.1063401 1255067342
0.120622 -0.082286201 1.02534 1261942711
-0.42063701 -0.36793599 2.29598 1255856858
-0.43308899 -0.26191401 1.7984 1254277826
-0.54471803 -0.222425 1.57064 1246547148
-0.35320801 -0.31989399 2.5481801 1252304036
-0.60046399 -0.070342302 1.50639 1251514520
0.0102925 -0.31864801 2.58849 1258718854
-0.22400101 -0.0577594 0.91608101 1259705749
-0.172186 -0.057987999 0.924182 1260297886
-0.107427 -0.053057101 0.91369098 1261153195
-0.0129332 0.370143 1.37792 1254540998
-0.187079 0.359249 1.3922 1253619896
-0.465361 -0.41425601 2.2674 1254540998
-0.14677399 -0.043106701 0.90118402 1261087402
-0.48710001 -0.41028699 2.30512 1254146240
-0.42587101 -0.399551 2.29969 1253488310
-0.26858199 -0.027754599 0.86622602 1260495265
0.13571 0.155797 1.11605 1245494460
-0.51309502 -0.280559 1.66751 1252567208
-0.18076199 -0.024893999 0.86745602 1260955816
-0.23727199 0.0044758799 0.814776 1264048087
-0.32703599 -0.080973797 1.03082 1259047819
-0.143433 0.084092803 0.80314302 1252435622
-0.153025 -0.36252499 2.5483501 1262205883
-0.076986901 0.081855603 0.80429 1250856590
-0.0231915 0.080319501 0.80486798 1249442040
-0.63429701 -0.089392401 1.52003 1254935756
-0.14555401 -0.0030007199 0.825854 1264311259
0.13466699 -0.0680888 1.01653 1251119762
-0.26348099 -0.061191902 0.92396301 1262534848
0.088274203 0.058951799 0.80468398 1257567476
-0.129713 0.068213798 0.79866898 1254146240
-0.27098101 -0.056487702 0.91644597 1260824230
-0.1029 0.067974404 0.800367 1252961966
0.12810899 0.0578175 0.80247098 1258225406
-0.128819 -0.047713298 0.90739602 1260955816
-0.026698099 0.060859598 0.79270101 1256646374
-0.25434601 -0.0379433 0.883654 1263719122
-0.24131 0.045256499 0.81107801 1258850440
0.0677891 0.059436399 0.80186802 1256383202
-0.32637501 -0.0297598 0.95548099 1252830380
-0.26803699 -0.0209208 0.85647303 1260692644
-0.062217198 0.0434164 0.83543301 1256777960
0.105985 0.059175801 0.80484301 1255856858
-0.26580301 -0.00070621399 0.82218498 1261745332
-0.232252 0.0049197301 0.81438202 1263455950
-0.151007 0.063960701 0.796776 1257172718
-0.153989 0.0091375997 0.80055302 1262732227
0.118285 0.061455101 0.79723197 1250461832
0.16425 0.059732798 0.78924501 1250461832
-0.051947001 0.066800699 0.80258399 1252961966
0.00458916 0.066062801 0.804802 1255593686
-0.21156301 0.070607796 0.79682899 1253883068
-0.19096699 0.070374303 0.79784 1254277826
0.094308503 0.065539204 0.79944599 1252172450
-0.72697401 0.24741 1.65099 1255067342
0.181556 0.068840601 0.78595299 1252040864
-0.051585201 0.066753402 0.80229801 1251382934
0.0013070001 0.065662302 0.80398601 1254277826
0.034610499 0.078805797 0.80887598 1249705212
0.162113 0.074841604 0.80163699 1251251348
-0.101261 0.0822687 0.80100697 1250198660
-0.167858 0.084887803 0.804667 1251382934
-0.226825 0.0861215 0.80195302 1252304036
0.149128 0.108059 0.93437099 1251646106
-0.27235201 0.106499 0.87976599 1254014654
-0.51960099 -0.222312 1.62053 1250856590
-0.181492 0.26671401 1.5544699 1253225138
-0.186985 -0.033458799 0.88472599 1262337469
0.155953 0.36164999 1.39007 1250461832
-0.246108 0.27112299 1.53124 1256251616
-0.049720399 0.0163585 0.86778003 1258455682
-0.33854201 -0.427515 2.5938499 1261679539
-0.106796 -0.405848 2.55215 1261613746
-0.22079299 0.0046546101 0.81332099 1263587536
0.052820701 0.064390697 0.80377001 1252698794
0.0103092 0.29108 1.51265 1252567208
-0.58042502 -0.060631201 1.5109299 1247599836
-0.52178502 -0.220017 1.6351 1252830380
-0.33465901 -0.31414101 2.56408 1258587268
-0.069280803 0.041954599 0.82741898 1257567476
-0.188132 0.30231801 1.49449 1256251616
0.141017 0.197855 1.1045001 1250856590
-0.173198 -0.0102547 0.84073102 1263653329
-0.22684699 0.046440601 0.82218498 1258718854
-0.204399 0.31827801 1.4643199 1257304304
0.017314 0.34601301 1.42699 1249442040
-0.13130599 -0.0167384 0.852723 1260824230
-0.27163401 0.35453099 1.40087 1255856858
0.122963 0.35004801 1.41034 1252435622
-0.151659 0.35363799 1.39719 1253225138
-0.188765 0.356841 1.39777 1256909546
-0.58590198 -0.122596 1.46568 1248652524
-0.36911201 0.36083901 1.37351 1257830648
-0.44234499 -0.359505 2.29637 1246810320
-0.50384903 0.37244499 1.37005 1258455682
-0.35689399 -0.37556899 2.5819499 1256646374
-0.508753 0.374641 1.34838 1257435890
-0.0053507499 0.37212399 1.37512 1253751482
-0.241032 0.37572199 1.36525 1258389889
-0.221062 0.377464 1.35974 1256251616
-0.40276399 0.38061601 1.34368 1256646374
-0.25267601 0.30039701 1.11895 1251777692
0.15129 0.216612 1.11842 1250461832
0.149932 0.223552 1.13164 1249178868
0.037374899 0.32235399 1.46717 1252830380
0.062451001 0.322216 1.46876 1252567208
-0.236325 0.32561001 1.44824 1257699062
-0.21817701 0.328989 1.44616 1257567476
-0.373319 0.332156 1.4407099 1256120030
-0.51916403 0.33376399 1.41921 1256383202
-0.0086176498 0.33089 1.44324 1251909278
-0.279378 0.228375 1.10217 1252304036
-0.504044 0.33875701 1.41899 1257567476
-0.40437001 -0.270659 2.3273301 1244441772
-0.39279199 0.34518501 1.40962 1258389889
-0.253232 0.25303099 1.11278 1252698794
-0.16872901 0.26697499 1.56529 1253225138
-0.40265501 -0.27183601 2.3183801 1244968116
-0.58383203 -0.171213 1.41483 1247599836
0.150141 -0.10402 1.00124 1257830648
-0.52983803 -0.181628 1.61369 1251382934
-0.53713298 -0.14576 1.58056 1248652524
0.14829201 -0.099753 1.0029401 1254935756
-0.21303201 -0.120986 1.01905 1258324096
-0.113328 -0.12203 1.02588 1259771542
-0.70394403 -0.145688 1.44871 1252435622
0.14033701 -0.116523 0.982867 1243915428
0.15738 -0.093268 1.01499 1252040864
-0.545362 -0.152813 1.6140701 1249935488
-0.27274299 0.118071 0.89933598 1253356724
0.16037899 -0.14999899 0.96734703 1242862740
-0.20359001 0.37977999 1.35996 1255330514
0.12231 -0.149468 0.96666199 1252567208
-0.515248 -0.242598 1.62489 1250067074
-0.355057 -0.339239 2.5606101 1250725004
0.102568 -0.081623398 1.04506 1257567476
-0.107888 -0.079723202 0.96249402 1263061192
-0.16059899 0.36908999 1.3895 1251251348
-0.52656198 -0.207215 1.63218 1252567208
-0.15813699 -0.073446602 0.947761 1261350574
0.083523497 0.35803601 1.4120899 1252435622
0.138392 0.32304901 1.32419 1246020804
0.117446 -0.089706004 1.02159 1261284781
-0.18262 -0.068281099 0.93982798 1258982026
-0.32441401 -0.0712699 1.0090801 1256514788
-0.130119 -0.056230102 0.92331302 1259903128
-0.254659 0.31230399 1.4883 1255462100
-0.112187 0.33853301 1.44056 1253093552
-0.417274 -0.36285001 2.25207 1255198928
-0.136453 0.29898801 1.49919 1253093552
-0.54309601 -0.161865 1.4545 1242599568
-0.193857 0.29757601 1.50544 1257172718
-0.68015498 -0.13892899 1.42924 1250198660
-0.32383201 -0.0449863 0.97030401 1254409412
0.137631 0.200728 1.12398 1251382934
0.20210899 -0.082979403 1.04953 1253751482
-0.11646 0.0032306099 0.80892497 1262863813
0.20464 -0.033121701 0.958902 1255988444
-0.099296696 -0.030746 0.87643898 1260890023
-0.48982501 -0.51116598 2.35796 1254540998
-0.43929899 -0.50530201 2.3469801 1255593686
-0.13620199 -0.0280337 0.87328899 1259968921
-0.36212799 -0.46363899 2.3466699 1257699062
0.13209701 -0.19315299 0.97133201 1258718854
-0.47644299 -0.35179701 1.72236 1257699062
-0.47693101 -0.50135303 2.30896 1252172450
-0.60796702 -0.26243699 1.49085 1248389352
-0.108568 -0.0174718 0.852346 1262534848
-0.222054 -0.38130701 2.5699 1261153195
-0.82814598 0.24219599 1.59995 1251646106
-0.22657099 -0.056501798 0.91240799 1260955816
-0.80152798 0.234771 1.59865 1249705212
-0.469587 -0.50972998 2.30123 1250988176
-0.456752 -0.437327 2.2810199 1253356724
-0.51149398 -0.290764 1.68093 1251909278
-0.35079899 -0.421911 2.5537 1255856858
-0.69439602 0.1568 1.6756901 1238421712
-0.43422699 -0.39272499 2.30549 1251909278
-0.196165 0.083655499 0.753452 1250067074
-0.33679801 -0.40483901 2.54426 1260166300
-0.50366902 -0.28350201 1.6734 1257172718
-0.103763 0.0678076 0.79968399 1251646106
-0.32075 0.0510993 0.82859099 1249705212
-0.68921 -0.141582 1.4166501 1249935488
-0.26162401 0.0152753 0.80036598 1263192778
-0.239254 0.0141836 0.80046397 1263784915
-0.27156201 -0.040498801 0.89508897 1262140090
-0.62347698 -0.094421297 1.49264 1247599836
-0.26815799 0.185945 1.04624 1252172450
-0.13386901 0.068587802 0.79807699 1253751482
-0.130992 -0.073911898 0.94934499 1263653329
-0.123488 0.045670498 0.82742101 1259903128
0.17517 -0.32350901 2.56231 1253883068
-0.46423101 -0.24883001 1.77558 1253883068
-0.353834 -0.32708201 2.55637 1251382934
-0.41077301 -0.42972001 2.30705 1253488310
-0.0041804202 0.059545401 0.79063803 1257041132
-0.23029 -0.0219953 0.859523 1261679539
-0.0495077 0.062582299 0.80046099 1257567476
-0.108468 -0.017715201 0.85165298 1261811125
-0.35323501 -0.422535 2.56299 1256383202
-0.14902399 -0.032839101 0.88274199 1260100507
-0.22274099 -0.38177201 2.5533199 1261745332
-0.25935701 -0.059236102 0.91930699 1263455950
-0.275482 -0.115398 1.01176 1254672584
-0.44708401 -0.214792 1.78345 1253488310
0.14811499 -0.072672702 1.02334 1255593686
-0.286654 0.27424601 1.55173 1257435890
-0.53765702 -0.44155699 1.6813999 1243915428
-0.53091103 -0.17493001 1.61935 1252961966
-0.463828 -0.55810499 2.37304 1254540998
0.107066 -0.20514899 1.0018899 1256120030
0.164517 -0.191967 0.969127 1258455682
-0.42521599 -0.53917497 2.36256 1253225138
0.16882899 -0.18495999 0.959351 1253488310
0.088376001 -0.190254 0.97434002 1255330514
0.168053 -0.179864 0.956599 1253488310
0.138642 -0.18596999 0.98164397 1261547953
-0.55021298 -0.34628701 1.56455 1243652256
-0.51221102 -0.377765 1.7119499 1244441772
-0.474195 -0.50707799 2.31215 1251251348
-0.392005 -0.504848 2.3465099 1254146240
0.093431398 -0.174935 0.951783 1259376784
0.153708 -0.16966701 0.94816601 1259574163
-0.433902 -0.49100199 2.30318 1253356724
-0.15518101 -0.364218 2.56828 1262271676
-0.50115299 -0.37859601 1.78275 1252698794
-0.51988101 -0.252803 1.6661299 1252040864
0.117754 -0.144851 0.98339599 1259310991
-0.281376 0.235322 1.1196899 1253751482
-0.36525601 -0.483015 2.5130701 1256383202
-0.406178 -0.43834099 2.3011601 1252304036
-0.33739099 -0.322965 2.5410199 1260626851
0.116748 -0.14768299 0.97408402 1259245198
0.135003 -0.14311101 0.96376503 1251909278
-0.46336201 -0.31185201 1.72189 1254540998
-0.35000899 -0.46013999 2.52386 1258389889
0.151408 -0.143179 0.97245401 1255988444
-0.134673 -0.101754 0.99612999 1263521743
-0.33576399 -0.40937999 2.5645499 1260495265
-0.418331 -0.40814 2.2895601 1248389352
-0.47957799 -0.40731099 2.2824099 1250856590
0.14584599 0.14435799 1.00431 1251382934
-0.449817 -0.315494 1.8128099 1252961966
-0.5104 -0.29009899 1.6781501 1252304036
-0.40874201 -0.31307501 2.2449501 1252304036
-0.26695001 0.29566199 1.49712 1256777960
-0.35077399 -0.42050001 2.5504301 1256383202
-0.275419 0.16529299 0.98582 1254409412
-0.52584898 -0.21071699 1.6386 1252567208
-0.053710502 -0.00271561 0.89635301 1258093820
-0.110855 -0.397892 2.52665 1261547953
0.156637 0.158406 1.00841 1251646106
-0.48557499 -0.19921701 1.64016 1253093552
-0.258057 -0.0086949999 0.83331001 1262863813
-0.23803701 -0.0092905797 0.83938098 1263455950
-0.265475 0.148798 0.979653 1254146240
-0.18329699 0.046317499 0.82308698 1258850440
-0.264595 0.138743 0.959584 1253225138
-0.251335 -0.110702 1.00213 1261350574
-0.196641 -0.0147579 0.84771502 1262469055
-0.26531899 0.047663901 0.81751198 1257962234
-0.150398 -0.0165454 0.85004097 1260363679
-0.26765001 -0.015973199 0.847619 1261284781
-0.27318001 -0.085555799 0.96638799 1262469055
-0.108882 -0.080095798 0.961308 1264771810
-0.074214399 -0.079921 0.96217901 1259837335
-0.26989999 -0.043808401 0.89517301 1260626851
-0.223254 -0.0154943 0.84787399 1262074297
-0.26079401 -0.104779 0.98932499 1261482160
-0.116455 -0.100431 0.99251902 1264048087
-0.12696099 0.068117499 0.79842401 1252567208
-0.218879 -0.064574897 0.93255001 1260100507
-0.261363 -0.06318 0.92574698 1263653329
-0.079538703 0.067561299 0.80065 1253225138
0.115419 -0.14560001 0.97627902 1260232093
0.136371 0.185504 1.11905 1247863008
-0.191259 -0.060350701 0.92796201 1260363679
-0.16771001 0.046259601 0.82484102 1259047819
-0.50436401 -0.41969401 1.7312599 1250461832
-0.25458801 0.206229 1.10815 1253751482
-0.48307899 -0.24293301 1.6971101 1252698794
-0.33134899 -0.048411399 0.99973798 1254540998
-0.15327901 -0.0159226 0.85389501 1260692644
-0.151078 0.084601402 0.80352902 1251777692
-0.425892 -0.53856301 2.33461 1256120030
-0.328973 -0.019257201 0.955365 1254804170
0.087661803 -0.182422 0.96297002 1258587268
-0.41456199 -0.531286 2.3308201 1255856858
-0.56351602 -0.28726 1.6141 1246020804
0.117776 -0.20415001 0.98480397 1259047819
0.120436 -0.106228 0.99435103 1250330246
-0.48965701 -0.47298601 2.2989199 1252567208
-0.129109 -0.0480332 0.90734899 1261284781
-0.109152 -0.028405201 0.87500399 1260363679
-0.43857601 -0.473937 2.28597 1254146240
-0.52855498 -0.46565199 2.3124199 1252830380
-0.66853601 -0.103003 1.5002 1255330514
-0.51063198 -0.345065 1.7433 1255725272
-0.199132 -0.0152291 0.84707099 1261745332
-0.107133 -0.40616301 2.53391 1261350574
-0.23139 -0.40392399 2.5299301 1262074297
-0.32813001 -0.40507701 2.52192 1260232093
0.0054077501 -0.38411501 2.52035 1260561058
-0.572658 -0.29101101 1.5847501 1249442040
-0.44440901 -0.310992 1.7904201 1253356724
-0.47918499 -0.370083 2.2335701 1249442040
-0.492035 -0.40527001 2.2512901 1252830380
0.094105802 -0.166243 0.996481 1247336664
-0.51115602 -0.29145899 1.66962 1251119762
-0.51656502 -0.29528299 1.6962 1252435622
-0.36800799 -0.37531099 2.3765299 1253356724
-0.51511198 -0.29141799 1.6956 1254014654
-0.48381901 -0.35841799 2.2307899 1249178868
-0.225301 -0.38036799 2.5256801 1260824230
-0.39765999 -0.35284099 2.2549701 1254014654
0.117057 -0.15677001 0.97495598 1260626851
0.13391501 -0.353957 2.5678301 1258916233
-0.365325 -0.348189 2.28757 1250067074
0.134847 -0.152463 0.95961499 1249705212
-0.39302999 -0.35018799 2.2386 1253619896
-0.43967199 -0.347377 2.2574301 1247863008
-0.51488501 -0.276335 1.67295 1251646106
-0.15618099 -0.35507199 2.52333 1261613746
0.024051899 -0.33654201 2.5571599 1255593686
-0.54996097 -0.25170001 1.52397 1249705212
0.113814 -0.149086 0.985789 1260034714
-0.53892303 -0.25421301 1.57171 1242336396
-0.54356098 -0.253952 1.57699 1242073224
-0.39095801 -0.31855899 2.23682 1245494460
0.0114448 -0.32278201 2.5123799 1257304304
-0.58079499 -0.246437 1.5289201 1243125912
-0.48364601 -0.25145099 1.69797 1252172450
-0.470523 -0.25876001 1.77584 1253751482
0.13855 0.062627703 0.800758 1251382934
-0.69614899 -0.18291201 1.43987 1247336664
-0.52247 -0.24598999 1.6574399 1249442040
-0.46315601 -0.30258 2.2488599 1244968116
-0.39242399 -0.475346 2.3072 1253093552
-0.53206998 -0.47201601 2.3484299 1253488310
-0.32904601 -0.31236699 2.51862 1258521475
0.110728 -0.182046 0.984124 1259705749
-0.58825302 -0.225776 1.50476 1244441772
-0.32154301 -0.30359599 2.51071 1256514788
-0.397636 -0.28194001 2.2505 1247336664
-0.53806299 -0.223059 1.55581 1243652256
-0.52443701 -0.22217999 1.64647 1250198660
-0.394335 -0.264063 2.2800801 1242336396
0.15035801 -0.118198 0.99227601 1247599836
-0.58957303 -0.203431 1.5107599 1243915428
0.148377 -0.117364 0.988666 1249935488
-0.60556102 -0.201288 1.48485 1243652256
-0.48773199 -0.20442501 1.68033 1250330246
-0.621005 -0.197047 1.4876 1244178600
0.110746 -0.120287 1.10272 1249705212
-0.69398999 -0.143519 1.43602 1252698794
-0.099442802 -0.1234 1.02496 1258784647
-0.510903 -0.273514 1.66046 1250856590
-0.52448899 -0.252662 1.54818 1242336396
0.197295 -0.105974 1.07902 1250198660
-0.66035599 -0.226963 1.48567 1244441772
-0.434964 -0.36790001 2.25559 1250725004
-0.350034 -0.416989 2.5325601 1255198928
-0.36090401 -0.38029999 2.3208799 1251777692
-0.534522 -0.160061 1.5950201 1248915696
-0.48953599 -0.357995 2.2499199 1247599836
0.127049 -0.089611001 0.997823 1249178868
-0.604451 -0.149406 1.45867 1242336396
-0.58732897 -0.224473 1.48799 1242862740
-0.32692301 -0.40413001 2.5239699 1260626851
0.150039 -0.082150497 1.01784 1256909546
-0.435826 -0.34998801 2.24984 1249442040
-0.36709899 -0.37109399 2.3537199 1251382934
0.203758 -0.075075798 1.0281 1252040864
-0.52328497 -0.134508 1.58548 1252172450
0.1662 -0.076607302 1.02768 1254014654
-0.075411201 -0.088834599 0.97529101 1259376784
-0.52648199 -0.13237 1.58552 1253356724
-0.31149501 -0.104134 1.06709 1254804170
-0.236201 -0.096680202 0.984097 1263324364
0.14833499 -0.072609402 1.02205 1255330514
-0.274001 -0.095490903 0.98131698 1261153195
0.10588 -0.073842302 1.0264699 1253356724
0.0911856 -0.181757 0.96417499 1260034714
-0.66685498 -0.122069 1.51387 1250198660
-0.078832 -0.075367004 0.94944102 1261613746
-0.43784899 -0.26316699 1.8228199 1252172450
-0.244039 -0.084707998 0.96329701 1264574431
-0.57727098 -0.109648 1.47674 1247599836
-0.156505 -0.43227699 2.61373 1262205883
-0.157543 -0.40006399 2.4950199 1261811125
-0.19368801 -0.30781299 2.5375099 1259310991
-0.130243 -0.0738969 0.95088202 1260626851
-0.26886299 0.070881799 0.79001999 1254804170
-0.234487 0.070666902 0.79287499 1251909278
