# .PCD v0.7 - Point Cloud Data file format
VERSION 0.7
FIELDS x y z rgb
SIZE 4 4 4 4
TYPE F F F U
COUNT 1 1 1 1
WIDTH 1132
HEIGHT 1
VIEWPOINT 0 0 0 1 0 0 0
POINTS 1132
DATA ascii
-0.088298298 -0.30828601 2.52214 1259508370
-0.22400101 -0.0577594 0.91608101 1259705749
-0.172186 -0.057987999 0.924182 1260297886
-0.53946501 0.28934199 1.51244 1255856858
-0.107427 -0.053057 0.91369098 1261153195
-0.0129334 0.37014201 1.37792 1254540998
-0.187079 0.35925001 1.3922 1253619896
-0.465361 -0.41425699 2.2674 1254540998
-0.14677501 -0.043106601 0.90118402 1261087402
-0.48710001 -0.41028699 2.30512 1254146240
-0.42587101 -0.39955199 2.29969 1253488310
-0.26858199 -0.027754501 0.86622602 1260495265
0.13571 0.155797 1.11605 1245494460
-0.51309502 -0.280559 1.66751 1252567208
-0.18076199 -0.0248942 0.86745602 1260955816
-0.23727199 0.0044760299 0.814776 1264048087
-0.32703599 -0.080973797 1.03082 1259047819
-0.143433 0.0840929 0.80314302 1252435622
-0.153025 -0.362524 2.5483501 1262205883
-0.076986998 0.081855603 0.80429 1250856590
-0.023191201 0.080319598 0.80486798 1249442040
-0.63429803 -0.089392997 1.52003 1254935756
-0.14555401 -0.0030006999 0.82585502 1264311259
0.13466699 -0.0680888 1.01653 1251119762
-0.26348099 -0.061191998 0.92396301 1262534848
0.0882743 0.058951698 0.80468398 1257567476
-0.129713 0.068213798 0.79866898 1254146240
-0.27098101 -0.056487501 0.91644597 1260824230
-0.1029 0.067974404 0.800367 1252961966
0.12810899 0.0578174 0.80247098 1258225406
-0.128819 -0.047713298 0.90739602 1260955816
-0.026698601 0.060859799 0.79270101 1256646374
-0.25434601 -0.037943199 0.883654 1263719122
-0.241311 0.045256801 0.811077 1258850440
0.067789197 0.059436299 0.80186802 1256383202
-0.32637501 -0.029759901 0.95548099 1252830380
-0.63550001 -0.0137629 1.38787 1253488310
-0.26803699 -0.020920699 0.85647303 1260692644
-0.062217299 0.0434164 0.83543301 1256777960
0.105985 0.059176002 0.80484301 1255856858
-0.26580301 -0.00070607697 0.82218498 1261745332
-0.232253 0.0049196598 0.81438202 1263455950
-0.151007 0.063960798 0.796776 1257172718
-0.15399 0.0091374898 0.80055302 1262732227
0.118285 0.061455499 0.79723197 1250461832
0.16425 0.059732702 0.78924501 1250461832
-0.051947098 0.066800699 0.80258399 1252961966
0.0045891898 0.066062801 0.804802 1255593686
-0.21156301 0.070607699 0.79682899 1253883068
-0.19096699 0.070374496 0.79784 1254277826
0.094308503 0.065539204 0.79944599 1252172450
-0.726978 0.247411 1.65099 1255067342
0.181556 0.068840399 0.78595299 1252040864
-0.051585201 0.066753298 0.80229801 1251382934
0.00130715 0.065662198 0.80398601 1254277826
0.034610402 0.0788057 0.80887598 1249705212
0.162113 0.074842297 0.80163699 1251251348
-0.101261 0.0822687 0.80100697 1250198660
-0.167858 0.084887803 0.804667 1251382934
-0.226824 0.0861215 0.80195302 1252304036
0.149128 0.108059 0.93437099 1251646106
-0.27235201 0.106498 0.87976599 1254014654
-0.89402199 0.260822 1.58055 1249178868
-0.51960099 -0.222313 1.62053 1250856590
-0.141177 0.240531 1.44889 1252435622
-0.181492 0.26671401 1.5544699 1253225138
-0.186985 -0.0334589 0.88472599 1262337469
0.15595201 0.36164999 1.39007 1250461832
0.094852902 0.265389 1.54866 1253883068
-0.246108 0.27112201 1.53124 1256251616
-0.0497206 0.016358299 0.86778003 1258455682
-0.30511299 0.275152 1.51292 1255462100
-0.42094401 0.281115 1.51791 1255330514
-0.338541 -0.42751399 2.5938499 1261679539
0.0111616 -0.42735299 2.5968001 1260824230
-0.61092103 0.28464901 1.44871 1256120030
-0.106797 -0.40584701 2.55215 1261613746
-0.22079299 0.0046546101 0.81332099 1263587536
0.052820601 0.064390697 0.80377001 1252698794
0.104343 0.289974 1.52126 1255330514
0.0103091 0.29108 1.51265 1252567208
-0.58042502 -0.0606311 1.5109299 1247599836
-0.52178502 -0.220017 1.6351 1252830380
-0.33465901 -0.31414101 2.56408 1258587268
-0.0692809 0.041954499 0.82741898 1257567476
-0.188132 0.30231699 1.49449 1256251616
0.141017 0.197855 1.1045001 1250856590
-0.51076502 -0.112662 1.59314 1252040864
-0.173198 -0.0102548 0.84073102 1263653329
-0.52863997 0.28152299 1.32049 1258455682
-0.22684699 0.046440698 0.82218498 1258718854
-0.204399 0.31827801 1.4643199 1257304304
0.017314401 0.34601399 1.42699 1249442040
-0.13130701 -0.016738299 0.852723 1260824230
-0.27163401 0.35453099 1.40087 1255856858
-0.62572402 0.34575599 1.34225 1258389889
0.122963 0.35004699 1.41034 1252435622
-0.15166 0.35363799 1.39719 1253225138
-0.57263601 0.349742 1.34921 1257567476
-0.188765 0.356841 1.39777 1256909546
-0.58590198 -0.122595 1.46568 1248652524
-0.36911201 0.36083999 1.37351 1257830648
-0.44234499 -0.35950401 2.29637 1246810320
-0.50384903 0.372444 1.37005 1258455682
-0.35689399 -0.37557 2.5819499 1256646374
-0.508753 0.37463999 1.34838 1257435890
-0.0053510298 0.372125 1.37512 1253751482
-0.241032 0.37572199 1.36525 1258389889
-0.221062 0.377464 1.35974 1256251616
-0.40276301 0.380615 1.34368 1256646374
-0.25267601 0.30039701 1.11895 1251777692
-0.59226203 0.40037999 1.3656501 1256120030
0.15129 0.216612 1.11842 1250461832
0.149932 0.223552 1.13164 1249178868
0.037373599 0.322355 1.46717 1252830380
0.0624508 0.322216 1.46876 1252567208
-0.236324 0.32561001 1.44824 1257699062
-0.21817701 0.32898799 1.44616 1257567476
-0.373319 0.33215699 1.4407099 1256120030
-0.51916301 0.333763 1.41921 1256383202
-0.61805999 0.32449901 1.37181 1257830648
-0.0086174998 0.33089 1.44324 1251909278
-0.27937701 0.228375 1.10217 1252304036
-0.504044 0.338756 1.41899 1257567476
-0.404369 -0.270659 2.3273301 1244441772
-0.39279199 0.34518501 1.40962 1258389889
-0.25323299 0.25303099 1.11278 1252698794
-0.16872901 0.266974 1.56529 1253225138
-0.40265501 -0.27183601 2.3183801 1244968116
-0.58383203 -0.171213 1.41483 1247599836
-0.580109 -0.15757699 1.3389601 1248652524
0.150142 -0.104021 1.00124 1257830648
-0.52983701 -0.181628 1.61369 1251382934
-0.53713298 -0.14576 1.58056 1248652524
0.14829101 -0.099753 1.0029401 1254935756
-0.21303201 -0.120987 1.01905 1258324096
-0.113329 -0.12203 1.02588 1259771542
-0.70394403 -0.145688 1.44871 1252435622
0.14033701 -0.116523 0.982867 1243915428
0.15738 -0.093268096 1.01499 1252040864
-0.545362 -0.152815 1.6140701 1249935488
-0.27274299 0.118071 0.89933598 1253356724
0.16037799 -0.14999899 0.96734703 1242862740
-0.203591 0.37977999 1.35996 1255330514
0.12231 -0.149468 0.96666199 1252567208
-0.51524901 -0.242597 1.62489 1250067074
-0.355057 -0.339239 2.5606101 1250725004
0.102568 -0.081623398 1.04506 1257567476
-0.107888 -0.079723202 0.96249402 1263061192
-0.160597 0.36908999 1.3895 1251251348
-0.52656198 -0.207215 1.63218 1252567208
-0.15813699 -0.073446803 0.947761 1261350574
0.083523601 0.35803601 1.4120899 1252435622
0.138392 0.32304901 1.32419 1246020804
-0.60365099 -0.126398 1.32646 1250198660
-0.57265401 -0.122504 1.33165 1250067074
0.117446 -0.089706004 1.02159 1261284781
-0.18262 -0.068281204 0.93982798 1258982026
-0.32441401 -0.071269996 1.0090801 1256514788
-0.130119 -0.056229699 0.92331302 1259903128
-0.254659 0.312305 1.4883 1255462100
-0.112187 0.33853301 1.44056 1253093552
-0.276436 0.28161401 1.22164 1252040864
-0.41727301 -0.36285001 2.25207 1255198928
-0.136455 0.29898801 1.49919 1253093552
-0.54309702 -0.161865 1.4545 1242599568
-0.193857 0.29757601 1.50544 1257172718
-0.68015498 -0.13892899 1.42924 1250198660
-0.32383201 -0.0449857 0.97030401 1254409412
0.137631 0.200728 1.12398 1251382934
0.20210899 -0.082979403 1.04953 1253751482
-0.11646 0.0032305799 0.80892497 1262863813
0.52249199 -0.086072199 1.96297 1236842680
-0.40831101 0.397522 1.32485 1255856858
0.20464 -0.033121701 0.958902 1255988444
-0.099297002 -0.0307461 0.87643898 1260890023
-0.48982501 -0.51116598 2.35796 1254540998
-0.4393 -0.50530201 2.3469801 1255593686
-0.37733001 -0.50511402 2.4098301 1259771542
-0.13620199 -0.0280338 0.87328899 1259968921
-0.38495499 -0.50952297 2.51402 1259705749
-0.362129 -0.46364 2.3466699 1257699062
0.13209701 -0.19315299 0.97133201 1258718854
-0.47644401 -0.35179701 1.72236 1257699062
-0.47692999 -0.50135398 2.30896 1252172450
-0.60796797 -0.262438 1.49085 1248389352
-0.108568 -0.0174715 0.852346 1262534848
-0.222055 -0.38130599 2.5699 1261153195
-0.82814598 0.24219599 1.59995 1251646106
-0.22657099 -0.056501701 0.91240799 1260955816
-0.80152798 0.234771 1.59865 1249705212
-0.469587 -0.50973099 2.30123 1250988176
-0.456752 -0.437327 2.2810199 1253356724
-0.51149398 -0.29076299 1.68093 1251909278
-0.35079899 -0.42190999 2.5537 1255856858
-0.63666803 0.168387 1.7068501 1249442040
-0.69439501 0.156799 1.6756901 1238421712
-0.43422699 -0.39272499 2.30549 1251909278
-0.36303601 -0.36092201 2.4019499 1247863008
-0.196165 0.083655603 0.753452 1250067074
-0.33679801 -0.404838 2.54426 1260166300
-0.50366902 -0.283503 1.6734 1257172718
-0.103763 0.067807503 0.79968399 1251646106
-0.32075 0.051099401 0.82859099 1249705212
-0.68921 -0.141582 1.4166501 1249935488
-0.26162401 0.0152753 0.80036598 1263192778
-0.239254 0.0141836 0.80046397 1263784915
-0.27156201 -0.040498801 0.89508897 1262140090
-0.62347698 -0.094421297 1.49264 1247599836
-0.26815799 0.185945 1.04624 1252172450
-0.13386901 0.068587802 0.79807699 1253751482
-0.130992 -0.073911898 0.94934499 1263653329
-0.123488 0.045670599 0.82742101 1259903128
0.000209406 0.27026999 1.54725 1251382934
0.175171 -0.32350999 2.56231 1253883068
-0.46423101 -0.24882901 1.77558 1253883068
-0.353834 -0.32708201 2.55637 1251382934
-0.41077301 -0.42972001 2.30705 1253488310
-0.59455401 -0.48977599 1.68858 1248126180
-0.0041809198 0.059545498 0.79063803 1257041132
-0.23029 -0.0219955 0.859523 1261679539
-0.0495077 0.062582299 0.80046099 1257567476
-0.108468 -0.017715201 0.85165298 1261811125
-0.35323501 -0.42253599 2.56299 1256383202
-0.14902399 -0.032839 0.88274199 1260100507
-0.22274099 -0.38177201 2.5533199 1261745332
-0.25935799 -0.059235901 0.91930699 1263455950
-0.275482 -0.115398 1.01176 1254672584
-0.44708401 -0.214792 1.78345 1253488310
0.14811499 -0.072672799 1.02334 1255593686
-0.286654 0.27424601 1.55173 1257435890
-0.59821099 -0.41908601 1.57331 1247599836
-0.53765702 -0.44155601 1.6813999 1243915428
-0.53091198 -0.174931 1.61935 1252961966
-0.546157 -0.388742 1.6026599 1247336664
-0.463828 -0.55810499 2.37304 1254540998
0.107065 -0.20514899 1.0018899 1256120030
0.164517 -0.191967 0.969127 1258455682
-0.65223402 -0.37870499 1.62141 1244968116
-0.65730703 -0.375411 1.6127 1241546880
-0.42521599 -0.53917497 2.36256 1253225138
0.16882899 -0.18495999 0.959351 1253488310
-0.062440701 0.217619 1.65048 1257435890
0.088375904 -0.190254 0.97434002 1255330514
-0.466252 -0.418468 1.87924 1250593418
0.168054 -0.179864 0.956599 1253488310
0.138642 -0.18596999 0.98164397 1261547953
-0.664056 -0.340691 1.5169899 1246020804
-0.55021399 -0.34628701 1.56455 1243652256
-0.512209 -0.37776601 1.7119499 1244441772
-0.47419399 -0.50707799 2.31215 1251251348
-0.392005 -0.504848 2.3465099 1254146240
0.093431398 -0.174935 0.951783 1259376784
0.153708 -0.16966701 0.94816601 1259574163
-0.70372403 -0.336018 1.53949 1243125912
-0.433902 -0.49100301 2.30318 1253356724
-0.155182 -0.36421701 2.56828 1262271676
-0.50115299 -0.37859699 1.78275 1252698794
-0.51988 -0.25280201 1.6661299 1252040864
0.117753 -0.144851 0.98339599 1259310991
-0.72741097 -0.319978 1.52678 1236842680
-0.28137699 0.235322 1.1196899 1253751482
-0.36525601 -0.483015 2.5130701 1256383202
-0.406178 -0.43834099 2.3011601 1252304036
-0.33739099 -0.32296601 2.5410199 1260626851
-0.65938699 -0.29006001 1.5274301 1245757632
0.116748 -0.14768399 0.97408402 1259245198
0.135004 -0.14311101 0.96376503 1251909278
-0.463361 -0.31185201 1.72189 1254540998
-0.35000801 -0.46013999 2.52386 1258389889
0.151408 -0.143179 0.97245401 1255988444
-0.134673 -0.101754 0.99612999 1263521743
-0.33576301 -0.40937999 2.5645499 1260495265
-0.418331 -0.40814 2.2895601 1248389352
-0.47957799 -0.40731099 2.2824099 1250856590
0.14584599 0.14435799 1.00431 1251382934
-0.449817 -0.315494 1.8128099 1252961966
-0.5104 -0.29009899 1.6781501 1252304036
-0.408741 -0.31307399 2.2449501 1252304036
-0.26695099 0.29566199 1.49712 1256777960
-0.35077301 -0.42050001 2.5504301 1256383202
-0.275419 0.16529299 0.98582 1254409412
-0.52584898 -0.21071699 1.6386 1252567208
-0.64558399 0.27263901 1.40061 1251514520
-0.053710598 -0.00271661 0.89635301 1258093820
-0.110855 -0.397892 2.52665 1261547953
0.156637 0.158406 1.00841 1251646106
-0.48557499 -0.199218 1.64016 1253093552
-0.51676798 0.29164901 1.50488 1257435890
-0.258057 -0.0086949402 0.83331001 1262863813
-0.238038 -0.0092903301 0.83938098 1263455950
-0.265475 0.148798 0.979653 1254146240
-0.18329699 0.046317499 0.82308698 1258850440
-0.26459599 0.138744 0.959584 1253225138
-0.251335 -0.110702 1.00213 1261350574
-0.74542803 -0.206965 1.42889 1249178868
-0.196641 -0.014758 0.84771502 1262469055
-0.26531899 0.047664098 0.81751198 1257962234
-0.150398 -0.016544901 0.85004097 1260363679
-0.26765001 -0.015972801 0.847619 1261284781
-0.27318001 -0.085555904 0.96638799 1262469055
-0.108882 -0.080095798 0.961308 1264771810
-0.074214198 -0.079921201 0.96217901 1259837335
-0.652188 -0.217409 1.58674 1247599836
-0.26989901 -0.0438083 0.89517301 1260626851
-0.223253 -0.0154944 0.84787399 1262074297
-0.26079401 -0.104779 0.98932499 1261482160
-0.116455 -0.100431 0.99251902 1264048087
-0.12696099 0.068117499 0.79842401 1252567208
-0.218879 -0.064575002 0.93255001 1260100507
-0.261363 -0.063180298 0.92574698 1263653329
-0.079539001 0.067561299 0.80065 1253225138
0.115419 -0.14560001 0.97627902 1260232093
0.136371 0.185504 1.11905 1247863008
-0.191259 -0.060350802 0.92796201 1260363679
-0.16771001 0.046259802 0.82484102 1259047819
-0.50436401 -0.41969401 1.7312599 1250461832
-0.53693998 -0.36823401 1.52742 1250198660
-0.25458801 0.206229 1.10815 1253751482
-0.48307699 -0.24293301 1.6971101 1252698794
-0.34046 -0.31902099 2.4066999 1251777692
-0.33134899 -0.048411399 0.99973798 1254540998
-0.15327799 -0.0159226 0.85389501 1260692644
-0.151078 0.084601603 0.80352902 1251777692
-0.425892 -0.53856301 2.33461 1256120030
-0.328973 -0.0192571 0.955365 1254804170
0.0876619 -0.182423 0.96297002 1258587268
-0.41456199 -0.531286 2.3308201 1255856858
-0.56351602 -0.28726 1.6141 1246020804
0.117776 -0.20414899 0.98480302 1259047819
0.120436 -0.106228 0.99435103 1250330246
-0.48965701 -0.47298601 2.2989199 1252567208
-0.129109 -0.0480332 0.90734899 1261284781
-0.54158801 -0.44644201 2.2220299 1245494460
-0.40803799 -0.342464 1.68125 1255462100
-0.457708 -0.32225201 1.61149 1254935756
-0.109152 -0.028405201 0.87500399 1260363679
-0.38060799 -0.49897099 2.46892 1258389889
-0.480459 -0.40987599 1.87858 1257172718
-0.71466798 -0.31112 1.53741 1246283976
-0.43857601 -0.473937 2.28597 1254146240
-0.52855402 -0.46565101 2.3124199 1252830380
-0.66853601 -0.103003 1.5002 1255330514
-0.65892899 -0.28679001 1.50779 1246283976
-0.51063198 -0.345065 1.7433 1255725272
-0.199132 -0.015229 0.84707099 1261745332
-0.107133 -0.40616399 2.53391 1261350574
-0.231391 -0.40392399 2.5299301 1262074297
-0.32813099 -0.40507701 2.52192 1260232093
0.0054076901 -0.38411501 2.52035 1260561058
-0.57266003 -0.29101101 1.5847501 1249442040
-0.44441 -0.31099299 1.7904201 1253356724
-0.47918499 -0.370083 2.2335701 1249442040
-0.492035 -0.40527001 2.2512901 1252830380
0.094105899 -0.166243 0.996481 1247336664
-0.51115501 -0.29145899 1.66962 1251119762
-0.51656598 -0.29528299 1.6962 1252435622
-0.368007 -0.37531099 2.3765299 1253356724
-0.51511198 -0.291417 1.6956 1254014654
-0.48381799 -0.35841799 2.2307899 1249178868
-0.225301 -0.38036701 2.5256801 1260824230
-0.397661 -0.352842 2.2549701 1254014654
0.117057 -0.15677001 0.97495598 1260626851
0.13391601 -0.353957 2.5678301 1258916233
-0.36532599 -0.34818801 2.28757 1250067074
0.134848 -0.152463 0.95961499 1249705212
-0.39302999 -0.35018799 2.2386 1253619896
-0.65517199 -0.280467 1.6064301 1248389352
-0.43967199 -0.347377 2.2574301 1247863008
-0.35461399 -0.358345 2.3891301 1252304036
-0.51488501 -0.276335 1.67295 1251646106
-0.15618099 -0.35507199 2.52333 1261613746
0.024051899 -0.336541 2.5571599 1255593686
-0.54996097 -0.251699 1.52397 1249705212
0.113814 -0.149086 0.985789 1260034714
-0.53892303 -0.25421301 1.57171 1242336396
-0.54356098 -0.25395301 1.57699 1242073224
-0.390957 -0.31855899 2.23682 1245494460
0.0114442 -0.32278201 2.5123799 1257304304
-0.580796 -0.246438 1.5289201 1243125912
-0.48364499 -0.25145 1.69797 1252172450
-0.47052401 -0.25876099 1.77584 1253751482
0.13855 0.0626278 0.800758 1251382934
-0.69614899 -0.18291201 1.43987 1247336664
-0.52247 -0.24598899 1.6574399 1249442040
-0.46315601 -0.30258 2.2488599 1244968116
-0.39242399 -0.475346 2.3072 1253093552
-0.53206998 -0.47201601 2.3484299 1253488310
-0.32904601 -0.31236699 2.51862 1258521475
0.110728 -0.182046 0.984124 1259705749
-0.58825302 -0.225776 1.50476 1244441772
-0.32154399 -0.30359399 2.51071 1256514788
-0.397636 -0.28194001 2.2505 1247336664
-0.34795499 -0.296426 2.4372001 1241810052
-0.53806102 -0.223058 1.55581 1243652256
-0.52443802 -0.22218101 1.64647 1250198660
-0.39433399 -0.264063 2.2800801 1242336396
0.150359 -0.118198 0.99227601 1247599836
-0.58957201 -0.20343199 1.5107599 1243915428
0.148377 -0.117365 0.988666 1249935488
-0.60556197 -0.201289 1.48485 1243652256
-0.48773101 -0.20442601 1.68033 1250330246
-0.621005 -0.197047 1.4876 1244178600
0.110746 -0.120287 1.10272 1249705212
-0.69399101 -0.14352 1.43602 1252698794
-0.099442899 -0.1234 1.02496 1258784647
-0.37364799 -0.21353599 2.23019 1250198660
-0.510903 -0.273514 1.66046 1250856590
-0.52449 -0.25266099 1.54818 1242336396
0.197295 -0.105974 1.07902 1250198660
-0.66035497 -0.226963 1.48567 1244441772
-0.434964 -0.36790001 2.25559 1250725004
-0.350034 -0.416989 2.5325601 1255198928
-0.36090499 -0.38029999 2.3208799 1251777692
-0.53452098 -0.160061 1.5950201 1248915696
-0.48953599 -0.357995 2.2499199 1247599836
0.127049 -0.089611001 0.997823 1249178868
-0.60444999 -0.149405 1.45867 1242336396
-0.58732998 -0.224473 1.48799 1242862740
-0.32692301 -0.40413001 2.5239699 1260626851
0.150039 -0.082150497 1.01784 1256909546
-0.435826 -0.34998801 2.24984 1249442040
-0.36709899 -0.37109399 2.3537199 1251382934
0.203758 -0.075075597 1.0281 1252040864
-0.52328497 -0.134508 1.58548 1252172450
0.1662 -0.0766076 1.02768 1254014654
-0.075410999 -0.088834703 0.97529101 1259376784
-0.52648199 -0.13237 1.58552 1253356724
-0.31149501 -0.104133 1.06709 1254804170
-0.236201 -0.096680403 0.984097 1263324364
-0.77349102 -0.142911 1.55766 1258225406
0.14833599 -0.072609499 1.02205 1255330514
-0.274001 -0.095490798 0.98131698 1261153195
0.10588 -0.073842101 1.0264699 1253356724
0.0911856 -0.181757 0.96417499 1260034714
-0.66685498 -0.12207 1.51387 1250198660
-0.078831904 -0.075367197 0.94944102 1261613746
-0.43784899 -0.26316699 1.8228199 1252172450
-0.244039 -0.084707901 0.96329701 1264574431
-0.57726997 -0.109649 1.47674 1247599836
-0.156507 -0.43227801 2.61373 1262205883
-0.157544 -0.400065 2.4950199 1261811125
-0.19368801 -0.307814 2.5375099 1259310991
-0.36247399 -0.257664 2.3980999 1246810320
-0.130243 -0.073896997 0.95088202 1260626851
-0.26886299 0.070881799 0.79001999 1254804170
-0.234487 0.070666797 0.79287499 1251909278
-0.160147 0.0690623 0.79700899 1252435622
-0.156709 0.068737 0.79716498 1250593418
-0.21874499 -0.0469913 0.89839798 1259771542
-0.175413 0.046259001 0.82429898 1258982026
-0.166934 0.0463164 0.82519197 1258455682
-0.15057801 0.046225902 0.82598698 1258784647
-0.133513 0.046259299 0.82728797 1258916233
-0.080556698 0.0440467 0.830441 1260429472
-0.13736901 -0.0155189 0.86134601 1263390157
-0.20950399 0.011922 0.80011201 1262929606
-0.137251 0.0144015 0.804654 1260495265
-0.244783 -0.0091304705 0.83866799 1262995399
-0.103381 0.0113238 0.80841202 1260758437
-0.76762801 -0.086240798 1.54913 1256777960
-0.51103503 -0.45388499 1.86055 1257962234
-0.60874403 -0.076217704 1.51657 1249705212
-0.56405097 -0.54700702 2.3571501 1256514788
-0.263248 -0.060775001 0.92241699 1262534848
-0.54508102 -0.55452001 2.41131 1242599568
-0.70542902 -0.14701299 1.44487 1247073492
-0.506387 -0.413946 1.73404 1252040864
-0.46416 -0.52958202 2.34535 1250330246
-0.270823 -0.055127099 0.91398501 1260626851
-0.39378399 -0.52721298 2.3804801 1259705749
-0.49303299 -0.42947099 1.84472 1257830648
-0.271254 -0.052111201 0.91112202 1259771542
-0.50532699 -0.39696899 1.7033 1249442040
-0.153237 -0.040878899 0.89414901 1258718854
-0.23214699 -0.0441227 0.897609 1260561058
0.143813 -0.19815899 0.97271901 1261942711
-0.15250701 -0.039058901 0.89292097 1260297886
-0.52763498 -0.50674701 2.3882201 1245494460
-0.165537 -0.038115401 0.89006698 1260232093
-0.21369 -0.039614901 0.89205998 1261021609
-0.39155501 -0.47548899 2.3055501 1252961966
-0.49468899 -0.421639 1.7718101 1257172718
-0.61217898 -0.025004501 1.53352 1252040864
-0.26161501 -0.035668701 0.88121498 1262205883
-0.39437601 -0.47093099 2.3069699 1252830380
-0.43898001 -0.466245 2.26858 1256120030
-0.617823 -0.362468 1.6161799 1247599836
0.142557 -0.190843 0.989591 1261218988
-0.36291701 -0.482604 2.5144501 1257830648
-0.19504599 -0.0270337 0.87094301 1260100507
-0.1805 -0.024656899 0.86716402 1260363679
0.162154 -0.17428599 0.950046 1255988444
-0.39068201 -0.43107799 2.2807801 1257041132
-0.053099699 -0.00384427 0.90335703 1257699062
0.094788097 -0.179233 0.96163702 1259574163
-0.34946299 -0.46114501 2.5263801 1258850440
-0.230417 -0.0145081 0.84627599 1263061192
0.140719 -0.40636501 2.52196 1261284781
-0.53470498 -0.32224101 1.6222 1249442040
-0.415571 -0.40935799 2.2890301 1251251348
-0.049886201 0.0132441 0.86974299 1256383202
-0.160734 -0.43114501 2.6082101 1262403262
-0.51192099 -0.32838601 1.71787 1254540998
-0.223699 -0.43281701 2.6234801 1261876918
-0.082300901 -0.39381701 2.43432 1262732227
0.0025311899 -0.39507499 2.49277 1262403262
-0.41976699 -0.39838299 2.2801499 1252698794
-0.252224 0.0143356 0.79961699 1262732227
-0.123391 -0.40199399 2.5060699 1260495265
-0.106141 -0.404607 2.5348899 1261942711
-0.51644701 -0.305278 1.60212 1250725004
-0.48445401 -0.31834799 1.72396 1256646374
0.071664602 -0.38333699 2.52999 1261942711
-0.66975701 0.147471 1.6736799 1233684616
-0.233438 -0.39860001 2.49493 1262534848
-0.52670598 -0.32085299 1.7807699 1255856858
-0.33317199 -0.40340999 2.5234201 1259705749
-0.32657501 -0.40390301 2.5313001 1260297886
0.113683 -0.158724 0.977943 1261350574
-0.63838702 0.17137501 1.70579 1250593418
0.150537 -0.152143 0.96622902 1256251616
-0.36726299 -0.375393 2.37009 1253619896
0.11626 -0.155646 0.97601402 1261153195
0.141396 -0.15200201 0.96414101 1251382934
-0.221991 -0.38115901 2.52507 1261613746
-0.403281 -0.356929 2.2541499 1254409412
-0.39970201 -0.35365099 2.25687 1252567208
-0.146029 -0.36554599 2.5264599 1261350574
-0.51257002 -0.291307 1.6851 1254409412
-0.32661301 -0.375305 2.5274899 1259047819
0.074752703 -0.336907 2.5534699 1258521475
0.0256774 -0.33573899 2.55685 1256120030
-0.19351301 -0.34848601 2.52282 1261679539
-0.037272401 -0.333727 2.5258999 1261942711
0.096801199 -0.149367 1.00951 1252435622
-0.57354403 -0.26675999 1.56996 1245757632
-0.43111199 -0.28158399 1.81077 1252698794
-0.54864198 -0.261924 1.57559 1248389352
-0.347157 -0.34708399 2.5109401 1253619896
-0.453989 -0.326913 2.2587399 1242599568
-0.645805 0.229748 1.59872 1252961966
-0.452086 -0.325124 2.2590599 1248915696
0.0084567498 -0.31283399 2.5078199 1258455682
0.59806901 -0.202189 1.9452699 1247863008
-0.54056299 -0.25680199 1.56546 1244968116
-0.54098302 -0.25529799 1.56142 1243915428
-0.39914799 -0.31329799 2.22135 1248126180
-0.054917499 -0.30664301 2.50442 1258916233
-0.071760803 -0.30635399 2.5058701 1258587268
-0.63589299 -0.250835 1.51389 1248389352
-0.175815 -0.31116599 2.5599101 1259113612
-0.192867 -0.309396 2.5464599 1259771542
-0.483836 -0.25075799 1.70249 1253488310
-0.33606899 -0.31455401 2.51267 1258093820
-0.33327001 -0.31379801 2.5072701 1259047819
-0.49816599 -0.24201199 1.63562 1255330514
-0.25003901 -0.30258799 2.5032101 1258389889
0.113973 -0.125928 0.98512101 1258587268
-0.90379298 0.26238599 1.57789 1248915696
-0.207606 0.28310499 1.51008 1257041132
-0.39478999 -0.25542501 2.2409301 1244441772
-0.361819 -0.26174599 2.4291899 1241546880
0.11359 -0.119835 1.08061 1250725004
0.103813 -0.119399 1.08345 1250725004
0.15430599 -0.072412498 1.02627 1253356724
-0.44567299 -0.214362 1.77025 1252698794
0.094097801 -0.119761 1.09763 1251119762
-0.12525 0.0071051898 0.80080998 1262534848
-0.119221 0.0067357598 0.80065298 1263126985
-0.14609601 0.00887339 0.80078799 1262929606
-0.231131 0.0133614 0.79966903 1263982294
-0.079079799 0.043776501 0.82819402 1260232093
-0.123223 0.068425 0.79845399 1255330514
-0.0084544001 0.065225102 0.800771 1253225138
-0.016747801 0.066342399 0.80326498 1254146240
-0.026411699 0.066207297 0.80305099 1252040864
-0.089203604 0.067620903 0.80012101 1252698794
-0.082978196 0.067448102 0.80075502 1252961966
-0.041815199 0.0668111 0.801974 1253751482
-0.046592001 0.066127501 0.79891402 1253488310
-0.099091902 -0.123695 1.02845 1258718854
-0.43376201 -0.226197 2.22471 1249705212
-0.59224302 -0.199229 1.59043 1244441772
-0.32175699 -0.216893 2.34235 1250198660
0.13761 0.32660601 1.1334701 1248126180
0.20813499 -0.095934898 1.07789 1251382934
-0.49105799 -0.18787999 1.6437401 1252698794
0.034931 0.415885 1.3459001 1249935488
-0.45393199 -0.186626 1.69899 1251646106
0.13854 0.342576 1.1351 1246810320
-0.15118 -0.121902 1.02843 1260561058
0.024220699 0.065241098 0.80263799 1253356724
-0.57078201 -0.18186399 1.4739799 1249178868
-0.50590903 -0.41504601 1.72236 1251119762
0.121593 -0.096774898 1.01166 1255725272
-0.51444298 -0.397728 1.73274 1247863008
-0.17163301 -0.121197 1.0214 1260495265
-0.076811902 -0.111599 1.00753 1258784647
-0.20464601 -0.121483 1.02546 1260561058
-0.21077199 -0.12123 1.0237 1260626851
-0.61045498 -0.176631 1.49007 1248915696
-0.49642 -0.17366999 1.63429 1251119762
-0.39209199 -0.50816602 2.3373899 1254409412
-0.119932 -0.109179 1.0075001 1262929606
-0.49620599 -0.41641599 1.85648 1256777960
0.145702 -0.084907703 1.00885 1257962234
-0.22976799 -0.023298601 0.86475998 1261811125
0.20555399 -0.075086698 1.03238 1252961966
0.144517 -0.19882099 0.97334099 1261811125
-0.44673201 -0.154331 1.70892 1250988176
-0.25011301 -0.112128 1.00367 1259968921
-0.076103501 -0.094322003 0.98313898 1260232093
-0.113536 -0.094287001 0.98457098 1263192778
-0.60493898 -0.14974099 1.45771 1249178868
0.145372 -0.072153501 1.02026 1254804170
-0.289812 -0.109869 1.06911 1250330246
0.106007 -0.073565803 1.0238 1252172450
0.14006101 -0.354146 2.55281 1255067342
-0.11097 -0.089209698 0.97650701 1262732227
0.143167 -0.32597801 2.49418 1254146240
-0.12796099 -0.121885 1.0265599 1260955816
-0.28694901 0.082879797 0.79075801 1253751482
-0.71164101 -0.14826401 1.43922 1250988176
-0.185883 -0.091789097 0.977539 1262798020
-0.109207 -0.084951699 0.96895403 1263390157
0.13568699 -0.408463 2.53827 1261613746
0.15791801 -0.38550001 2.53862 1262205883
0.070820302 -0.38334501 2.5283899 1262534848
-0.209939 -0.39891601 2.4907899 1261811125
-0.229111 -0.400722 2.5035701 1262074297
-0.26311499 -0.39397001 2.45488 1262074297
-0.29147401 -0.396676 2.4674599 1262337469
0.053991999 -0.337677 2.5585101 1258982026
-0.237627 -0.330158 2.5118501 1261087402
-0.0548421 -0.30803001 2.51511 1259639956
-0.29095399 -0.331617 2.52755 1261416367
-0.100901 -0.30699801 2.51384 1259968921
-0.12787899 -0.30465999 2.4999599 1259442577
-0.20714401 -0.30564699 2.5227599 1258982026
-0.27416399 -0.304001 2.51125 1258916233
-0.30529401 -0.30348301 2.51126 1258389889
0.105314 -0.119531 1.08201 1248389352
0.089503802 -0.11935 1.08767 1249442040
0.0285511 -0.11715 1.09416 1254935756
-0.149811 -0.122391 1.03386 1260495265
-0.172295 -0.121566 1.02507 1260824230
-0.19959 -0.121742 1.0259399 1260495265
-0.21967 0.078969002 0.77372497 1252435622
-0.227782 -0.120566 1.02494 1260166300
0.204055 -0.0296501 0.938905 1253883068
-0.26190299 0.066961803 0.77342999 1255198928
-0.251194 0.067975298 0.779993 1251514520
-0.244155 0.0678313 0.78001499 1251382934
-0.225445 0.069265097 0.78865898 1251251348
-0.211338 0.070363 0.79439098 1252698794
-0.198788 0.070004299 0.79517901 1252567208
-0.218963 0.064586997 0.785474 1255462100
-0.19151101 0.069880001 0.79530603 1253488310
-0.189501 0.069713399 0.79576999 1252040864
-0.206779 0.0653845 0.78895003 1254146240
-0.17221799 0.0693307 0.79629999 1253225138
-0.159504 0.068969503 0.79710501 1252567208
-0.144108 0.068879798 0.79769999 1253883068
-0.1178 0.068046398 0.798554 1252961966
-0.12666699 -0.120091 1.02428 1262929606
-0.13640399 0.0648809 0.79700899 1254409412
-0.11093 0.068057902 0.79960603 1253488310
-0.248235 -0.077623799 0.95370299 1263192778
-0.22918899 -0.072469696 0.94771099 1259639956
-0.25453499 0.047292799 0.819462 1258455682
0.0062571201 0.0732449 0.79960299 1255198928
-0.063198797 0.063695103 0.79951 1255593686
-0.234873 0.046667699 0.82062101 1258093820
-0.23074999 0.046514399 0.82009 1258982026
-0.179525 -0.047357801 0.90620202 1261021609
-0.39653099 -0.45929 2.303 1253225138
-0.44322401 -0.45632499 2.26754 1254277826
-0.49713099 -0.369266 1.7563699 1255988444
-0.387438 -0.43333 2.2713699 1257304304
0.0110013 -0.42306799 2.55287 1261284781
0.14045601 -0.173278 0.98574197 1262534848
-0.34402499 -0.45375001 2.5346701 1260034714
-0.222147 -0.0146543 0.84781402 1260100507
-0.502823 -0.34637901 1.74014 1257962234
-0.41599199 -0.40894499 2.2888 1250461832
-0.50655103 -0.33465901 1.71557 1254409412
0.0115306 -0.402744 2.5569401 1259837335
-0.104207 -0.40332401 2.53247 1261350574
-0.109437 -0.399995 2.53174 1261482160
-0.35089999 -0.41724601 2.53545 1256909546
0.151714 -0.15442 0.962053 1255330514
-0.429223 -0.384314 2.2690699 1251382934
-0.120614 -0.387319 2.52671 1261416367
-0.090130098 0.011267 0.80943 1262337469
-0.00593276 -0.37213701 2.52758 1262732227
0.137201 -0.35621601 2.575 1258718854
-0.218413 -0.37386 2.5197001 1261021609
-0.438757 -0.30687001 1.81271 1254277826
-0.068110503 0.0099815903 0.80849999 1259245198
-0.40220499 -0.33346999 2.2386999 1251646106
-0.186413 -0.33912399 2.52232 1261482160
-0.511675 -0.27573699 1.65862 1251646106
-0.44937101 -0.332472 2.2609 1246810320
-0.397569 -0.31618899 2.23454 1248652524
-0.086418703 0.0127914 0.805426 1262929606
-0.341445 -0.32317999 2.4284301 1251382934
-0.42855701 -0.26667601 1.8099999 1252304036
-0.40202501 -0.30420601 2.2244301 1250461832
0.157763 -0.126591 0.98815298 1241053432
-0.458814 -0.31079 2.2490799 1242862740
-0.343546 -0.31900799 2.4764299 1250593418
-0.52025098 -0.25543699 1.6963201 1252172450
-0.72216803 0.057740599 1.5131201 1254146240
-0.482759 -0.250388 1.6965899 1252698794
-0.39813501 -0.28218299 2.2578499 1244704944
0.14793099 -0.117487 0.98740101 1248389352
0.129638 -0.115831 0.97676402 1246283976
0.097641602 -0.122184 1.02228 1249178868
-0.39464501 -0.26192299 2.2805901 1241546880
-0.53554398 -0.218142 1.54186 1243125912
-0.354361 -0.264433 2.44312 1244968116
-0.25402099 0.0143752 0.79975098 1262600641
-0.268244 0.163417 1.09394 1254014654
-0.26389199 0.27507201 1.54353 1255988444
-0.492313 -0.21508799 1.64255 1253883068
0.156523 0.14384 0.98011303 1247073492
0.135986 0.0504907 0.76928598 1256909546
-0.32404599 0.0259923 0.87536103 1255330514
-0.52525699 -0.207542 1.63432 1252698794
-0.851937 0.29078901 1.55418 1248652524
0.118028 -0.0984772 1.01114 1260232093
-0.43250701 -0.215267 2.21384 1245231288
-0.61434102 -0.19561601 1.51087 1243915428
0.153887 0.177926 1.04422 1247863008
-0.123041 -0.115961 1.0168 1262205883
-0.70207798 0.107985 1.53553 1249442040
-0.101845 0.044877701 0.82818598 1258324096
-0.098282501 0.0453371 0.82896501 1258324096
-0.545605 -0.17662001 1.68216 1251646106
-0.117537 -0.105197 1.00072 1262403262
-0.56370097 -0.16983099 1.50336 1248915696
0.072443403 0.059966099 0.80375803 1256120030
-0.130171 0.045968901 0.82691002 1258784647
-0.135094 0.046091702 0.82700503 1259310991
-0.075677998 -0.094850399 0.98453498 1258982026
0.10391 -0.076396197 1.03383 1254540998
-0.248961 -0.112636 1.00466 1260758437
-0.075487301 -0.093396403 0.98070198 1259376784
0.109143 -0.074253403 1.0280401 1252304036
-0.113572 -0.096332498 0.98738998 1262469055
-0.076405697 -0.092184797 0.981121 1260955816
0.133175 0.27759799 1.25792 1251514520
0.106466 -0.073069602 1.02589 1254146240
0.142546 0.301736 1.28405 1247599836
-0.25407499 -0.109731 1.00059 1260166300
-0.111668 -0.094025902 0.98281002 1262205883
0.055793598 0.063904397 0.80395198 1250988176
-0.60889 -0.152569 1.40256 1247599836
-0.075053699 -0.086536102 0.97039402 1258521475
-0.45858601 -0.14058299 1.67198 1251514520
-0.26219401 -0.105092 0.99104798 1260363679
-0.499805 0.365538 1.38607 1256514788
-0.26624799 0.0370747 0.80755198 1259837335
-0.77408201 -0.16273899 1.49095 1250725004
-0.30619901 -0.106055 1.06144 1249935488
-0.53654599 -0.13606501 1.58887 1251382934
-0.52377898 -0.13461401 1.58251 1252304036
-0.721802 -0.15239701 1.4355299 1248915696
-0.309874 -0.104293 1.06024 1251909278
-0.220291 0.046839301 0.82230598 1258455682
-0.54051501 -0.133121 1.59171 1250330246
-0.27232301 -0.098862901 0.98474997 1261153195
0.200471 -0.0475615 0.97005999 1256120030
-0.0307843 0.062700197 0.80248302 1257041132
-0.314412 -0.101874 1.05225 1251251348
-0.60204399 -0.13236199 1.42453 1244441772
-0.69208002 -0.14122701 1.4536901 1248389352
-0.106406 -0.075521 0.95355898 1262074297
-0.093519904 -0.072201401 0.94755298 1261811125
0.201389 -0.038807999 0.952151 1254277826
-0.12820201 -0.074069001 0.94867998 1261482160
-0.073669001 -0.066881903 0.94188601 1259245198
-0.137154 -0.073133402 0.949956 1261679539
-0.32615301 -0.090497203 1.03854 1254409412
-0.0365992 0.066408403 0.80203098 1252172450
-0.66111898 -0.122214 1.49376 1248652524
-0.152181 -0.071647704 0.94428903 1260561058
-0.566136 -0.111045 1.46638 1244968116
-0.26978201 -0.083099402 0.95868999 1262534848
0.201717 -0.031088101 0.93708497 1254146240
-0.1185 -0.063062303 0.93396598 1261350574
-0.075603798 -0.015657401 0.930233 1257435890
0.201653 -0.0249006 0.92482901 1253619896
0.044973299 0.0797901 0.81181699 1248126180
-0.223435 -0.070131101 0.93893802 1258389889
-0.122835 -0.058712199 0.92607701 1260429472
0.0145261 0.079312697 0.807253 1248915696
-0.554528 -0.086806796 1.59413 1251382934
-0.12662099 0.0650369 0.796637 1252698794
-0.093355604 -0.0514425 0.91449201 1258093820
-0.56098098 -0.081956796 1.58898 1248915696
-0.31141999 0.0516105 0.808981 1258093820
-0.262584 -0.0654094 0.92957401 1262205883
-0.149271 -0.052683 0.91633397 1262008504
-0.606022 -0.0830606 1.4734499 1251119762
-0.11914 -0.048987899 0.90900803 1258093820
-0.090197802 -0.0448073 0.90230399 1258916233
0.201809 -0.0124455 0.90047002 1253883068
-0.1277 -0.0480939 0.90963799 1260297886
-0.60247898 -0.077898301 1.48882 1250067074
-0.233234 -0.058756899 0.92157298 1259771542
-0.224595 -0.057961099 0.91731501 1259376784
-0.64940298 -0.0783666 1.47649 1254540998
-0.331633 -0.062063199 1.01326 1251777692
-0.25855601 -0.0580336 0.91868401 1262863813
-0.263087 -0.057392702 0.91711801 1263258571
0.146513 0.14519601 1.00576 1250988176
-0.58496898 -0.0629953 1.49405 1251909278
-0.114001 -0.038811401 0.89425403 1259771542
-0.20386 -0.047816601 0.90325499 1259442577
-0.181468 0.069538198 0.796368 1251777692
-0.15247899 -0.040724698 0.89445603 1260495265
-0.172316 -0.0395086 0.89223897 1259705749
-0.130859 -0.035084002 0.88820201 1260561058
-0.25512499 -0.047715701 0.900922 1263850708
-0.098475903 -0.0307844 0.87933201 1259771542
-0.331438 -0.049311701 0.99766302 1251909278
-0.231994 -0.044142101 0.897255 1259903128
-0.055950601 -0.0210525 0.920982 1257567476
-0.703237 -0.055486199 1.52036 1254804170
-0.106558 -0.028369499 0.87634099 1259113612
-0.68708098 -0.052966699 1.4502701 1252698794
-0.25414801 -0.041221902 0.88960499 1262929606
-0.21297599 -0.0358232 0.88341099 1260890023
-0.118663 -0.0255113 0.87005198 1259508370
-0.331368 -0.0388376 0.98465002 1250461832
-0.196481 -0.030838899 0.87811798 1260626851
-0.22352199 0.0702729 0.79338199 1252040864
-0.62820703 -0.030178901 1.5276 1252961966
-0.231571 -0.033946902 0.88197303 1261153195
-0.117051 0.079484403 0.78805298 1249178868
-0.86417198 0.21714 1.63248 1238421712
-0.269714 -0.0347289 0.88268 1260692644
-0.10819 -0.0176253 0.85979903 1260626851
-0.255404 -0.032516502 0.87559599 1263982294
-0.21303999 -0.0244381 0.86646199 1262534848
-0.26943099 -0.028552299 0.87329 1260758437
-0.230423 -0.0221991 0.86275101 1261087402
-0.199808 -0.018850099 0.85508001 1259968921
-0.26915801 -0.023037899 0.86471802 1259376784
-0.110642 -0.0082423696 0.83031499 1263521743
-0.204422 -0.0152896 0.85089099 1261482160
-0.222161 -0.0141651 0.849033 1260890023
-0.618873 0.015386 1.47463 1250988176
-0.29670501 0.0775389 0.78609997 1252830380
-0.052163199 0.0130845 0.86595899 1254146240
-0.268448 -0.0125331 0.84668499 1259639956
-0.0498024 0.0240441 0.85405999 1255067342
-0.0487253 0.0258769 0.84968799 1255988444
-0.325804 0.00264844 0.90873498 1254277826
-0.068644799 0.0223784 0.81327498 1256514788
-0.66312701 0.053615902 1.50367 1250067074
0.14569201 0.230478 1.1422499 1247073492
-0.26645201 0.0070535899 0.812976 1260561058
-0.069395997 0.035804499 0.82323802 1258982026
-0.66890699 0.079510301 1.5337501 1252304036
-0.324442 0.0189579 0.88497102 1254146240
-0.62201798 0.123175 1.68549 1237369024
-0.80408001 0.261511 1.51923 1251119762
-0.32356399 0.024449799 0.87197 1253883068
-0.689246 0.104605 1.55047 1249705212
-0.89116699 0.289325 1.42906 1248915696
0.0195162 0.062659703 0.80353701 1253488310
0.068823598 0.068979897 0.79982698 1252830380
-0.67578 0.149762 1.6633 1238948056
-0.634826 0.16670001 1.70525 1243915428
0.0087553402 0.067327604 0.80356598 1256514788
-0.69937599 0.157455 1.64881 1242073224
-0.32200801 0.039592899 0.848409 1254409412
-0.266473 0.038189199 0.80857402 1260034714
-0.65245301 0.1769 1.68545 1249935488
-0.79545999 0.233632 1.5999 1250067074
-0.65403402 0.17788801 1.68511 1247073492
0.142327 0.179318 1.0699199 1250988176
0.153301 0.172314 1.03286 1248389352
-0.74230802 0.213222 1.62932 1246283976
-0.30549601 0.060456101 0.79944497 1255856858
-0.77290499 0.180121 1.4819 1241053432
0.14112601 0.199945 1.11133 1248652524
0.137483 0.203924 1.12217 1247599836
0.15115599 0.19581001 1.07809 1246810320
-0.76988798 0.17737301 1.44505 1237895368
-0.292555 0.065165497 0.78704798 1254014654
0.109824 0.30671701 1.51954 1252567208
0.124156 0.30183199 1.4939801 1251251348
-0.77275199 0.224007 1.6158299 1247863008
-0.77755398 0.226062 1.6123 1248389352
-0.078837201 0.067553803 0.80078101 1252830380
-0.0594019 0.067069501 0.80166298 1253619896
0.14980701 0.21528 1.11569 1245757632
-0.80296302 0.233513 1.60752 1246283976
-0.0128872 0.066179603 0.80340099 1253093552
-0.0093313297 0.065967001 0.803455 1252040864
-0.300789 0.0800597 0.79939997 1253883068
-0.89644599 0.263951 1.60361 1251119762
-0.76785201 0.24763 1.49555 1249442040
-0.25335199 0.239173 1.10839 1250067074
0.122948 0.31729701 1.4364901 1252698794
-0.442384 0.335208 1.43143 1256251616
-0.28422701 0.084249102 0.79377103 1252304036
-0.79492301 0.222111 1.49417 1247336664
-0.27411801 0.119209 0.90441799 1251777692
0.143558 0.37152001 1.3672301 1246283976
-0.19717 0.085564703 0.80176997 1251382934
0.038961999 0.070338897 0.80090803 1254146240
0.13990501 0.26960701 1.21689 1247336664
0.123032 0.29195201 1.1325999 1247599836
-0.86805803 0.25237101 1.5786099 1247599836
-0.152835 0.083329998 0.798792 1251119762
-0.20693199 0.308956 1.47539 1254935756
-0.876472 0.25559399 1.57736 1250856590
-0.80646902 0.26962399 1.51474 1250725004
-0.0124832 0.32951701 1.43966 1251514520
0.12644701 0.339645 1.37848 1251514520
-0.38848799 0.298861 1.48536 1254540998
-0.81792301 0.221829 1.4107 1249178868
-0.66433901 0.27454901 1.53025 1252830380
-0.25435901 0.199871 1.10526 1252040864
0.124412 0.39366701 1.3252 1249935488
0.17165799 0.075253896 0.81547499 1249442040
-0.254994 0.16426601 1.10252 1252172450
-0.41633701 0.30340901 1.47192 1254540998
-0.41710299 0.30273801 1.4705499 1254146240
0.12611701 0.348979 1.3900599 1246810320
-0.85775298 0.295789 1.56085 1241546880
-0.50380701 0.298141 1.4806499 1253619896
0.104411 0.382467 1.36282 1250988176
-0.213561 -0.0354544 0.88316602 1260034714
-0.21648601 0.328596 1.44011 1256251616
0.084151097 0.356383 1.40649 1253093552
-0.69333899 0.29643801 1.51949 1247599836
0.081345499 0.35949701 1.40724 1251909278
-0.180978 0.33668199 1.43751 1252567208
-0.178481 0.33478999 1.4275399 1252567208
-0.270385 -0.034123499 0.88157701 1260232093
0.158222 0.111573 0.91645002 1248652524
0.130188 0.364544 1.39048 1246020804
-0.54069102 0.291565 1.49007 1255198928
-0.26124799 -0.0304353 0.87254399 1262863813
0.137554 0.280929 1.13141 1247073492
-0.055706501 -0.0239018 0.94978601 1258455682
-0.21688101 -0.0231125 0.86336201 1262205883
-0.22993299 -0.023197901 0.86248797 1261087402
-0.25202599 0.33402801 1.4311 1254804170
-0.71290302 -0.00722849 1.57447 1252961966
-0.70679897 0.311344 1.5284801 1247599836
-0.0533292 -0.00122069 0.90054399 1255856858
-0.172699 -0.0156506 0.85040301 1260626851
-0.707537 0.312904 1.52999 1247599836
-0.67550999 0.311813 1.4508801 1251251348
0.124246 0.28808299 1.13764 1247336664
-0.44926199 0.32027301 1.44682 1255067342
-0.521182 0.31402701 1.45191 1254935756
-0.17754699 0.34632999 1.41666 1253488310
0.064355597 0.367899 1.3848 1252172450
-0.32426199 0.334941 1.43276 1252961966
-0.39548299 0.33060601 1.4439 1256383202
-0.0691633 0.303229 1.50458 1250593418
0.13764299 0.29370001 1.13167 1248652524
-0.110818 -0.0068250401 0.82767302 1263521743
-0.33274901 0.336018 1.42048 1253751482
-0.25484699 0.216995 1.10796 1250856590
-0.250487 0.34632599 1.41014 1256120030
-0.20848601 0.31164101 1.48484 1255462100
0.103213 0.38047999 1.36124 1250198660
-0.180838 0.30982801 1.46781 1255067342
0.15561 0.175258 1.04545 1248126180
-0.037563801 0.252747 1.5748 1252304036
0.102884 0.30149099 1.4926701 1252172450
0.0168436 0.30547199 1.47981 1248915696
-0.433494 0.32972199 1.4433399 1255988444
-0.29074401 0.272273 1.54189 1257304304
-0.43853199 0.340141 1.4141099 1254672584
0.0451653 0.308617 1.4698499 1250856590
-0.36697799 0.34789401 1.40672 1255198928
0.0904442 0.38761401 1.34551 1251119762
-0.23318399 0.32480499 1.44169 1256383202
-0.216986 0.361231 1.3808 1254672584
-0.32966101 0.35243201 1.38862 1253488310
-0.25712299 0.36309999 1.37762 1257041132
-0.499329 0.29483601 1.49014 1253883068
0.124403 0.32387 1.1375999 1246810320
-0.110066 0.33570001 1.48927 1250593418
-0.50446498 0.342985 1.4062999 1257699062
-0.182558 0.372298 1.36764 1254935756
0.124305 0.32562 1.13775 1248126180
0.0206377 0.31971201 1.45885 1252830380
0.137501 0.333855 1.1346101 1249442040
-0.38250601 0.345166 1.41064 1255330514
-0.33263901 0.36655301 1.37209 1254672584
0.116355 0.40716299 1.31288 1250330246
-0.18990199 0.384657 1.3463 1253356724
-0.36551601 -0.34860399 2.2880001 1249705212
-0.51038402 -0.29025301 1.67399 1252830380
-0.20110101 -0.356599 2.5148301 1261547953
-0.57717699 0.32865101 1.44239 1254540998
-0.34843999 -0.37092 2.52531 1256909546
0.115417 -0.144887 0.976125 1259442577
0.114757 -0.144486 0.97207898 1258718854
0.0273498 -0.33576 2.5681901 1255856858
0.15669 0.167899 1.03332 1248652524
-0.71117401 0.163247 1.63691 1237369024
-0.32133201 0.043373 0.84192997 1255067342
0.146598 0.12962601 0.976421 1251251348
0.164055 0.061520401 0.80602998 1250593418
-0.66981101 0.183449 1.67343 1244441772
-0.73101401 0.171324 1.6352 1235263648
0.136676 0.167354 1.11719 1245757632
0.153808 0.137943 0.96607602 1243915428
-0.74737799 0.177209 1.6168 1236316336
0.14577 0.15013599 1.0149699 1248915696
-0.76437902 0.18322299 1.62089 1238948056
-0.309724 0.055950101 0.80473799 1257304304
0.14308999 0.174688 1.06329 1251646106
0.137044 0.18857899 1.12028 1248389352
0.151115 0.166591 1.01973 1247073492
-0.79227102 0.193262 1.60268 1237369024
-0.64058101 0.21737801 1.62439 1251909278
-0.304194 0.057113901 0.798051 1257830648
-0.24642 0.38235301 1.3576601 1254277826
-0.082730301 0.38042301 1.35102 1252040864
0.018209901 0.37716201 1.36254 1251777692
0.14837299 0.104808 0.92515999 1250198660
-0.16071001 -0.069739699 0.943627 1262600641
0.0731714 0.239997 1.47721 1252435622
-0.217757 -0.063852698 0.93239701 1259771542
0.18113901 -0.080982797 1.0331 1254409412
0.148031 0.121822 0.96312797 1250067074
-0.076207802 -0.066245399 0.93906099 1260034714
-0.118932 0.083222099 0.80382502 1251251348
-0.17768601 0.28667101 1.50317 1253356724
-0.110816 -0.0634555 0.93500203 1261218988
-0.20663901 0.294231 1.50142 1255856858
-0.219796 -0.0575445 0.92216003 1260297886
0.14731 -0.072239302 1.01896 1254409412
-0.76925802 -0.0394742 1.49792 1253619896
-0.0577498 -0.062893301 0.99216998 1257962234
0.0341391 0.28639299 1.5123301 1251777692
-0.1849 -0.0549049 0.91573298 1260232093
0.137509 0.178835 1.12207 1248126180
-0.168045 -0.0542867 0.91721898 1260363679
0.144995 0.155035 1.02481 1249935488
-0.50845897 0.34159899 1.43283 1255198928
-0.254242 0.229798 1.11169 1250988176
-0.052882198 0.081922598 0.80679703 1252435622
0.127748 0.058139801 0.804353 1254935756
-0.62910402 -0.034731299 1.52627 1250725004
0.12157 0.058477201 0.80419701 1253751482
0.018333601 0.065306798 0.80312002 1251909278
0.14488301 0.057790801 0.80543 1253883068
0.17823499 0.055997699 0.807091 1254014654
0.0289084 0.065228999 0.80324501 1253751482
0.157768 0.057555798 0.80554301 1252830380
0.054827198 0.064277701 0.80388302 1251909278
0.068880104 0.063799404 0.80613297 1250988176
-0.89848202 0.26340801 1.57087 1251251348
0.078587703 0.063658603 0.80562901 1251514520
0.087607101 0.063143499 0.80592 1249178868
-0.280689 0.30833799 1.27606 1252435622
0.094588697 0.063350298 0.80640298 1250330246
-0.49779499 0.37416399 1.40039 1254540998
-0.062183 0.33072001 1.43776 1251909278
-0.28395301 0.087294601 0.80361098 1251382934
-0.91387498 0.26529801 1.55483 1249442040
-0.73357201 0.242328 1.49165 1250593418
-0.27364701 0.086773999 0.79788101 1252040864
0.54124898 -0.144143 1.8981 1234737304
-0.28202599 0.35680199 1.38761 1254014654
0.14973301 0.24998499 1.18919 1250067074
0.123997 0.236449 1.1313 1250067074
-0.45890099 0.380858 1.35273 1254935756
-0.185669 0.35809901 1.38916 1252830380
-0.459773 0.386024 1.3584 1255067342
-0.28178999 0.372906 1.39001 1252040864
-0.0635022 0.35095 1.40636 1249705212
0.147021 0.26039299 1.20214 1249705212
0.219954 0.333433 1.46411 1250461832
-0.257231 0.196576 1.11432 1251119762
-0.113172 -0.0029418101 0.82108098 1264311259
-0.52983099 0.40558699 1.34943 1254277826
0.031793602 0.35640699 1.40193 1247863008
-0.219311 0.37610099 1.35745 1254804170
-0.131631 0.35064101 1.30873 1251119762
0.038874902 0.35841599 1.39474 1248915696
-0.207032 0.38641101 1.37089 1254804170
-0.239748 0.38811001 1.35966 1253751482
0.136373 0.255077 1.10383 1251514520
-0.25713 0.39009401 1.33957 1255198928
-0.47406301 0.42685899 1.35553 1257435890
0.126252 0.359763 1.39292 1244968116
0.103761 0.36420399 1.39092 1253488310
-0.084454902 0.38371 1.35526 1251646106
-0.45574999 0.42618901 1.32576 1255988444
-0.338682 0.417638 1.3138 1256383202
-0.0184505 0.38481 1.3458 1250198660
-0.025516201 0.38892499 1.34307 1252040864
0.118694 0.37897 1.36248 1250988176
0.077616103 0.38940001 1.3420399 1250725004
-0.14560799 0.297144 1.49854 1252435622
-0.64601398 -0.111507 1.49971 1244441772
-0.27336499 -0.095781296 0.98372698 1262337469
0.0133768 0.0758316 0.80281103 1250198660
-0.0061618602 -0.116162 1.08122 1258521475
-0.14133 -0.101481 0.99280697 1263916501
0.053366501 -0.11777 1.07868 1259113612
0.056023899 -0.118361 1.08556 1258389889
0.15012901 -0.117072 0.98645401 1251382934
-0.650868 -0.106369 1.51557 1250725004
0.151227 -0.116648 0.98903602 1250198660
-0.78744501 -0.096858002 1.50335 1255462100
-0.076374501 -0.104174 1.00079 1260561058
-0.0144131 0.31129199 1.48593 1251514520
-0.113772 -0.098368302 0.985425 1263390157
-0.186364 -0.092414998 0.97702199 1264245466
-0.54258198 0.371584 1.37903 1257304304
-0.63496 -0.097464003 1.5111099 1250988176
-0.18185399 0.33501199 1.43555 1253488310
-0.17049 -0.092074201 0.97973502 1263061192
0.11195 -0.108417 0.98663199 1257435890
-0.159344 -0.085169002 0.96781701 1263587536
-0.0130861 0.325308 1.449 1251119762
