# .PCD v0.7 - Point Cloud Data file format
VERSION 0.7
FIELDS x y z rgb
SIZE 4 4 4 4
TYPE F F F U
COUNT 1 1 1 1
WIDTH 1131
HEIGHT 1
VIEWPOINT 0 0 0 1 0 0 0
POINTS 1131
DATA ascii
0.094861299 -0.31040999 2.3329 1266970720
0.0135617 -0.332872 2.60917 1267101793
-0.35306901 -0.319592 2.5455401 1245723701
0.13635799 -0.228478 2.29073 1244998943
-0.49894601 0.29468599 1.51411 1249276778
0.14090399 -0.116714 0.98461902 1244073997
0.151226 -0.221352 2.2855899 1245131052
0.28955901 -0.41311601 1.73739 1245462079
-0.537543 -0.150785 1.5869 1246310695
0.15653101 0.135528 0.96132702 1245069886
0.123773 0.168846 1.12305 1244346165
-0.27535599 -0.115334 1.0111001 1249786173
-0.076710902 -0.109041 1.00763 1267436912
1.01594 -0.26975399 3.04182 1226709781
1.0766799 -0.266498 3.0832701 1226379539
-0.195305 -0.102594 0.99590302 1272621966
-0.13349301 -0.102115 0.99798 1274399148
-0.188474 -0.088506699 0.39727899 1245257757
0.63747102 -0.155525 2.1521001 1226183185
-0.43626601 -0.51057303 2.35274 1248222293
-0.61942297 -0.094621703 1.4802099 1246372635
-0.32257 -0.097024404 1.05653 1247891273
0.15087999 -0.099286303 1.00643 1266965574
-0.0230924 0.080360398 0.80512798 1245198646
-0.178873 -0.0726742 0.94648302 1268876915
-0.037477199 0.080767304 0.80571198 1245264435
-0.60313302 -0.070433497 1.51384 1247491885
-0.32765499 -0.081064403 1.0334899 1268420746
-0.32746699 -0.076218203 1.0209399 1248283977
0.120832 -0.082352497 1.02601 1271501678
-0.172169 -0.0579894 0.92432499 1267569782
-0.190889 0.0703431 0.79757702 1249537121
-0.66657501 -0.082141802 1.45394 1266697527
-0.14920899 -0.054434799 0.91980797 1267574391
-0.102845 0.067973197 0.80034602 1246905147
-0.126422 -0.048374899 0.90771502 1267901308
-0.58149397 -0.030078201 1.54002 1247688234
-0.575899 -0.024232499 1.55927 1248411700
0.125866 -0.068082698 1.01989 1246314549
-0.53821999 -0.069890097 1.60514 1247360046
-0.22430401 -0.057792202 0.91847801 1266712928
-0.63543701 -0.0137104 1.38764 1249791296
0.113689 0.058769099 0.80343199 1246711881
-0.26800299 -0.020905299 0.85644001 1268947073
-0.203896 -0.016170001 0.85299999 1267110784
-0.62840301 -0.031997502 1.46226 1248935215
-0.61809301 -0.030850001 1.5067199 1248343850
-0.24291199 0.0464781 0.82004499 1269598071
-0.062178999 0.043388501 0.83525699 1248357480
-0.054251399 0.040495001 0.83610499 1247568991
-0.0053612799 0.37186101 1.37438 1245268807
-0.0481387 0.0243336 0.858486 1248686960
-0.46661299 -0.415452 2.2743599 1247892044
-0.62661302 0.011146 1.48282 1248608053
-0.71139401 0.0107316 1.37677 1266895421
-0.42453599 -0.39786899 2.2895 1248943966
-0.21811201 0.328913 1.44583 1248752487
-0.054170799 -0.0063256398 0.91006601 1247897700
0.148369 0.234248 1.15206 1244215858
-0.17010701 -0.0051652999 0.83007002 1273082773
-0.73945999 0.046360899 1.38191 1249394480
-0.244041 0.00173027 0.81324297 1271646655
-0.106875 -0.40726101 2.5613799 1270455170
-0.232223 0.0049373899 0.81442201 1271503743
0.00748011 -0.40885299 2.61729 1268547948
-0.111438 0.0063179899 0.801341 1270585455
-0.096726201 0.0110445 0.80908501 1271762034
0.0107188 -0.39002001 2.62359 1268021605
-0.15329801 -0.36397001 2.55913 1271178126
-0.26527601 0.0208895 0.80098999 1270647148
-0.40966401 -0.31382501 2.25091 1247035961
0.205677 -0.366781 2.6586499 1267688268
-0.19502801 0.046940502 0.82606798 1266835024
-0.52530903 -0.13291299 1.5832601 1248477496
-0.26687199 0.29557401 1.49668 1248751204
-0.52464998 -0.21017399 1.63397 1247886132
-0.28278601 0.36901999 1.38572 1246449218
-0.18694501 0.358762 1.39064 1246384458
-0.48751801 -0.199986 1.6478699 1248411449
-0.049434502 0.062600397 0.800605 1249671541
-0.15093 0.063883498 0.79625601 1249209187
-0.51566303 0.29078501 1.50114 1249080170
-0.14412101 0.045997199 0.82611299 1268873836
0.0046633501 0.066061802 0.80487299 1248879190
-0.26578701 0.048005499 0.81984901 1249273947
0.028231001 0.064768597 0.80322701 1245525032
-0.51023197 -0.29030401 1.6746401 1249135428
-0.049699701 0.0163259 0.86750299 1248621168
-0.18023799 0.32596001 1.45802 1247108440
0.0529401 0.064407103 0.80398798 1247169861
-0.354164 -0.42381799 2.5711999 1249277547
0.034687001 0.078799903 0.80893099 1244804142
0.0109836 -0.42724401 2.59582 1268942186
-0.076887503 0.081979498 0.80494201 1245460788
-0.335428 -0.408602 2.55936 1266774628
-0.020965099 0.0662788 0.80315602 1247038526
-0.25868201 -0.0085091004 0.83656597 1273677216
-0.118294 0.00637531 0.80058098 1273541784
-0.27289101 -0.085471302 0.96490902 1271313312
0.115477 -0.14565299 0.97639501 1270121826
-0.49608901 -0.216764 1.6569 1249398085
-0.108868 -0.080065303 0.960401 1274336185
-0.30535501 0.275637 1.51489 1248355677
-0.58004999 -0.060569499 1.50971 1245848346
-0.183258 0.0463375 0.82315099 1267624542
-0.53937799 0.289345 1.5122 1247566927
-0.15036701 -0.016537299 0.85019201 1267758439
0.50170398 0.25864199 1.4653701 1245991503
0.033426501 0.28671399 1.51565 1245925710
-0.108429 -0.0177214 0.85158402 1272297626
-0.173528 0.069201 0.796121 1247168321
0.104323 0.28985199 1.52088 1245927252
-0.082944497 0.067529999 0.80006999 1247695943
-0.16072901 -0.0491478 0.91037399 1268617062
0.088060297 0.058788002 0.803792 1248948076
-0.128791 -0.047718 0.90763998 1266913646
-0.0077262199 0.066254698 0.80455899 1248156494
0.128089 0.057751901 0.80224198 1248224864
-0.063790701 0.081641898 0.80458599 1245855803
-0.254179 -0.037937202 0.88287503 1273477276
-0.17115501 -0.0384988 0.89020199 1267239786
0.15124699 0.21647801 1.11804 1245333314
-0.195456 -0.0919673 0.97941399 1272162185
0.0375688 0.32268199 1.46843 1245663565
0.062476501 0.32214901 1.4686 1245729104
-0.236341 0.32580301 1.44886 1248751718
-0.37311301 0.33194101 1.4398299 1248159580
-0.41670701 0.33094701 1.42514 1248554339
-0.54044002 0.35394901 1.48721 1248619618
-0.61712301 0.323897 1.36954 1248948580
-0.69947499 0.120521 1.47153 1246308121
-0.504237 0.339035 1.41971 1248224860
-0.66104198 0.143473 1.645 1243680784
-0.47277299 -0.286338 1.73325 1249201219
-0.39167699 0.343694 1.4046201 1249475441
0.0169832 0.344899 1.42337 1243755568
0.14054 0.29335299 1.26477 1244150072
-0.646478 0.172951 1.67794 1244080161
-0.61233699 0.33554599 1.31057 1249146729
0.122279 0.348809 1.40646 1244743236
-0.79307598 0.134132 1.24331 1247755053
-0.151508 0.35241899 1.39332 1245728329
-0.577847 0.35436299 1.36314 1248224860
-0.188749 0.35704201 1.39835 1246976595
0.0830568 0.356365 1.4072 1245137480
-0.28314099 0.34680101 1.33972 1245921847
-0.36895999 0.36070201 1.37296 1249014377
0.70220703 0.15260801 1.27793 1243818528
-0.50386202 0.37255701 1.37019 1247896407
-0.79441297 0.40729001 1.44635 1246247989
-0.46977499 0.37464699 1.35721 1247962457
-0.0129676 0.369773 1.37684 1245136965
-0.327261 -0.083317801 1.03056 1247101756
-0.328089 0.37727699 1.37248 1249672819
-0.24090999 0.37550101 1.36454 1248751972
-0.53265601 0.38732699 1.36535 1248290653
-0.22092099 0.377119 1.35867 1248159837
-0.39912099 0.37527901 1.32844 1248620131
-0.69438899 0.36417201 1.26923 1248488030
-0.25250599 0.30012801 1.1181099 1245789491
-0.466225 0.39423499 1.36309 1248356703
-0.168896 0.26747599 1.56793 1245727558
-0.13685501 0.27398399 1.55864 1246715226
-0.550506 0.27868399 1.52492 1249277546
0.152248 0.17857499 1.04246 1244609591
-0.83205098 0.278438 1.47023 1245788723
-1.1207 0.32700601 1.68776 1244473626
-0.60231102 -0.031569298 1.46167 1248673585
0.59723997 0.247418 1.39305 1245062683
0.27073899 0.28792101 1.51975 1246320471
-0.26860699 0.29761401 1.50015 1248686694
-0.98009598 0.331462 1.61084 1246117172
-0.41280401 0.29774201 1.47611 1248094556
-0.27301899 0.12672099 0.91603702 1247040329
-0.11689 0.0050270502 0.80433702 1272493451
-0.26699299 -0.020461001 0.85307598 1268684412
0.62073302 0.262759 1.35427 1247431496
-0.59134603 0.035692599 1.54795 1246834468
-0.25479999 0.31139699 1.48839 1248620902
0.52591002 0.29936701 1.45755 1245860170
0.17691299 0.289404 1.50383 1244873023
-0.357344 -0.47385401 2.5465 1267233631
-0.50736499 -0.313903 1.70279 1249791811
-0.106424 -0.075723097 0.949862 1271119777
-0.025529301 0.38894901 1.34342 1245004349
-0.58191502 -0.54475701 1.97659 1271573656
0.210182 0.022296499 0.86873102 1248290146
-0.185132 0.360733 1.3956 1246779471
-0.112191 -0.00507141 0.82317299 1273088165
-0.11234 0.33874401 1.44172 1245399107
-0.27646399 0.281578 1.2218601 1246514502
0.152329 -0.15121099 0.97244799 1269066325
0.123115 0.140507 1.11549 1245131308
0.55515999 -0.25015599 2.4159601 1226250775
0.64827198 0.28380701 1.39981 1244996896
-0.19393399 0.29763901 1.50616 1247635036
-0.54519099 -0.162421 1.4592201 1244402449
-0.52659702 -0.207259 1.63255 1248478268
-0.67990798 -0.138982 1.42923 1246044442
0.13757201 0.20058399 1.12331 1245198904
0.14818799 -0.0729867 1.02315 1249403470
0.76668203 -0.100705 2.1196101 1226118163
0.52225298 -0.086003602 1.96097 1226249746
0.58902401 0.23866101 1.442 1244274203
0.70218301 -0.138951 1.95101 1225985804
-0.546278 -0.119075 1.27257 1245977878
0.204558 -0.033082802 0.95888001 1247829851
0.117384 -0.089711599 1.02127 1271633010
-0.50874102 -0.224547 1.36887 1245519641
0.0056360699 0.22801501 1.66919 1248621422
0.45455301 0.018086299 0.77176797 1245131559
-0.0055788001 0.19282199 1.67199 1249147245
-0.43069199 -0.27510899 1.84684 1247363128
-0.51820898 -0.25160101 1.65948 1247427125
0.137991 -0.362436 2.62816 1268409418
-0.48876399 -0.25354201 1.71687 1248476983
0.150199 0.223454 1.13289 1244478258
-0.44198599 -0.284823 1.99826 1243946008
-0.130098 -0.056248501 0.92305899 1267507822
-0.231712 -0.050231699 0.905994 1268810347
-0.179094 -0.047268301 0.90395498 1269280126
-0.26935601 -0.043518201 0.89408398 1268553600
0.112651 -0.58845699 2.04245 1267562855
-0.53257 -0.532076 1.75243 1266772318
-0.35220301 -0.30221501 2.4754801 1226120472
-0.626656 -0.508641 1.70453 1244731928
-0.51780701 -0.50841498 1.74611 1248415046
0.144951 -0.51184201 1.9260499 1244342566
-0.567572 -0.559205 1.7653 1247626558
0.31891799 -0.45916301 1.79457 1226316568
0.12429 0.35187399 1.39739 1244215095
-0.80068302 0.23452701 1.59649 1245329198
-0.469367 -0.50927198 2.2991199 1246709573
-0.457174 -0.43770501 2.2827799 1247498316
-0.35162801 -0.423017 2.55984 1248226143
-0.69319499 0.156574 1.67202 1226575113
-0.501647 -0.461348 1.72919 1249731673
-0.65739799 0.14198101 1.69519 1226443275
0.64645302 -0.21613 1.98122 1245130274
0.59960097 -0.20408399 1.93799 1244997664
-0.12 0.083562903 0.80402797 1246448455
-0.31940901 0.0511222 0.82359701 1245918769
0.16748101 -0.387371 1.67505 1244869427
-0.24259999 0.0465496 0.81993401 1270188922
-0.157644 0.0465299 0.82587701 1267821403
0.64826798 -0.15573201 2.1496699 1191248642
-0.055207402 0.041948002 0.81943798 1249608319
-0.26155999 0.0152914 0.80007601 1273412511
-0.227908 -0.049750399 0.91040403 1269344909
-0.27068299 -0.040102102 0.89076501 1269409428
-0.230367 -0.022944899 0.86489099 1270326671
-0.44168901 -0.54915899 2.3643799 1248483921
-0.55556899 -0.55032802 2.34691 1248815201
-0.50296098 -0.39593101 1.70582 1245588264
0.143658 -0.39202899 1.8936599 1247495738
0.534594 -0.101153 1.5280499 1226117133
-0.544644 -0.54396701 1.75222 1268417398
0.116764 -0.60545099 2.0671599 1266905444
0.120596 -0.59597802 2.0367301 1243880471
0.138181 -0.166931 0.94568801 1249071676
-0.47309899 -0.41402501 1.96766 1248350796
-0.58966202 -0.52542901 1.7253799 1243877902
-0.530595 -0.528898 1.75261 1248745292
0.115966 -0.58803701 2.0634201 1249008717
-0.35603201 -0.473023 2.52421 1267431781
-0.50439399 -0.32119399 1.68156 1247165236
0.135076 -0.46026 1.70848 1244408613
-0.59495699 -0.490181 1.6899101 1246376237
0.157362 -0.52463001 1.94361 1225723406
0.568416 -0.64379901 2.43434 1226316052
0.157922 -0.519288 1.93093 1246842959
0.468575 -0.54030001 2.0597999 1226381845
0.14594901 -0.51536101 1.9390301 1243816481
0.153005 -0.131758 0.98558903 1248675379
-0.567406 -0.479855 1.69133 1245060124
-0.50922 -0.49054101 1.74555 1249204814
-0.178175 -0.41852301 2.5701499 1269008499
-0.38409999 -0.55735099 3.32688 1270719371
-0.63904798 -0.47943601 1.72244 1247756352
-0.50453401 -0.47643599 1.7415299 1266969950
0.118239 -0.52779299 2.0823801 1249733979
-0.61747599 -0.43750301 1.6396199 1245389090
-0.109192 -0.39965799 2.52368 1270257794
-0.53763098 -0.44148701 1.6811 1244797978
0.120779 -0.51656801 2.0887799 1248351558
0.29454899 -0.41925201 1.76122 1244211500
0.124837 -0.50408399 2.1124599 1249206353
0.25904801 -0.395859 1.7172101 1226316566
-0.674649 -0.395147 1.55094 1245520934
-0.51685399 -0.485688 1.94074 1267825257
0.29671201 -0.379639 1.68363 1245067578
0.16547599 -0.38091499 1.66993 1246712144
-0.44153601 -0.35152599 2.27071 1245590320
0.60408998 -0.159209 1.45753 1226319653
-0.503196 -0.42028701 1.72075 1245719597
-0.51470399 -0.48050201 1.96285 1267233379
0.125452 -0.478479 2.0762 1247758906
0.147744 -0.389613 1.71991 1245132854
-0.54967302 -0.392234 1.61628 1245981223
-0.466658 -0.56274599 2.39168 1248286545
-0.52131701 -0.255815 1.68938 1247032368
-0.1957 -0.027182201 0.87189603 1267373684
-0.65312201 -0.379392 1.6241601 1244601369
-0.65822703 -0.37610799 1.61552 1244272665
-0.425978 -0.54043198 2.3675201 1247628355
0.167734 -0.183961 0.95491701 1245263923
0.176167 -0.32479799 2.5736001 1246975053
-0.46661401 -0.418888 1.88088 1245127713
0.0876581 -0.18666101 0.97061998 1267568521
0.16773 -0.179602 0.95547098 1245986616
-0.054388199 -0.0151802 0.92872798 1248357226
0.138338 -0.18568601 0.98041803 1272356217
-0.68305701 -0.35415599 1.57301 1244665368
-0.55003202 -0.34610599 1.56376 1244862743
-0.51462197 -0.380283 1.7225699 1245126943
-0.47449401 -0.50744098 2.3134201 1247827028
0.157309 -0.39185601 1.93802 1267496801
-0.62611502 -0.34150401 1.5604 1245717026
0.95740998 0.33930999 2.0838799 1244405277
-0.75741798 -0.15846001 1.42581 1248804664
-0.28826499 0.068989702 0.794406 1249602911
0.301364 -0.56787097 1.90968 1225921296
-0.50161201 -0.37906501 1.7847 1247758143
-0.137244 -0.073441997 0.94893497 1269211003
0.535909 -0.63951701 2.25734 1243683607
-0.54641002 -0.54345298 1.75327 1249008465
0.285045 -0.56203598 1.98211 1225657609
-0.73425198 -0.324112 1.54503 1243680015
0.129997 -0.45920601 1.67919 1225591560
-0.365576 -0.48350301 2.5150101 1266904412
-0.62642902 -0.48420399 1.62447 1245915689
-0.83163899 -0.28547999 1.44564 1245125146
0.126404 -0.064448401 1.03765 1248749404
0.499405 -0.57314801 2.1953101 1225987344
0.145914 -0.51409203 1.93709 1245593147
-0.55680698 -0.472758 1.69025 1245718309
-0.50679398 -0.480075 1.74523 1249007178
0.28361201 -0.45041999 1.81953 1243948838
0.134985 -0.14313 0.96393198 1246575409
-0.350427 -0.46083799 2.5269499 1267431012
-0.074265897 0.33557999 1.43171 1245004609
-0.114054 -0.095157199 0.98160303 1274009274
0.130413 0.062325101 0.800776 1245199152
0.114646 -0.109202 0.98742098 1266767687
-0.43057099 -0.270381 1.82137 1247821625
-0.523476 -0.220696 1.64114 1247295028
-0.22539 0.0452668 0.813272 1269203052
-0.32725501 -0.0528519 0.99027997 1248944475
0.148211 -0.072720297 1.02356 1249733718
-0.218877 -0.064572498 0.93270099 1267307124
-0.25926399 -0.059216499 0.91890103 1273543584
-0.078883499 -0.12666801 1.02547 1268621447
0.147892 -0.12729099 0.979828 1247951913
-0.44644701 -0.55104798 2.3682001 1247497028
0.0126051 -0.405608 2.5738599 1268613998
0.092713498 -0.19339 0.980371 1267501437
0.13662 -0.389779 1.8767101 1266707544
0.166692 -0.17856701 0.95386702 1246316352
-0.58566302 -0.35409701 1.54583 1245255962
-0.153244 -0.015941501 0.85391998 1270850700
-0.150656 0.0843651 0.80257303 1246973765
-0.426447 -0.53898603 2.3368101 1248876881
-0.47146901 -0.51199901 2.30847 1245656628
-0.46810299 -0.26164001 1.73972 1248412476
-0.57725 -0.532152 2.3648801 1248089424
-0.414617 -0.53131199 2.3311701 1248811086
-0.4682 -0.51007599 2.2997899 1247496260
-0.430087 -0.512124 2.29772 1249339491
-0.47865501 -0.387786 1.76126 1248809291
0.177099 -0.29788199 1.595 1246642227
0.113797 -0.16500799 0.95657998 1271108727
-0.441764 -0.48247701 2.31159 1247561800
-0.48929799 -0.47274199 2.2978401 1246905923
-0.486487 -0.37488601 1.8331701 1249465674
-0.27559 -0.226089 2.3561399 1247303505
-0.561441 -0.28665799 1.60998 1245781789
0.117904 -0.204062 0.98419797 1268546660
0.0188885 -0.271732 1.4869 1271113091
-0.38641801 -0.21546701 2.46229 1245329198
-0.40936601 -0.52159399 2.59199 1266840674
-0.50438702 -0.339122 1.73164 1267557465
-0.45069101 -0.44888201 2.28004 1248878430
-0.114 -0.039269101 0.89381599 1267899503
0.317572 -0.52259201 2.3715401 1244278573
-35.248901 4.8391299 42.8237 1249000751
-0.48992601 -0.417016 2.2572501 1249667689
-0.40414199 -0.428159 2.29175 1249732964
-0.47943401 -0.41082099 2.24788 1247497031
-0.48352599 -0.488583 2.3045001 1247693899
0.309374 -0.53524899 2.2622299 1226184729
-0.52916199 -0.465965 2.31461 1248287838
-0.34272701 -0.45188701 2.4965999 1266972514
-0.51055402 -0.34503901 1.74335 1267163223
-0.55012101 -0.301164 1.54965 1245519390
-0.45083299 -0.303047 1.73321 1249465418
0.26986399 -0.394407 1.9802099 1243684634
-0.72422397 -0.23057 1.49121 1245914146
-0.52454901 -0.38199401 2.2839999 1245658432
-0.39307299 -0.38934401 2.2660301 1267035489
-0.614815 -0.27669501 1.55739 1245979678
-0.51757699 -0.311667 1.69969 1246769711
-0.48806301 -0.41558099 2.2493 1249404777
-0.43261299 -0.36285001 2.25174 1244865310
-0.411163 -0.35852501 2.2248099 1248285003
-0.49143901 -0.40495199 2.24979 1246380100
-0.41170999 -0.41018599 2.2805901 1249074523
0.648359 -0.216506 1.93221 1245195044
-0.19889501 -0.0153112 0.84607899 1269207164
0.024190901 0.065278597 0.802903 1246972480
0.093018599 0.062993899 0.80456799 1245329715
-0.58398402 -0.115382 1.44866 1245452564
-0.425098 -0.538598 2.33338 1266969701
-0.50587499 -0.41501701 1.72232 1246573875
-0.56409597 -0.54727602 2.3576701 1247432780
0.17105301 -0.34610599 1.63609 1247105870
-0.428354 -0.50494599 2.25755 1249273448
-0.394629 -0.52366698 2.36292 1268351603
0.27163401 -0.34153599 1.66294 1225791507
-0.33615199 -0.43501899 2.53054 1267825511
-0.347424 -0.374284 2.51879 1247961945
-0.42540401 -0.50420702 2.3060901 1248944224
-0.39221299 -0.50837201 2.3385201 1248021319
-0.115707 -0.37817001 2.4602599 1271441294
-0.49503499 -0.41535801 1.85141 1267362145
0.116142 -0.202935 0.97880298 1269007727
0.159601 -0.33927101 1.69488 1247696469
-0.39658499 -0.31498301 2.22457 1246312756
-0.61414802 -0.37248099 1.64211 1244862740
0.145109 -0.19913401 0.975317 1272553599
-0.50675201 -0.36347499 1.66933 1245915688
1.18287 -0.39570701 2.26895 1243942149
-0.52072698 -0.25077 1.6625 1246900779
-2.7801199 -1.23036 6.09308 1244272404
0.13844299 -0.18937799 0.97624201 1272620154
0.133398 -0.186939 0.97919899 1268084055
-0.17738 -0.41836101 2.5661199 1270652032
-0.34897801 -0.46325999 2.5256801 1268154734
-10.808 -4.27982 22.3433 1243681293
0.161083 -0.34712499 2.01931 1267822942
-0.501598 -0.33931801 1.7323 1267491669
-0.45387399 -0.34936199 1.82408 1266836055
0.16226999 -0.174657 0.949516 1248812880
-0.64140099 -0.144991 1.3127199 1247357216
-0.48052299 -0.402913 2.2537601 1247367249
-0.47321701 -0.40173799 2.24892 1246972492
0.0078250403 -0.414731 2.5386 1271047558
0.090048 -0.42738101 2.6583099 1270914691
-0.41809201 -0.401721 2.28335 1247299652
0.52665901 -0.20725501 1.3795201 1208423439
-0.48167399 -0.398655 2.26986 1248156765
0.30673501 -0.39011201 2.54935 1249076571
0.289233 -0.39103001 2.5612099 1269139823
0.110761 -0.182129 0.984743 1269727841
0.16313 -0.16704901 0.96244001 1244075791
-0.425953 -0.390531 2.2726099 1246905662
-0.107106 -0.406811 2.5385699 1270191999
-0.231437 -0.40410599 2.5313301 1270125436
-1.19449 -0.36152899 1.79975 1244796181
-0.32806399 -0.404998 2.5214901 1269143174
0.0054708901 -0.384224 2.52126 1268023141
-0.57060599 -0.290012 1.57846 1245585180
-0.44450599 -0.311064 1.79101 1248085308
0.65135098 -0.179433 1.3306201 1226578718
-0.47883001 -0.36979601 2.23172 1245657142
-0.235245 -0.116891 1.00504 1273458548
0.094065301 -0.166228 0.996364 1244539686
-0.51304102 -0.29251301 1.67688 1246835755
-0.51406401 -0.29387501 1.68677 1248150843
-0.367948 -0.37525401 2.37624 1247236169
-0.51157999 -0.28945699 1.6822 1248741951
-0.48354501 -0.358208 2.22943 1244735269
-0.22542 -0.38074201 2.52863 1269796726
-0.397847 -0.35303599 2.25653 1246904893
-0.325959 -0.37993401 2.5327101 1267827568
0.31181201 -0.34766901 2.5903399 1266773344
0.117153 -0.156813 0.975357 1270056038
0.132084 -0.35177299 2.54949 1267818825
-0.36556101 -0.34845999 2.2897601 1245129765
0.1354 -0.152661 0.96149802 1246115114
-0.43788901 -0.47213101 2.2799599 1247365187
-0.65483201 -0.28032801 1.60561 1246111522
-0.43977901 -0.34747401 2.2583001 1244867621
-0.35472101 -0.35848799 2.3903501 1246777679
-0.51413399 -0.27594399 1.67022 1247624500
-0.156223 -0.355468 2.52671 1271112331
0.180573 -0.32582301 2.51559 1246574374
0.024129501 -0.33664599 2.5581999 1249403735
-0.55369699 -0.25326499 1.53574 1246308389
0.113811 -0.14909001 0.98582798 1270254189
0.756818 -0.18486699 1.65479 1226777895
-0.53911102 -0.25429201 1.57243 1244861970
-0.54484302 -0.25450301 1.58131 1244993557
-0.39166901 -0.319204 2.24231 1244867620
0.0114912 -0.32282799 2.5129001 1249403732
0.66570801 -0.220663 1.95759 1245458216
0.832569 -0.19388799 1.80951 1226777124
-0.58061701 -0.246365 1.5284899 1245453852
3.5697999 -0.68476099 7.9516802 1226644252
0.63219702 -0.212092 1.96482 1244997151
-0.48361301 -0.251432 1.69794 1248280630
-5.4509401 -2.08061 16.4436 1245782562
-0.43249899 -0.27277899 1.9466799 1245721139
0.19666401 -0.227139 1.89257 1245199416
-0.65126002 -0.25287101 1.45882 1245388313
0.77434701 -0.182449 1.80292 1243619359
-0.521065 -0.24537601 1.65239 1246836530
-0.46348199 -0.3028 2.2509699 1244211496
0.27711701 -0.217343 1.85847 1243684381
-0.47101599 -0.36830401 2.151 1247827537
-0.87571502 -0.241064 1.43699 1245255953
-0.32910401 -0.31244901 2.5195601 1267562857
0.196068 -0.257393 2.2860899 1246777157
0.18241701 -0.25768301 2.29793 1246579521
0.235836 -0.20874099 1.82748 1226315541
-0.72147101 -0.227088 1.48421 1246308389
-0.62182301 -0.22924601 1.50826 1245454109
-0.58885098 -0.22597 1.50655 1245060376
-0.321578 -0.30364999 2.51141 1249339996
-0.3978 -0.282067 2.2519 1244210204
-0.15679801 -0.434742 2.63046 1271704975
-0.157591 -0.400543 2.4984901 1270059896
0.45576 -0.201949 1.46056 1226379790
0.29401401 -0.35030201 2.6337399 1266905954
-0.193698 -0.30790201 2.5385001 1249801827
-0.36183101 -0.25718701 2.3926101 1243948580
-0.68037999 -0.13720299 1.4691499 1247424802
-0.130247 -0.073900796 0.95115697 1268942700
-0.268794 0.070821598 0.78979999 1247824438
-0.100537 0.082386002 0.80302101 1245067315
-0.234698 0.070899703 0.79403001 1247168828
-0.20456199 0.069986999 0.79484802 1247102522
-0.156719 0.068767898 0.79737997 1244931357
-0.21868899 -0.047002301 0.89807701 1266912875
-0.175427 0.046282001 0.82450402 1268348004
-0.166942 0.046331499 0.825351 1268083810
-0.15058801 0.046252601 0.82621503 1268018267
-0.080610901 0.043839101 0.82923698 1269991545
-0.137366 -0.0155254 0.86134499 1272498338
-0.244708 -0.0091629997 0.83834499 1273411738
-0.209491 0.0119102 0.80008298 1273408655
-0.103379 0.0113531 0.80874002 1271827314
-0.092307299 0.0109794 0.80952799 1271302252
-0.51114702 -0.454036 1.8612 1249798496
-0.099458396 -0.123312 1.02361 1267041378
1.08788 -0.37897199 2.1668899 1243876869
0.15393101 -0.41126701 1.96767 1266707278
-0.56402802 -0.54701298 2.35712 1247694156
-0.45201999 -0.323823 2.2538099 1244736299
-0.68601102 -0.456718 1.86862 1243814168
0.148561 -0.103478 1.00202 1267095621
-0.50640702 -0.413993 1.7342401 1248153158
-0.46566901 -0.53184301 2.3561101 1245917748
0.91623199 -0.33293501 1.92579 1244270592
0.171872 -0.333408 1.62166 1246841411
0.27050501 -0.32630399 1.62701 1243751715
-0.63097799 -0.169341 1.4643101 1245980454
-0.39387399 -0.52743697 2.38148 1268746097
-0.49294001 -0.42940399 1.84438 1249534297
-0.819767 -0.164129 1.4078799 1247687723
-0.478661 -0.43727499 1.9191 1246640694
-0.505162 -0.39684299 1.70269 1245719076
-0.118162 -0.10658 1.00161 1270920332
-0.52734798 -0.206654 1.63405 1248018745
-0.42996499 -0.48743299 2.2800801 1249404261
1.04577 -0.101072 2.6689799 1225525253
0.14357699 -0.198074 0.97203499 1273079162
-0.200876 -0.106696 1.00042 1273347994
-0.52732497 -0.50642401 2.3864801 1226446613
-0.73725301 -0.155736 1.40655 1247882797
-0.412579 -0.17838199 0.62723202 1226773261
-0.327887 -0.038956299 0.971735 1248676676
-0.39152801 -0.47549501 2.30549 1247893072
0.253878 -0.29827401 1.61145 1243947034
0.166631 -0.076628201 1.0290999 1247106639
-0.98048502 -0.53165197 2.3556199 1245259299
-0.39437401 -0.47097901 2.3071301 1247825741
-0.43887699 -0.46614799 2.2679701 1248747867
0.14267799 -0.190905 0.98988301 1272224111
0.25419 -0.28609499 1.62112 1245063972
-1.0534199 -0.509579 2.3201599 1243812621
-0.36300299 -0.482833 2.51564 1267430236
0.16479 -0.176616 0.95013702 1247432517
0.192393 -0.332977 1.92656 1245459758
-0.078795597 -0.075379401 0.950405 1269543029
0.160027 -0.34558001 2.01422 1267890271
0.16202401 -0.174261 0.94968402 1247430972
0.15712801 -0.34172201 1.9977601 1268876651
-0.76484698 -0.37953699 1.76052 1245454107
-0.38953099 -0.42939001 2.2706499 1266772319
-0.272587 -0.083076797 0.96110499 1270853014
0.17691 -0.275493 1.60848 1243750683
0.091792002 -0.177973 0.95193601 1269735819
-0.34954599 -0.461375 2.5276401 1266972259
-0.548792 -0.32837099 1.58762 1245256215
-0.51350999 -0.100264 1.6161799 1247228971
-0.32766601 -0.021849601 0.94617301 1248088903
0.66469598 -0.232105 1.63664 1225593869
-0.72733998 -0.455733 1.9634399 1246768687
0.14078701 -0.40646899 2.5223899 1271112068
-0.534859 -0.32236299 1.62292 1245322008
-0.059099101 -0.0618033 0.98680598 1248357996
-0.41559699 -0.409439 2.2894299 1246312757
-0.62369502 -0.090569302 1.50629 1245782297
-0.16079099 -0.43538499 2.6370201 1271705490
-0.51154202 -0.328141 1.71636 1248084795
0.50801003 -0.211916 1.50378 1225330699
-0.223915 -0.43408099 2.6319101 1271639698
-0.082416199 -0.39325699 2.43009 1271046793
0.0024977501 -0.395008 2.4920001 1270389894
0.191091 -0.39196801 2.5811901 1271373700
0.51074803 -0.21265399 1.51802 1208224262
-0.60955697 -0.076225802 1.5189 1245978647
-0.41970801 -0.39835799 2.27987 1248089167
0.178654 -0.26212499 1.68547 1244802600
0.23683 -0.122746 0.737266 1226248723
-0.123343 -0.40233701 2.50828 1270059895
-0.106182 -0.40422001 2.5318501 1269599090
-0.51625001 -0.30517399 1.60146 1245914139
-0.484303 -0.31826299 1.72338 1267097422
0.073041998 -0.38524401 2.54425 1271440264
0.52153403 -0.214233 1.58296 1226381334
-0.233564 -0.39923999 2.49931 1270257276
-0.52667099 -0.32085401 1.78075 1249201984
-0.33317399 -0.40348199 2.5237601 1267040111
-0.32669199 -0.40419701 2.5332201 1268813430
0.0047622598 -0.369899 2.48523 1269930883
0.113695 -0.158742 0.97792399 1271042416
-0.92877799 -0.42338401 2.3350201 1245190423
-0.779953 -0.060427502 1.5510401 1267224639
0.18900201 -0.35143399 2.53392 1267031362
0.15026399 -0.15209 0.96546298 1267883341
-0.367219 -0.37538701 2.36989 1247433547
0.116349 -0.155688 0.97622597 1271305071
0.140947 -0.151899 0.96287298 1246769956
-0.222054 -0.38158101 2.52808 1271639186
0.27893901 -0.34721899 2.60519 1267562852
0.25667101 -0.34559399 2.5928299 1267824998
-0.403469 -0.357191 2.25595 1247364930
0.266269 -0.34268501 2.5915301 1248683094
-0.399872 -0.35389301 2.2585399 1246049583
-0.145999 -0.36589599 2.5290301 1270520192
0.210306 -0.342794 2.58551 1267234405
-0.51148301 -0.29066899 1.6806099 1248413759
-0.326886 -0.37585101 2.53157 1267825513
-1.17039 -0.35342401 1.7903 1245454361
0.238548 -0.24631201 1.89143 1226450468
0.076806299 -0.33929101 2.5747299 1267562597
0.643363 -0.214174 1.9451801 1245325344
0.0256352 -0.33568901 2.55601 1249865051
-0.19348399 -0.34848601 2.5225401 1270585987
0.14984301 -0.141101 0.97053897 1267488583
-0.724859 -0.29608399 1.68542 1245190675
-0.035644699 -0.337338 2.5583999 1271310482
0.096890099 -0.149408 1.00975 1247302223
0.64291698 -0.213223 1.97421 1244470808
-0.569628 -0.26497099 1.5569 1245519131
-0.43098599 -0.28152099 1.81019 1248282945
-0.53966802 -0.25765899 1.5434999 1245979167
-0.34780201 -0.348059 2.51911 1247895130
-0.45400199 -0.32696399 2.2590201 1226578200
0.200507 -0.233781 1.91192 1245923139
-0.053311799 -0.0040831398 0.900585 1248225639
-0.45203501 -0.32512099 2.2588999 1245526585
0.0084317904 -0.31280601 2.5071499 1267432558
0.59825701 -0.20227601 1.94568 1244603164
-0.538396 -0.25579301 1.5577101 1245058836
-0.470752 -0.288708 2.24646 1244013602
-0.54054302 -0.25510901 1.55995 1245125142
-0.399241 -0.31343499 2.2223699 1245391904
-0.050069701 0.0129954 0.867585 1248488555
-0.054536998 -0.30752 2.5128601 1267366500
0.26154199 -0.215909 1.88394 1225986577
0.85573 -0.19072901 2.1296 1243750942
-0.071625203 -0.30670899 2.5090699 1267169897
0.24241599 -0.21044999 1.8413 1226118676
-0.63683897 -0.25119299 1.51666 1246572842
-0.88014603 -0.30093801 1.81858 1245125144
-0.17542499 -0.30716401 2.51913 1268353143
-0.192866 -0.30958 2.5479901 1268221555
-0.48298699 -0.25032601 1.69867 1248017458
-0.336018 -0.314549 2.5123701 1249274459
-0.33322299 -0.313797 2.50701 1266971999
-0.49847499 -0.242183 1.63709 1249727050
-0.25057399 -0.30395901 2.5169401 1249472089
0.141728 -0.24147899 2.2804101 1246708540
0.0983233 -0.13063601 1.02194 1244342566
0.114107 -0.125972 0.98547399 1268017997
0.247044 -0.225539 2.2405601 1245986877
-0.094656497 -0.123671 1.01759 1267239786
-0.93398798 -0.29186201 1.9342099 1245059353
-0.59027302 -0.226459 1.51217 1244730640
-0.82670999 -0.26168901 1.73186 1244992787
-2.12503 -0.56778902 4.1199598 1244928277
-0.39736399 -0.257411 2.2634599 1244341023
0.14921901 -0.21132199 2.27233 1245721130
-0.36115301 -0.26119101 2.42222 1226316052
-0.207394 0.046556599 0.823246 1268676201
0.10528 -0.119677 1.08863 1246119494
-0.229314 0.046794798 0.82185501 1266966866
-0.445559 -0.214332 1.76981 1248479553
0.094681203 -0.119888 1.09975 1246975056
0.206312 -0.189983 2.2318599 1244473636
0.77178103 -0.142672 2.2483399 1226052878
-0.72904497 0.17163301 1.64131 1225918468
-0.262279 0.0472643 0.81890202 1248413238
0.146072 -0.106532 0.99390101 1248149034
-0.64139402 0.183989 1.64794 1245789233
-0.078500897 -0.126578 1.0248801 1267498342
-0.146014 0.0089359097 0.80137402 1272748672
-0.125144 0.0071697501 0.80143601 1273209221
-0.119141 0.00675483 0.80096602 1272683136
-0.231075 0.0133266 0.79953003 1273541522
-0.078956097 0.043834701 0.82864302 1269400688
-0.0073634498 0.066056401 0.80446899 1247431489
-0.016685 0.066315196 0.803294 1248813394
-0.026338199 0.066191703 0.80312598 1246313264
-0.041700099 0.066842698 0.80224001 1248155724
-0.123135 0.068486102 0.79880601 1248418639
-0.089139998 0.067609899 0.80018699 1247234364
-0.0828868 0.067475997 0.80098802 1247234620
-0.37652299 -0.21165501 2.2294099 1245065264
-0.57296902 -0.151594 0.89892602 1246174998
-0.36148199 -0.20726199 2.2039499 1246116664
-0.303179 0.065030903 0.80682701 1247827787
-0.15115 -0.121888 1.028 1270850960
-0.25088301 0.046737701 0.81991702 1268412254
-0.57181501 -0.18214101 1.47736 1245782299
-0.76657498 0.22346701 1.61659 1245526576
0.121977 -0.096828602 1.01278 1249400638
0.20697001 0.264296 1.54679 1245794125
-0.171608 -0.121226 1.02175 1270389642
-0.44839799 -0.203237 2.14062 1226446868
-0.076782502 -0.111614 1.00755 1249538902
-0.204616 -0.121494 1.0255001 1269469828
-0.210777 -0.12127 1.02428 1269403776
-0.61014301 -0.176567 1.48928 1245847835
-0.49690399 -0.17382801 1.63653 1247754286
-0.81157202 0.239637 1.63222 1245789235
0.129012 -0.0886259 0.998124 1244800022
-0.119888 -0.109206 1.0078501 1272036243
0.210298 -0.23595899 1.65389 1226251803
0.14027999 -0.35438401 2.55443 1249726515
0.139982 -0.33007801 2.526 1247493676
0.145936 -0.32835701 2.51577 1248611642
0.187203 -0.22966699 2.1754899 1245855286
0.183754 -0.22457699 2.16945 1246052667
0.19021 -0.22524901 2.18312 1245855545
-0.076083101 -0.094333902 0.98305303 1267897455
-0.70984501 -0.14802299 1.43521 1247621670
-0.855259 -0.178177 1.53912 1247425062
0.219153 -0.325481 1.99564 1246381636
0.141425 -0.41428101 2.58042 1271374724
0.158362 -0.38587999 2.54146 1271175040
0.072290502 -0.38504499 2.5416601 1271570825
-0.209895 -0.3987 2.4893701 1270060154
-0.229104 -0.40085199 2.5046999 1270520449
-0.26333401 -0.39492601 2.46208 1270323326
-0.291116 -0.39567801 2.4603801 1270849670
0.26810801 -0.34266999 2.5721099 1266970461
0.173603 -0.324597 2.5023401 1248216367
0.055266999 -0.33900499 2.5708799 1267824232
0.28006601 -0.217623 1.80795 1226381335
-0.237147 -0.32804 2.49207 1270980745
-0.054483298 -0.30858001 2.52088 1267234920
0.20576499 -0.237827 2.08799 1245921850
-0.290328 -0.33019799 2.51442 1270784138
-0.100474 -0.30802599 2.5246699 1267695730
-0.12781601 -0.30474201 2.5009501 1267038309
-0.207537 -0.309953 2.5683601 1249603679
-0.276389 -0.30959299 2.5706301 1249865565
-0.30510101 -0.303166 2.50825 1249338452
0.20300899 -0.20561799 2.1649101 1226051594
0.105338 -0.119573 1.08196 1245659195
0.089176603 -0.119342 1.08644 1245396024
-0.25684801 -0.231925 2.4070301 1245526580
-0.074435301 -0.070655704 0.94277 1266911857
-0.14976101 -0.122425 1.03422 1270390149
-0.17223801 -0.121647 1.0265 1269206137
-0.199597 -0.121869 1.02843 1269140861
-0.206746 -0.122105 1.03231 1268482164
-0.13743401 -0.072993003 0.94974601 1268557947
-0.21961001 0.078916401 0.773579 1246119485
-0.80433202 -0.129592 1.6602401 1267225152
-0.26186499 0.066976704 0.77352798 1249076050
-0.25115499 0.067993902 0.78011298 1246314034
-0.24410599 0.067825504 0.78004003 1246643003
-0.225394 0.0692496 0.78864998 1246510642
-0.211307 0.070471697 0.79489499 1247630150
-0.19875 0.070140801 0.79580402 1247498569
-0.218962 0.064791001 0.78638202 1248683100
-0.19139799 0.068447404 0.78949702 1248156235
-0.18945201 0.069767602 0.79606301 1246905914
-0.20674101 0.065463103 0.78934002 1247564620
-0.172162 0.069361903 0.79650497 1247825730
-0.15944199 0.0690042 0.79733098 1247102525
-0.24826699 -0.077628002 0.95456803 1272819346
-0.144059 0.0688444 0.79764199 1248747603
-0.22914 -0.072483301 0.94754899 1268941424
-0.117713 0.068097003 0.79886597 1247170112
-0.136344 0.0648816 0.79710698 1248287829
-0.110857 0.068073198 0.79977298 1247563330
-0.25449899 0.047305401 0.81957698 1249399873
-0.179482 -0.0473639 0.90644401 1268162416
0.0062747202 0.073177397 0.79947603 1247761733
-0.47663799 -0.508645 2.32038 1246970943
-0.063087702 0.063734598 0.79980701 1247236169
-0.23482899 0.0466698 0.82069302 1267952732
-0.230709 0.046527099 0.82021803 1268084316
-0.206238 0.046740498 0.82276201 1267624795
-0.49173301 -0.41807699 1.84416 1267033694
-0.429068 -0.49346101 2.2901499 1249536100
-0.180801 0.0469318 0.82479501 1249138504
-0.37067401 -0.49436599 2.3831 1268745070
0.169772 -0.295439 1.60051 1246313263
0.142726 -0.188159 0.97732502 1271304044
0.142848 -0.18911 0.99071097 1272815480
0.188447 -0.34661901 1.96433 1246511670
0.250514 -0.280891 1.60886 1244997150
-0.39654499 -0.45931199 2.30334 1248548691
-0.443147 -0.45619899 2.2670701 1248022860
0.164351 -0.35043499 2.01688 1267034452
-0.50451201 -0.37603 1.79397 1249334348
-0.38748801 -0.43341899 2.27211 1249534553
0.28246 -0.25507501 1.59699 1245393191
0.0110012 -0.42302099 2.5525501 1270980221
0.140852 -0.173429 0.98664999 1271965320
-0.34414601 -0.45404699 2.5367899 1268155499
0.30941099 -0.38980201 2.5541201 1248353873
-0.24307901 -0.0093748001 0.839275 1273147795
0.17115 -0.27199101 1.6909 1244868137
-0.41598701 -0.408932 2.28897 1246181170
-0.50638199 -0.334512 1.71487 1249333576
0.0116028 -0.40281501 2.5574701 1268152163
0.18032099 -0.25661001 1.67484 1243882272
-0.10938 -0.40010601 2.53265 1270519681
-0.35098401 -0.41743201 2.53703 1247895895
-0.42908701 -0.38413799 2.2681301 1246378549
-0.120439 -0.38799399 2.5320301 1271244428
0.318425 -0.35040599 2.5813301 1248353361
0.27273801 -0.225749 1.60322 1225788939
0.152007 -0.1529 0.96500802 1267816772
-0.0055421102 -0.37271699 2.5323 1271704977
0.134195 -0.35364401 2.5523 1266897975
0.246444 -0.230739 1.67623 1225923869
-0.218412 -0.37409899 2.5218201 1270652291
0.64696902 -0.21469501 1.93516 1245326113
-0.438824 -0.30692199 1.81332 1248743239
0.055078 0.379464 1.35078 1244675644
-0.36567101 -0.34884399 2.29018 1245260067
-0.51023901 -0.290144 1.67345 1248413246
-0.20108099 -0.356803 2.5167501 1270586756
-0.261199 -0.0304459 0.87248898 1271836029
-0.34843501 -0.370929 2.5256901 1247698779
0.115647 -0.14497399 0.97664601 1269464676
0.114998 -0.144576 0.97262597 1267689553
-0.21691699 -0.0230626 0.864187 1268692375
0.027607 -0.33602601 2.5706899 1248219974
-0.73217303 -0.0093974499 1.56912 1249528894
-0.40271601 -0.334061 2.24387 1246313267
-0.186382 -0.33964199 2.5272501 1271178379
0.28297499 -0.21945199 1.8766201 1226644507
-0.51146102 -0.275594 1.6577801 1248282173
-0.44925699 -0.332353 2.2602601 1244802349
0.20452499 -0.22856601 1.9262201 1245461302
-0.39835501 -0.31705299 2.2424901 1245654308
0.24991401 -0.213135 1.87647 1225789708
-0.11039 -0.0088301301 0.83276999 1272757659
-0.34141099 -0.323149 2.4284401 1245461043
0.23040199 -0.28359699 2.6400499 1246512702
0.165236 -0.255595 2.3061199 1247235910
-0.42855999 -0.266673 1.81023 1247559221
-0.40249899 -0.30468899 2.2292299 1246312495
-0.156747 -0.0091728102 0.83789402 1272885394
-0.45850101 -0.310516 2.2469599 1244014370
-0.34344801 -0.31888101 2.4755399 1246183996
-0.100994 0.067951098 0.79996002 1247037503
-0.52079302 -0.255696 1.69893 1248215350
-0.23586801 -0.0095368 0.83837098 1272686989
-0.48333099 -0.25069699 1.69969 1248346169
0.93485898 -0.16911399 2.43929 1225787658
-0.113682 -0.00031828901 0.81624299 1271902597
0.280819 -0.202806 2.0953901 1226447377
-1.88341 -0.50851297 3.06054 1245454359
-0.39814901 -0.282195 2.2583499 1244406556
0.147911 -0.117531 0.98725498 1248084786
0.35377499 -0.18192001 2.02931 1244408616
0.145183 -0.21915901 2.2570701 1246051895
0.097786799 -0.122243 1.0226001 1246644809
0.196551 -0.20942201 2.24417 1244210720
0.248248 -0.19688199 2.1547899 1244144157
0.097743399 -0.120873 1.02283 1246513480
0.150048 -0.20928 2.26683 1244603166
0.79565197 -0.141333 2.30106 1226051856
-0.39464501 -0.26192099 2.2809899 1243684378
0.93616003 -0.136237 2.47753 1226115850
-0.53547102 -0.21809299 1.54171 1245322775
-0.35425699 -0.26432899 2.44227 1244146208
0.94645703 -0.131813 2.4839101 1225985293
0.113907 -0.109665 0.987158 1248412465
0.16798 -0.189432 2.22821 1226775058
-0.12555499 0.0121242 0.807118 1272944764
-0.49232 -0.215074 1.64275 1249594435
0.207756 -0.180144 2.2263401 1244605219
-0.61892098 -0.209778 1.42953 1244928536
0.160207 0.10774 0.91156501 1244149302
-0.21774501 -0.22544201 2.3694301 1244737579
-0.62303603 -0.082257301 1.53466 1246504991
-0.625718 0.075975999 1.55765 1246571296
-0.21589001 -0.221604 2.3675799 1245790779
-0.524059 -0.20708001 1.62932 1248545089
-0.54940599 0.116867 1.78462 1244145443
0.118145 -0.098527297 1.01135 1270514023
0.93986303 -0.093958899 2.4456601 1225789198
-0.047449101 0.032453299 0.839616 1247765600
-0.26554501 0.0088063003 0.80905402 1272033179
-0.436189 -0.201865 1.95043 1244144927
-0.602198 -0.192385 1.47308 1244927756
-0.29265699 -0.201013 2.2890201 1245658423
-0.047842301 0.033269901 0.83764797 1247634013
-0.122974 -0.115999 1.01723 1271638656
0.157386 0.131421 0.95643598 1243820075
-0.55950999 0.126754 1.79431 1245197615
-0.243954 0.0142171 0.79974103 1272554886
-0.117457 -0.105234 1.00125 1271902598
-0.56206501 -0.16942599 1.49774 1245124883
-0.57712799 0.13492399 1.75274 1244343073
0.145432 0.15208299 1.01762 1244215093
0.14951999 -0.075470001 1.02242 1249600079
-0.093213603 -0.050466102 0.915268 1267374455
-0.075636901 -0.094877698 0.98455399 1267173997
0.104069 -0.076437898 1.03418 1247565137
-0.248923 -0.112644 1.00464 1273988478
-0.075441398 -0.093423702 0.980753 1249277788
-0.431692 -0.155065 1.8695 1244208669
0.108704 -0.074311703 1.02663 1247168312
-0.1135 -0.096361898 0.98777598 1272426884
-0.25574899 0.18465699 1.10672 1246315579
0.106352 -0.073119096 1.02543 1247104581
-0.44390601 -0.149187 1.74437 1246376230
-0.69960499 0.107986 1.58311 1246440477
-0.25403401 -0.109737 1.00053 1273263727
-0.111594 -0.094054699 0.98320502 1269668707
-0.132135 0.279805 1.42441 1245399109
-0.61399901 -0.153382 1.41752 1244926736
-0.075008199 -0.086563699 0.97043699 1249803101
-0.458217 -0.14048401 1.67018 1246769187
-0.26215199 -0.105098 0.99098402 1273330291
-0.101806 0.0448705 0.828246 1267822171
-0.098228797 0.045359701 0.829193 1249400645
-0.76245701 -0.161103 1.46499 1247094301
-0.30604899 -0.106034 1.06062 1246052668
-0.53816301 -0.136283 1.59556 1247886642
0.072489098 0.059951998 0.80381697 1247565906
-0.30971301 -0.104272 1.05937 1247631700
-0.135051 0.046111099 0.827205 1268217184
-0.70391899 -0.151342 1.65939 1246242078
-0.53984499 -0.13299701 1.5892 1246637349
-0.272291 -0.098870099 0.98479098 1273990275
0.200627 -0.0476069 0.97028202 1249012065
-0.147008 0.0458933 0.82588202 1269269103
-0.31427199 -0.101859 1.05155 1246447170
-0.60221303 -0.132349 1.4251601 1245123346
-0.69181103 -0.14115299 1.45311 1246702110
-0.106348 -0.075543404 0.95373499 1271314827
-0.0934636 -0.072225302 0.94769102 1267972019
0.201407 -0.038866799 0.952088 1246774844
-0.128143 -0.074088402 0.94893903 1269405565
-0.2432 -0.0852862 0.96377802 1272754322
-0.073644497 -0.066912003 0.94177002 1266713708
-0.137097 -0.073151 0.95022798 1267701616
-0.62999201 0.167622 1.7055 1245987122
-0.152123 -0.071661197 0.94471902 1267507063
-0.56589401 -0.110995 1.46571 1244600082
-0.26960301 -0.0831054 0.95737898 1272362631
0.201621 -0.031163201 0.93679398 1246181168
-0.118468 -0.063088097 0.93386501 1267446410
-0.197997 0.046259999 0.82312697 1269268586
0.20158701 -0.0249738 0.92459899 1245853744
-0.74564499 0.142462 1.58829 1245519889
-0.22339199 -0.070144303 0.93887299 1267566193
-0.122787 -0.0587321 0.926166 1248499830
0.068501703 0.068624102 0.79987103 1247169861
-0.555107 -0.086776704 1.59654 1247623469
-0.61949599 -0.096304201 1.46122 1246702621
0.0029029101 0.065535299 0.80399603 1246511668
-0.093326099 -0.051472802 0.91438901 1249607785
-0.56040198 -0.081920199 1.58697 1245784096
-0.25397199 0.047127001 0.81994098 1267557972
-0.26249099 -0.065429501 0.92905003 1272622989
-0.149232 -0.052705199 0.916287 1268099199
-0.60621297 -0.083021604 1.47418 1246703141
-0.119086 -0.049004901 0.90914297 1249149548
-0.090119198 -0.044819798 0.90258098 1248491869
0.20187099 -0.0124996 0.90048897 1247433032
-0.127653 -0.048113599 0.909702 1267506286
-0.60198098 -0.077863701 1.4874001 1245782296
-0.23319 -0.058770198 0.92152202 1269401205
-0.22455101 -0.057975899 0.91724801 1266778977
-0.33164299 -0.062055599 1.01355 1246641978
-0.25845501 -0.058063101 0.91806197 1272556687
-0.26321301 -0.057348199 0.91870302 1272361348
0.201417 -0.0052972301 0.88442302 1247630926
-0.58564699 -0.062922701 1.4964499 1246571554
-0.113946 -0.0388286 0.89437199 1266914662
-0.67818099 0.18923301 1.66355 1244606503
-0.15243299 -0.040740099 0.89454299 1268950679
-0.17227601 -0.039535001 0.89210701 1267045232
-0.130806 -0.0350977 0.88833898 1267441269
-0.25504699 -0.047743801 0.90053397 1273345945
-0.098434202 -0.0308118 0.87931299 1267109231
-0.33135799 -0.0493198 0.99744898 1246116917
-0.23195 -0.044156 0.89722198 1268022629
-0.0571553 -0.021676401 0.91370499 1248422760
-0.69645798 -0.055786598 1.50283 1249857337
-0.106502 -0.0283859 0.87645799 1249347676
-0.687132 -0.052914102 1.45052 1248541475
-0.25413901 -0.0412126 0.889943 1272424844
-0.172262 -0.0165205 0.85053098 1268291693
-0.21293201 -0.035841499 0.883349 1267638143
-0.11862 -0.0255365 0.87003899 1249147492
-0.158545 -0.0280062 0.87432498 1268359034
-0.331267 -0.038855199 0.98432398 1244539688
-0.196427 -0.030904699 0.87743598 1249480308
-0.140322 0.068818599 0.79773402 1249077336
-0.62384301 -0.030645199 1.5144 1249200186
-0.041098502 0.080785401 0.80518001 1245133109
-0.26966101 -0.0347436 0.88258302 1268881282
-0.91276801 -0.045520701 1.64212 1267423044
-0.108145 -0.017650001 0.85980499 1268224633
-0.25529701 -0.032572199 0.87495202 1273344920
-0.21300299 -0.02444 0.866615 1267576979
-0.57210898 0.000226006 1.60016 1246702368
-0.26937699 -0.028568899 0.87318599 1269011838
-0.23037601 -0.022217199 0.86268699 1269074294
-0.199763 -0.018870501 0.85503501 1248821864
-0.51204199 0.0337025 1.7681201 1244010258
-0.269104 -0.023054801 0.86462599 1268419451
-0.110575 -0.0082462197 0.83050901 1272495001
-0.204377 -0.0153079 0.85086501 1268162178
-0.222119 -0.0141759 0.84906298 1270518144
-0.53105998 0.0573989 1.7664 1226445070
-0.61639398 0.014881 1.46734 1247687718
-0.208903 0.069946699 0.79536498 1244801310
-0.53150302 0.058338799 1.75225 1226379529
-0.0508973 0.0139287 0.872329 1247501915
-0.268392 -0.0125531 0.846578 1267105391
-0.54438001 0.067548104 1.77693 1226511117
-0.83330601 0.207427 1.62086 1226378504
-0.76394999 0.225041 1.6681 1245460527
-0.51476002 0.094788499 1.82836 1245527346
-0.0495307 0.0241878 0.85517901 1247764830
-0.048330799 0.026119201 0.85140198 1247831136
-0.53372198 0.106663 1.82207 1244606246
-0.068590403 0.0223534 0.81330198 1248352587
-0.55719799 0.121129 1.82842 1244079387
-0.25183699 0.0707241 0.79081798 1247892812
-0.26639199 0.0070271301 0.81285799 1269928581
-0.069343701 0.035776701 0.82324499 1267231837
-0.67312098 0.080989897 1.54579 1247819818
-0.56718498 0.128424 1.76245 1244342558
-0.32435301 0.018925 0.88475603 1247696716
-0.58313698 0.137373 1.74912 1244080671
-0.63133299 0.127635 1.7180099 1226575117
-0.79936802 0.231359 1.6014301 1244079129
-0.63853002 0.13165 1.70228 1226510093
-0.72845 0.0896262 1.5174201 1248542771
-0.323477 0.024416801 0.871768 1247630923
-0.68711102 0.103888 1.5448 1246111514
-0.61009598 0.15406699 1.75139 1244539941
-0.612257 0.155936 1.72094 1244869160
0.0104567 0.34413299 1.4224499 1244478264
0.019674599 0.062694803 0.803855 1246973510
0.068811201 0.068895601 0.79965299 1246577465
-0.67524099 0.149592 1.66188 1225919236
-0.634422 0.166565 1.70412 1244146207
0.0087764896 0.067264698 0.80345398 1249537119
-0.69849199 0.15713 1.64647 1243681293
-0.32191899 0.039553698 0.84820902 1248025682
-0.26656201 0.038382001 0.80964398 1269008250
-0.65212703 0.17681099 1.68463 1245000489
-1.18197 0.62438601 3.0524399 1247434827
-0.65354401 0.177708 1.6837699 1244606244
-0.86997098 0.25354099 1.58313 1245328684
-0.71282297 0.164106 1.64171 1226444294
-0.32124299 0.043332301 0.84172899 1248618332
0.146837 0.12969001 0.97683698 1245266752
-0.90047401 0.260261 1.58321 1243816215
-0.73161697 0.17169499 1.63702 1226246404
-0.20414101 0.303743 1.48869 1247370321
0.136472 0.167098 1.11638 1244934959
0.153732 0.137803 0.96573699 1226580771
-0.74537498 0.176376 1.61184 1226509576
0.145834 0.150087 1.01495 1244674357
-0.76098299 0.18176 1.6125799 1226641675
-0.309672 0.0559416 0.80472302 1248947552
0.13846 0.17095999 1.05049 1245267266
0.13670801 0.188192 1.11906 1244739633
0.152376 0.167427 1.02273 1244346163
-0.739806 0.16953599 1.47914 1226771974
-0.67502803 0.240146 1.73456 1246907200
-0.30416101 0.057126898 0.79813403 1266777967
0.14149199 0.17854799 1.06742 1244477236
0.153285 0.172203 1.03264 1244674615
0.81666702 0.451444 1.8252701 1247304018
-0.74027801 0.212244 1.6242 1244605475
-0.305547 0.060570098 0.79996997 1249275745
0.14134 0.200023 1.11173 1244413240
-0.53504503 0.033890299 0.79102999 1246702364
0.137281 0.20363601 1.12134 1244542514
0.151178 0.195723 1.07795 1244082989
-0.76698202 0.17616899 1.43888 1226444553
-0.29251301 0.065170303 0.78709799 1248681809
-0.77163702 0.223528 1.6132801 1245000745
-0.77681398 0.225778 1.61069 1245329452
-0.269077 0.21535701 1.09717 1246185024
-0.0820392 0.044940699 0.83022201 1249072713
0.15037701 0.21567599 1.11707 1243753513
-0.80149603 0.232867 1.6043 1244408866
-0.25435099 0.227521 1.11044 1247763796
-0.87048203 0.21913999 1.6387 1226443527
-0.30073401 0.080050103 0.799384 1247631947
-0.26252401 0.067608103 0.79233199 1266710894
-0.25274399 0.0673436 0.79075402 1247301185
0.137292 0.27930599 1.12868 1244609329
0.122532 0.31660801 1.43441 1245333060
-0.80638897 0.235687 1.61667 1244341277
-0.284183 0.084254198 0.79381698 1246382656
-0.442426 0.33533299 1.43188 1248224859
0.061555501 0.362409 1.3698601 1245333574
0.249768 0.360232 1.31091 1245201985
-0.820732 0.240537 1.63308 1244408353
