# .PCD v0.7 - Point Cloud Data file format
VERSION 0.7
FIELDS x y z rgb
SIZE 4 4 4 4
TYPE F F F U
COUNT 1 1 1 1
WIDTH 1122
HEIGHT 1
VIEWPOINT 0 0 0 1 0 0 0
POINTS 1122
DATA ascii
-0.98741198 0.50019401 0.87282997 1274002575
-0.23486701 0.57493901 0.68234098 1225985546
-0.52658999 0.49556401 0.846919 1226511890
-0.232998 0.48028001 0.81427801 1247169861
-0.50523698 -0.118259 0.964827 1245522979
-0.78236401 0.62610501 0.70129901 1246642486
0.064333498 0.459647 0.86883402 1269994883
-0.236258 0.47887301 0.78532797 1246511933
-0.23462901 0.47904 0.787651 1226510861
-0.23613299 0.478627 0.78093898 1244603938
-0.243527 0.59667999 0.68150502 1245191951
-0.77662998 0.48036301 0.778386 1247298871
-0.51999903 0.49795899 0.82251698 1225788426
-0.200113 0.48679 0.92873001 1249405533
-0.85231102 0.49437299 0.808092 1271497295
-0.84407902 0.530393 0.89303201 1246504977
-0.53254598 0.49059501 0.78751099 1244406043
-0.77693498 0.477106 0.75771397 1246904372
-0.866234 0.62697297 0.708781 1247036219
-0.237324 0.47807801 0.76113403 1225982978
-0.48608699 0.47523001 0.90668398 1245326628
-0.85361302 0.494335 0.79095203 1269982518
-0.49247 0.47973701 0.90965402 1245064235
-0.534612 0.62358302 0.71141899 1246314293
-0.53511399 0.48990199 0.74833 1244735262
-0.85468501 0.494326 0.78171003 1270180662
-0.787718 0.49412301 0.74471402 1246639658
-0.84560901 0.52494699 0.84360701 1246175241
-0.52489901 0.49351299 0.73125899 1226052369
-0.59778702 0.54222798 0.48506999 1247694401
-0.241502 0.476928 0.73378301 1247037247
-0.24593601 0.475243 0.690808 1245260581
-0.85759801 0.492854 0.73987103 1270311478
-0.22270399 0.487535 0.71787298 1226444557
-0.489351 0.359402 0.97697097 1269798781
-0.20933101 0.487672 0.88737798 1226381587
-0.51379699 0.37924799 0.95034897 1248417608
-0.220676 0.48853999 0.877868 1243683345
-0.51293898 0.40005901 0.95014697 1248812363
-0.088841699 0.63711798 0.63134497 1267037033
-0.25145099 0.47878799 0.65519899 1226246923
-0.50738502 0.48703101 0.89074397 1244144416
-0.85211802 0.51095802 0.699628 1269654059
-0.50978202 0.48730499 0.87741101 1225853960
-0.85170299 0.51759303 0.70256698 1268010016
-0.41698301 0.44839799 1.00583 1270719883
-0.78812897 0.51504898 0.69194198 1244866594
-0.73884398 0.65418398 0.69085199 1247825987
-0.788715 0.50085598 0.69715601 1245917225
-0.53457499 0.50505102 0.68746299 1244604189
-0.78760099 0.51890302 0.69087499 1244669988
-0.38297099 0.63584 0.61953402 1248023112
-0.50396401 0.625799 0.69138098 1245524521
-0.55156898 0.63129902 0.67323399 1244208660
-0.49112201 0.35618901 0.95807302 1269864574
-0.66429001 0.61897999 0.65737599 1245260584
-0.65541703 0.619353 0.61037099 1248154698
-0.51480103 0.356181 0.950073 1248746317
-0.85140997 0.59706098 0.70608002 1267747879
-0.90658599 0.45260501 0.85842597 1273605247
-0.46287799 0.386471 0.97765303 1269732987
-0.30854201 0.63877302 0.67505199 1247365952
-0.51392698 0.38952899 0.94490802 1248812620
-0.98204798 0.50671703 1.00419 1274396309
-0.51463199 0.35636801 0.95502198 1248418121
-0.226533 0.61363697 0.66979402 1244143644
-0.67056 0.60485101 0.61192101 1247826505
-0.51808101 0.412341 0.89558101 1248682063
-0.51814699 0.388163 0.90851498 1246774326
-0.77258497 0.422012 0.92072302 1266904672
-0.16105001 0.94175702 1.25826 1226376705
-0.51192898 0.432684 0.95494998 1249008968
-0.51221198 0.44856799 0.95553201 1245524509
-0.51119602 0.46144599 0.95624101 1247432253
-0.51100898 0.45355299 0.95515603 1248746826
-0.187805 0.48088601 0.93691897 1267036512
-0.97855002 0.64631701 0.70678103 1248548168
-0.52157801 0.490318 0.74054199 1244472607
-0.26308799 0.55692703 0.56892902 1245917736
-0.49362001 0.48114499 0.910133 1245261606
-0.192608 0.48201501 0.93568599 1269404288
-0.234348 0.48846599 0.71250302 1225394439
-0.211583 0.489052 0.85382402 1225592075
-0.44612199 0.677068 0.81728399 1249794620
-0.39827701 0.604105 0.60801601 1247168573
-0.216902 0.491741 0.93630499 1266775139
-0.224222 0.48792499 0.82951099 1226709783
-0.24780899 0.64305401 0.63245201 1248417611
-0.215874 0.48715201 0.80451602 1226775311
-0.480257 0.48325101 0.955531 1247695426
-0.27032501 0.56538802 0.63024199 1246177815
-0.469235 0.57248902 0.63648999 1226576910
-0.21780699 0.487831 0.769162 1244276001
-0.76770902 0.45328599 0.90507901 1269798523
-0.241653 0.57236099 0.63784498 1246770213
-0.497235 0.48204899 0.90754002 1244735521
-0.45872301 0.39053401 0.97338998 1269930109
-0.50081599 0.48399901 0.90464997 1244472097
-0.23060399 0.48293501 0.94149899 1269865347
-0.211045 0.48959801 0.85906798 1226380304
-0.50627702 0.48793 0.90023899 1226314771
-0.84238398 0.49972999 0.94915998 1269065532
-0.84428197 0.499605 0.931633 1270182979
-0.18698899 0.64452302 0.63764501 1248549710
-0.81428701 0.514238 0.98627597 1267494233
-0.510001 0.494059 0.90468103 1243882785
-0.50989401 0.493157 0.89239299 1244672046
-0.222552 0.59392798 0.67681199 1244206607
-0.50221801 0.61796099 0.70294797 1244802090
-0.241477 0.475779 0.73283702 1243945492
-0.53775698 0.49130899 0.69420302 1245525035
-0.24470299 0.47534499 0.70851803 1246510905
-0.224558 0.52863199 0.67864299 1244274968
-0.53436399 0.60338902 0.68954998 1246177555
-0.224555 0.53073603 0.678002 1244143382
-0.51845503 0.61583799 0.69458801 1243683348
-0.127075 0.46268499 0.90693903 1267497575
-0.53570497 0.537126 0.67495501 1243815447
-0.51525003 0.494735 0.846883 1244342052
-0.53286803 0.60491598 0.69835198 1247032093
-0.849177 0.63758701 0.72138 1226510859
-0.24248201 0.62912798 0.68671203 1248418900
-0.228017 0.48924601 0.78433102 1244340766
-0.169405 0.64447302 0.69477201 1244209177
-0.16522101 0.46267101 0.90461498 1249602136
-0.48221001 0.47869101 0.69445097 1246116144
-0.234165 0.48560801 0.73349702 1244406817
-0.299059 0.64705902 0.705944 1246182708
-0.53619599 0.509664 0.68628103 1245985077
-0.101042 0.64390999 0.68075901 1247825987
-0.532758 0.49709001 0.78506702 1226643211
-0.127838 0.64305502 0.63868397 1249535579
-0.53446698 0.48712501 0.75894898 1244801312
-0.240318 0.48078001 0.94287598 1270062218
-0.116503 0.64463001 0.67662698 1248220232
-0.52123898 0.49424499 0.76437002 1244473124
-0.31859401 0.64651 0.69995803 1247300157
-0.85202402 0.52455097 0.76198202 1246766857
-0.082787901 0.64207602 0.65655398 1248352071
-0.26250201 0.616005 0.678101 1246446139
-0.30482 0.64636701 0.68685502 1248155468
-0.54261202 0.64412302 0.65851998 1248682325
-0.52234298 0.495314 0.74339199 1245393460
-0.51403898 0.365197 0.95407701 1248877640
-0.217288 0.485232 0.67828602 1246906430
-0.51309901 0.387858 0.95468003 1249141837
-0.52489197 0.49886501 0.71613199 1226248977
-0.51295602 0.395358 0.95498699 1248878412
-0.525365 0.49859101 0.71207303 1208091138
-0.51218498 0.398635 0.95453 1267695210
-0.52465498 0.50005102 0.70766699 1225459973
-0.51264602 0.40670899 0.95434499 1248615762
-0.53529501 0.50693798 0.687163 1244931871
-0.43712601 0.41547301 0.96115601 1272298654
-0.225972 0.56913501 0.68297702 1226051349
-0.51244199 0.41422299 0.95418698 1248614988
-0.53583801 0.53535098 0.67792898 1243749398
-0.51205099 0.42473799 0.95438802 1248681294
-0.51794702 0.409444 0.90381098 1246248752
-0.234501 0.58137298 0.685574 1226117644
-0.168657 0.645769 0.69736803 1244208918
-0.51694298 0.35767299 0.923253 1246774068
-0.13422 0.64324701 0.68633699 1247759940
-0.21301 0.62760502 0.69682199 1245262897
-0.128031 0.65216899 0.69453698 1248287052
-0.061197702 0.62476599 0.66060799 1247760969
-0.21454599 0.634718 0.68461198 1249078115
-0.51149499 0.43971801 0.95449603 1248746825
-0.53313202 0.60475099 0.69473499 1248020788
-0.51846898 0.42323199 0.90867001 1246313262
-0.53383601 0.624349 0.71563601 1245523758
-0.21404301 0.49570999 0.91978699 1244931871
-0.471497 0.37078601 0.97906703 1271509140
-0.2183 0.48936501 0.90430099 1244668699
-0.76847202 0.375705 0.933801 1269337719
-0.219437 0.48924899 0.73441303 1244274715
-0.14523 0.64637601 0.68367201 1248944984
-0.25496101 0.64557499 0.69437301 1247037247
-0.518677 0.37537101 0.90909499 1247431743
-0.34592801 0.65127599 0.71087497 1246971196
0.077185497 0.47049901 0.88938802 1270324359
-0.52159899 0.49652699 0.74892801 1245261613
-0.48219299 0.47691 0.91575599 1244866847
-0.53569502 0.489566 0.73583299 1244801054
0.081109002 0.47280201 0.89068103 1269995394
-0.221715 0.49210501 0.710127 1226313227
-0.38995001 0.491537 0.98302197 1269668744
-0.33839199 0.479397 0.94962502 1267958642
-0.42547101 0.47954199 0.95435703 1267235173
-0.38145599 0.47901201 0.94998598 1249470809
-0.18471999 0.475934 0.92703801 1249864028
-0.483697 0.48648301 0.96003902 1248089154
-0.21585301 0.49044999 0.78937101 1225853959
-0.52374202 0.499093 0.71236098 1243748888
-0.426465 0.602359 0.704979 1247164965
-0.22730599 0.48216 0.93298501 1267629679
-0.37761599 0.46724999 0.71879601 1246840635
-0.52285099 0.50159901 0.70871699 1226446612
-0.562828 0.60088599 0.67586797 1245981468
-0.59244502 0.60245901 0.67983198 1244666898
-0.220475 0.49160701 0.72114301 1243684377
-0.53685498 0.49506101 0.69327199 1244801567
-0.22133499 0.521137 0.68351698 1226578455
-0.191328 0.63102299 0.67771798 1246049839
-0.2384 0.64134598 0.69454598 1245590566
-0.25558299 0.64476597 0.69341803 1246379837
-0.255734 0.64505899 0.69281602 1246181945
-0.53580201 0.50953299 0.68677098 1245722414
-0.109913 0.472507 0.92347902 1247761474
-0.51677799 0.343384 0.96205902 1268024433
-0.31015199 0.679331 0.78955799 1248677945
-0.36310899 0.60092503 0.69873899 1247822628
-1.07566 0.237515 1.00226 1273146757
-0.46349999 0.48153299 0.95631999 1246247722
-0.51202101 0.49004 0.84489399 1245131309
-0.226974 0.48690301 0.81235898 1246445110
-0.51379102 0.48945299 0.82380903 1244473891
-0.21565901 0.489546 0.79110801 1226577684
-0.514745 0.49092001 0.80405402 1247565136
-0.21620101 0.489999 0.77571201 1244341278
-0.516078 0.48921201 0.79181802 1244078366
-0.217834 0.49036601 0.75865197 1226117645
-0.37830201 0.46520001 0.71659702 1246708281
-0.67309701 0.61908197 0.68831098 1226312967
-0.232536 0.48607501 0.736148 1226774545
-0.48018801 0.61925 0.710334 1245919537
-0.233403 0.485374 0.727844 1226511370
-0.23781601 0.48016 0.71518999 1245460259
-0.36343601 0.64638001 0.65201998 1248878675
-0.233896 0.49634501 0.69004101 1244867618
-0.23497801 0.48442301 0.71540201 1243881501
-0.671812 0.618393 0.68848699 1245327142
-0.67751497 0.61861199 0.68895501 1245326887
-0.228798 0.48324001 0.93906498 1268220782
-0.222037 0.49141699 0.70784402 1226183696
-0.76672602 0.34516999 0.97101098 1270587530
-0.344859 0.478585 0.69452798 1245787694
-0.49985 0.35244301 0.97683102 1270588299
-0.37338099 0.47749901 0.69384402 1244934181
-0.833009 0.48346701 0.94569701 1249403466
-0.35537601 0.47554201 0.68939501 1245195556
-0.58752 0.60400403 0.68124002 1244470283
-0.30289999 0.478001 0.688829 1245590571
-1.0755399 0.29277301 1.00486 1272419692
-0.38045001 0.64694297 0.65583599 1249010261
-0.51359999 0.35128501 0.95239401 1267103327
-0.239741 0.47995299 0.684874 1244013087
-1.07504 0.29781401 1.00429 1272355960
-0.452443 0.47673401 0.69187897 1245590834
-0.520859 0.49652699 0.77534401 1243748633
-0.48610699 0.36060899 0.97584701 1271179921
-1.07609 0.1732 0.99800402 1271896179
-1.07517 0.30996299 1.00447 1271370088
-0.4948 0.478109 0.69089198 1246576696
-0.71924502 0.602458 0.68544799 1244272909
-0.24033099 0.48220599 0.676961 1244999465
-0.47857499 0.36457101 0.96320599 1270522502
-0.426292 0.65184098 0.66732901 1248813396
-1.0753599 0.314154 1.0038 1270513751
-0.52395201 0.499668 0.72349602 1243750687
-0.59349602 0.647587 0.69880003 1244801312
-0.23194399 0.49934599 0.69164699 1226314767
-0.51178199 0.38554299 0.947303 1246181929
-0.387308 0.65185201 0.70177603 1248418640
-0.51672101 0.397807 0.90744799 1246511154
-0.411504 0.65180397 0.670533 1248352331
-0.511576 0.423224 0.956101 1247695169
-0.49006599 0.653274 0.69363499 1247169086
-32.098202 45.420502 67.577103 1266706009
-1.47307 0.199598 1.35435 1272284498
-1.45425 0.30783799 1.36832 1270251092
-1.46778 0.201271 1.34958 1272087117
-1.4758 0.203517 1.36081 1272679254
-0.411255 0.60121399 0.70245099 1246309656
-1.45266 0.310794 1.37559 1269592650
-1.11815 0.20902701 1.35022 1249731143
-0.365762 0.47935301 0.95033699 1248286026
-0.36968401 0.48856699 0.97362 1248615502
-0.34863299 0.49310699 0.98106098 1246181162
-1.4711699 0.22894099 1.36335 1272678997
-0.33457899 0.47803101 0.945149 1247761218
-0.33787099 0.60076499 0.69678301 1246638618
-0.32869399 0.47810999 0.944978 1247628862
-1.24133 0.23330501 1.3495899 1272022607
-1.47097 0.23410299 1.36077 1272021067
-0.829889 0.50520998 0.99846601 1248680256
-1.47694 0.23727199 1.36845 1271823688
-0.16252001 0.48198101 0.94887501 1268351602
0.0110488 0.46858701 0.90200001 1248220491
-1.47574 0.243514 1.36544 1271429187
-0.29459 0.47485 0.93708801 1267300199
-0.220384 0.58674699 0.67206103 1244667930
-0.384363 0.47848901 0.95060402 1270063759
-0.48021001 0.60324198 0.70885998 1247493414
-1.47545 0.24799401 1.36576 1271166015
-0.35730699 0.47958699 0.949709 1249141330
-0.451877 0.60229498 0.70576298 1249203251
-0.236589 0.482265 0.944426 1269471366
-0.43134701 0.60252702 0.704597 1249531956
-0.301613 0.64940298 0.68626797 1248221261
-1.47208 0.254172 1.3622 1271099963
-0.25272101 0.64251298 0.63306803 1249273433
-0.38476899 0.59831601 0.69638801 1267163710
-1.47269 0.264736 1.36586 1270576969
-0.37500301 0.60187501 0.69988501 1267491135
-0.35687301 0.60183501 0.69856799 1266833979
-0.56213802 0.65693903 0.70393699 1246379570
-0.29899999 0.600501 0.692949 1248543785
-1.45971 0.121711 1.32093 1272481875
-1.47521 0.27128199 1.36491 1269261369
-1.11901 0.126523 1.35287 1271109749
-0.37782201 0.46672201 0.71729398 1247168832
-1.12229 0.12770601 1.35543 1270775637
-1.44998 0.271615 1.3514 1272221791
-1.1194201 0.131874 1.3541 1270055520
-1.46578 0.13133401 1.3292201 1271889738
-1.44025 0.28034899 1.37729 1273015438
-1.46172 0.132302 1.3279999 1272613461
-0.16988599 0.47780201 0.68465602 1246510902
-1.46638 0.13661499 1.3315901 1271758152
-1.4724801 0.283382 1.37001 1271104851
-0.51747602 0.423015 0.90368402 1246445363
-1.46373 0.140854 1.33321 1272152910
-1.07567 0.23536099 1.0027 1273804432
-1.1187299 0.14437599 1.35045 1271173999
-1.39967 0.265921 1.2074701 1269336431
-1.40123 0.29422599 1.3696001 1270051905
-0.16336399 0.59101999 0.670748 1247427362
-1.4651099 0.146155 1.33514 1271166015
-1.44881 0.291419 1.34315 1267428182
-0.194226 0.47598401 0.67884302 1245655851
-0.110356 0.46692199 0.91804898 1267761261
-1.46842 0.153506 1.33637 1272547409
-1.1188 0.16051701 1.35241 1270713961
-1.40625 0.294525 1.3520499 1269789773
-1.11888 0.164698 1.35106 1269990495
-1.43077 0.30112401 1.38466 1270977130
-1.0813299 0.13965 1.03742 1273021347
-1.47855 0.30127701 1.37532 1267817530
-1.11856 0.18275 1.3483 1269597022
-1.47742 0.30285901 1.37131 1267882296
-1.40354 0.30841801 1.36001 1270642248
-1.47496 0.30316499 1.37288 1268341298
-1.46859 0.183153 1.35043 1271955531
-1.43705 0.30320999 1.36454 1248347447
-1.47127 0.185138 1.34905 1271626566
-1.4054101 0.30564001 1.37622 1269064507
-1.4677 0.19271301 1.3498 1272284496
-1.45842 0.30419999 1.36498 1270382680
-1.11833 0.19988699 1.35673 1271177343
-1.45543 0.306903 1.3671401 1269331011
-0.372715 0.47856 0.948268 1249405016
-1.40491 0.310249 1.37624 1271038797
-1.47805 0.34511301 1.3752199 1271035460
-1.47335 0.34479901 1.37343 1271431240
-1.47604 0.31121099 1.36695 1271562829
-0.22185799 0.55390602 0.68016702 1226380301
-1.47716 0.31712499 1.37413 1269982768
-1.23922 0.34624001 1.34452 1271693642
-0.411695 0.616992 0.70233297 1245787433
-0.25122201 0.64431 0.68891698 1246840119
-1.14108 0.37750101 1.33719 1271627589
-1.37938 0.32352999 1.34814 1272153933
-1.47478 0.35210401 1.37498 1270312503
-1.47574 0.330392 1.3769799 1270376500
-1.4762 0.35325801 1.36955 1271101503
-1.47155 0.274506 1.35505 1269131574
-1.50805 0.35488999 1.34699 1272153680
-1.4741 0.33983999 1.37766 1271694156
-1.07077 0.28698599 1.0125901 1273416878
-1.42915 0.27864099 1.36484 1271168582
-1.46 0.198874 1.3297499 1272416082
-1.47896 0.36654401 1.38219 1269521960
-0.76529002 0.35205901 0.97425097 1245591082
-1.14484 0.36556301 1.35823 1271102019
-1.46067 0.205419 1.33176 1272415823
-1.44681 0.282334 1.35414 1269796980
-1.23822 0.36220899 1.34339 1271496263
-1.07726 0.14850301 1.01627 1274467765
-1.46182 0.21316899 1.33471 1272350029
-1.42594 0.28745699 1.36375 1268934462
-1.19201 0.36456299 1.34083 1271496777
-1.4751 0.465895 1.38342 1270837567
-1.3990999 0.28613099 1.34776 1270247233
-0.47467101 0.36953899 0.99524999 1268877681
-1.07478 0.29364401 1.01861 1272890791
-1.47723 0.465249 1.37714 1270378045
-1.23418 0.40715 1.33937 1271626819
-1.47866 0.377893 1.38004 1270179627
-0.47880501 0.367735 0.98610699 1268417130
-1.47972 0.38007101 1.37927 1271955782
-1.4452699 0.288802 1.32692 1268019290
-1.44383 0.28904799 1.32827 1267165012
-1.4634 0.235413 1.3414299 1272284750
-1.47693 0.478284 1.38773 1270772027
-1.39852 0.29104999 1.3375 1268737077
-0.75825799 0.36851299 0.973822 1246445110
-1.14467 0.48113701 1.36542 1270707261
-1.47909 0.48183301 1.38316 1270378296
-0.76984298 0.369535 0.97180802 1267300712
-1.4733 0.34289399 1.3650399 1270443062
-1.45983 0.301956 1.36471 1270907481
-1.4802001 0.49090299 1.39657 1269917749
-0.105062 0.58802801 0.66238701 1248480043
-0.61211902 0.343703 0.97676998 1268484986
-1.4784 0.48771101 1.38202 1270049080
-0.58500999 0.343707 0.97410798 1249865306
-0.76933402 0.37725601 0.97296101 1249668442
-0.77076101 0.36725801 0.94085199 1246577466
-1.4772201 0.389507 1.3838201 1269720111
-1.47603 0.49342901 1.37231 1270707010
-1.4110301 0.31203699 1.38019 1269919806
-1.33547 0.49533501 1.36228 1271167298
-1.38282 0.394355 1.35902 1272088140
-1.47755 0.50282103 1.3903 1270312508
-1.51029 0.39401501 1.35551 1271824198
-0.77196097 0.37197801 0.93322003 1246511673
-1.47314 0.3105 1.3626601 1270838081
-0.77114898 0.38688499 0.974262 1270194311
-1.4356101 0.31094801 1.36309 1270182471
-1.47646 0.407572 1.38411 1270443836
-0.51655602 0.37654099 0.92700899 1248944718
-1.19129 0.402426 1.34694 1271233605
-0.51095301 0.380018 0.93756801 1249800026
-1.38039 0.40286401 1.35033 1272219724
-0.52759999 0.47743401 0.68289202 1245261356
-1.14434 0.40670601 1.35174 1271102019
-1.42588 0.505871 1.35412 1271430210
-0.60840201 0.33934599 0.95659399 1248878672
-1.24034 0.40908501 1.35263 1271825479
-0.76845902 0.39571601 0.97836 1266839902
-0.16091099 0.638044 0.68365699 1247169860
-1.47901 0.41774499 1.38161 1270245681
-0.77300102 0.37937701 0.92585999 1246511673
-1.4748 0.33676001 1.36885 1270706236
-1.4787199 0.42708001 1.3803101 1270640441
-0.51125902 0.388713 0.93630499 1247299640
-1.47607 0.42748001 1.38166 1269850923
-0.76873302 0.39785701 0.97634703 1249076303
-0.66052699 0.34227401 0.96934402 1248089927
-0.77271903 0.381515 0.92693102 1246248501
-1.28637 0.434948 1.3491 1271430467
-1.4723901 0.51499099 1.3657 1269720372
-1.47677 0.44392499 1.38399 1269194537
-1.0817 0.36295399 1.06821 1273022120
-0.51048398 0.39204699 0.93529397 1248615754
-1.47115 0.40592399 1.37002 1270639673
-0.767492 0.35636601 0.97755998 1249272916
-0.76250702 0.34638399 0.98635 1268285807
-0.77008599 0.40355301 0.97664303 1269602946
-0.59521401 0.347671 0.983118 1246312745
-0.51185 0.39495099 0.93312198 1246641710
-0.763731 0.347491 0.983823 1246970421
-1.47521 0.44795501 1.38081 1270180151
-1.47176 0.52615201 1.37283 1269655093
-1.2839299 0.413315 1.3464299 1271693642
-0.51090997 0.39673901 0.93294501 1247431996
-0.507954 0.351091 0.96865898 1247825728
-0.76776099 0.35191801 0.97390401 1248155975
-1.47205 0.52967203 1.37581 1270378817
-1.47631 0.43736699 1.37625 1270443062
-0.769687 0.410404 0.97740602 1269273985
-0.55327302 0.34019601 0.965783 1268551033
-0.769539 0.36476099 0.97819501 1269799556
-1.4729 0.53605598 1.37605 1269786679
-0.46800199 0.37321001 0.98887002 1268944501
-1.47955 0.62539601 1.38718 1269525053
-0.78573 0.537727 0.69683802 1226775320
-1.47847 0.62543201 1.3872 1267946793
-0.47755399 0.36927101 0.97297698 1267891814
-0.66038001 0.342255 0.96962798 1247496508
-0.50601399 0.36602801 0.960639 1248155463
-0.76416099 0.34540099 0.980524 1266774110
-1.47567 0.472853 1.37296 1271167298
-0.760732 0.34708399 0.986404 1246839094
-1.47453 0.54111803 1.37249 1269786935
-1.33199 0.44041699 1.34838 1271824966
-0.76793998 0.36910099 0.97723699 1249272916
-0.76923001 0.41915399 0.97807699 1268681848
-1.47525 0.632532 1.3882101 1269261877
-1.47106 0.44717801 1.37214 1270707000
-1.46167 0.47239199 1.34644 1270443574
-1.43018 0.44746301 1.36645 1272152902
-1.38966 0.454364 1.38861 1272021575
-0.76955497 0.37688601 0.97565699 1269405053
-1.4809999 0.63388002 1.38859 1269985604
-1.4745899 0.55115402 1.37218 1269919038
-0.76719201 0.48557499 0.97981 1249667672
-0.768565 0.37810999 0.976574 1267431779
-0.76884001 0.42694399 0.97858399 1268221297
-0.82920301 0.50482899 1.00093 1268550513
-1.4755599 0.53600901 1.3766 1270246714
-0.766599 0.49775201 0.98052597 1248746827
-0.768327 0.428141 0.97657299 1248023106
-1.47343 0.490751 1.37493 1269521965
-0.76882702 0.42962 0.97806901 1267957870
-0.82992297 0.50617999 1.00178 1248877887
-1.4608001 0.48313901 1.33771 1271758925
-0.82834798 0.50674999 1.0006599 1248943174
-0.76775199 0.435431 0.97822499 1247233334
-0.766756 0.49921599 0.97930503 1248286276
-1.47279 0.56934798 1.38 1270378300
-1.12124 0.57263201 1.36492 1267819322
-1.48137 0.66532499 1.40292 1271764592
-0.76852399 0.440833 0.97732598 1249864795
-0.51153702 0.381863 0.93807203 1247628606
-0.27430299 0.47141099 0.92352802 1248942666
-1.47536 0.50441903 1.37549 1270509112
-1.4699 0.54682899 1.37117 1269982772
-0.76773697 0.44255301 0.97674298 1246772527
-0.82253802 0.51208103 0.99861199 1249140554
-0.76862198 0.394391 0.97810602 1267761006
-0.76726198 0.395475 0.98137099 1248615503
-0.82342899 0.51286697 0.99814302 1246838314
-0.38916799 0.47824901 0.94932401 1248483396
-0.82166302 0.51311803 0.998622 1249337934
-1.4731899 0.58328599 1.37936 1268537643
-1.47145 0.54749101 1.36601 1270246714
-0.76825601 0.44758099 0.977368 1249075279
-0.37393299 0.47856501 0.94868702 1248351559
-1.47207 0.58554602 1.38186 1270050876
-0.508416 0.39206401 0.94110501 1247300668
-0.50773197 0.41577899 0.93215001 1247497273
-0.76936501 0.48875201 0.934596 1226774290
-0.83769399 0.49655899 0.95214701 1249725481
-0.76796299 0.43101299 0.98021603 1267234656
-0.44676101 0.503869 1.01731 1248812107
-0.51236898 0.48151201 0.89213002 1226248719
-0.76713997 0.45786199 0.98145002 1248746316
-1.47821 0.66592097 1.36693 1248286024
-1.47712 0.59758502 1.38305 1266960154
-1.47272 0.67140102 1.37911 1247233593
-1.4732 0.59692001 1.3811001 1268801327
-0.81656998 0.52071702 0.99716699 1246838832
-1.47718 0.59877598 1.3827699 1267618084
-0.814776 0.52104002 0.99779701 1248483657
-0.766316 0.45965701 0.98101902 1246378027
-1.47378 0.599805 1.38186 1268406312
-0.769885 0.49460199 0.934883 1244012311
-1.21601 0.61320698 1.25653 1270713703
-0.65144199 0.62170202 0.68950999 1245523745
-1.07476 0.52448303 1.01617 1268680048
-0.624789 0.620121 0.68594402 1245853485
-0.97582197 0.499066 0.95049298 1272355437
-0.47773099 0.60383999 0.70965898 1246704922
-0.089137897 0.46708801 0.91661298 1249206866
-0.132075 0.47074401 0.925614 1266839390
-0.52273899 0.50426197 0.70973599 1226118162
-0.393516 0.61690003 0.70087397 1244340760
-0.57052302 0.601179 0.674312 1246377248
-0.142055 0.47210699 0.926714 1248877900
-0.86803102 0.48519099 0.96556699 1272160114
-0.494838 0.612252 0.70152903 1245458215
-0.56609303 0.655339 0.70458502 1244340503
-0.76879603 0.50495899 0.93865299 1226511371
-0.23514199 0.479341 0.76508898 1244867622
-0.84041101 0.49220601 0.91011298 1249134371
-0.806871 0.53224802 0.99735099 1246904625
-0.779239 0.49338901 0.82231301 1244143127
-0.80020899 0.53283399 0.995996 1267234663
-0.53052402 0.49243101 0.80586302 1226708240
-1.07445 0.53583699 1.01639 1269205879
-0.97814101 0.497751 0.92628998 1273542541
-1.29158 0.66180199 1.1917599 1248416581
-0.76752299 0.52484602 0.97410601 1247761224
-0.98207498 0.493523 0.822083 1272751478
-1.0737 0.53794003 1.01645 1271837853
-0.115572 0.61407 0.67802298 1245984558
-0.97734702 0.49775499 0.919999 1272684397
-1.07449 0.58999699 1.01859 1268417642
-0.51249301 0.37974 0.946594 1249141839
-0.76433903 0.58435303 0.98922497 1226576650
-0.511756 0.395311 0.94721103 1249602133
-0.53109902 0.49226701 0.78808898 1226247435
-0.13402399 0.604433 0.66557801 1244733971
-0.98269397 0.49269599 0.811849 1272949631
-0.38382301 0.616799 0.70050699 1246577976
-1.27746 0.67729503 0.79760802 1266838874
-0.79931903 0.541408 0.994551 1246312746
-0.78171402 0.49094599 0.79495901 1244011796
-0.0511395 0.470927 0.92821199 1267759975
-0.052207399 0.46400401 0.90792799 1249733465
-0.97807097 0.49690199 0.90385902 1272488047
-0.075194202 0.46342799 0.90799099 1267694181
-0.97807097 0.49709201 0.90225601 1272553069
-0.782435 0.48910999 0.788001 1244274968
-0.0818839 0.46797699 0.92026001 1268286065
-0.094753802 0.46834001 0.92127699 1268550260
-0.76630002 0.53785801 0.97826397 1246445361
-0.53877097 0.34088001 0.967278 1268024176
-0.11849 0.47211501 0.929528 1268286319
-0.98330802 0.492084 0.802212 1273214857
-0.133573 0.47058001 0.92540199 1267694699
-0.55606198 0.34056801 0.96636701 1268023666
-0.14187799 0.47216001 0.92913598 1269339777
-0.56896102 0.340803 0.96704698 1268550010
-0.148012 0.47209299 0.927715 1267694183
-0.52586502 0.485636 0.75467402 1244406558
-0.19503 0.65172601 0.62526798 1249075282
-0.52687299 0.49720901 0.86622798 1226446347
-0.28215101 0.63700902 0.619591 1249009746
-0.785025 0.55041999 0.99102002 1248484685
-0.32635501 0.47723299 0.94379997 1267497574
-1.07463 0.55696201 1.01745 1268154477
-0.32573399 0.47712401 0.94338799 1267300195
-0.78810698 0.55317402 0.99268299 1246510895
-0.38003299 0.47922301 0.95185697 1268748412
-0.653292 0.34501901 0.98563498 1267563116
-0.39661199 0.47926399 0.952582 1249338966
-0.667696 0.34597701 0.98992699 1268616313
-0.234841 0.58765203 0.68581599 1225657094
-0.72548598 0.34189099 0.98081398 1271706268
-0.56136298 0.65360802 0.69205201 1247365954
-0.69852602 0.34576401 0.99250501 1270984598
-0.704162 0.64905697 0.70570302 1244340250
-0.63291597 0.65207398 0.69932997 1247760711
-0.35662001 0.47842801 0.95010298 1270919063
-0.68276501 0.346165 0.99083 1268748155
-0.212761 0.490747 0.81078202 1243617812
-0.346562 0.47815901 0.94761997 1268813696
-0.216783 0.490455 0.77299303 1226577167
-0.33951601 0.47878301 0.94814998 1267169123
-0.236564 0.48089999 0.73537397 1244210206
-0.220447 0.49015501 0.72523499 1226708753
-0.238644 0.48113599 0.702443 1226773779
-0.35606501 0.478926 0.94915301 1267300453
-0.190734 0.47352001 0.67690003 1245984559
-0.34606501 0.47853601 0.94634902 1247957320
-0.33726099 0.47617099 0.68880498 1245130022
-0.37377301 0.479633 0.95191902 1267958382
-0.37485 0.47453699 0.68989098 1245459246
-0.60662299 0.619479 0.68372101 1245128475
-0.76410401 0.350252 1.00422 1267957099
-0.40672401 0.479734 0.95561701 1268220525
-1.07459 0.57228601 1.01897 1268745838
-0.42294899 0.65141398 0.70425302 1246773813
-0.48561099 0.36082 0.973993 1271246227
-0.40884 0.480351 0.95545 1248022848
-0.77126902 0.447294 0.92214602 1268220012
-0.222022 0.49223199 0.69836402 1244078106
-0.43680099 0.48326001 0.96377701 1248484166
-0.41153201 0.47624201 0.69240803 1245525293
-0.70642698 0.600339 0.68134803 1246770213
-0.84945899 0.485421 0.73259997 1248148504
-0.44520199 0.48340401 0.96337402 1247957053
-0.47743699 0.366137 0.96990299 1271443605
-0.45797101 0.480591 0.95563698 1249800017
-0.51357001 0.360185 0.94926798 1248615244
-0.393592 0.65075803 0.71734601 1244933151
-1.53836 0.72177601 1.20588 1248810057
-0.576518 0.60161501 0.67567801 1244402693
-0.535748 0.509835 0.68733501 1245459244
-0.475209 0.48612899 0.96480602 1248222023
-0.203896 0.64374399 0.68415898 1248221259
-0.221837 0.482719 0.90407503 1247562302
-0.51325601 0.37222001 0.95139599 1248418121
-0.322198 0.649764 0.70772302 1247432258
-0.485845 0.48977599 0.96542698 1245458467
-0.46922901 0.477395 0.927414 1245261606
-0.49146301 0.48944101 0.96112198 1247760962
-0.15557 0.64559603 0.69406998 1245327398
-0.478145 0.479375 0.92375201 1244866847
-0.77065402 0.46130499 0.92120802 1266707807
-0.77078402 0.46524301 0.92356497 1248286278
-0.200261 0.50852698 0.94090003 1226444547
-0.77134901 0.466322 0.92249799 1267694952
-0.49041 0.480685 0.91289598 1244669726
-0.50959897 0.50117701 0.960576 1226709518
-0.49539399 0.61208802 0.70137399 1245524008
-0.45725 0.38282499 0.98241103 1272298915
-0.46712801 0.618065 0.70801997 1245919538
-0.51263899 0.379913 0.95864999 1266774364
-0.441576 0.61843002 0.7062 1244340762
-0.50026602 0.35358101 0.98078102 1270456711
-0.41774699 0.61758202 0.70398098 1246841663
-0.70095301 0.34734899 0.99365401 1267432292
-0.38716999 0.61691999 0.70112199 1247433285
-0.820557 0.48401499 0.94599003 1269395269
-0.201519 0.5984 0.68306398 1244732943
-0.73529798 0.348335 0.99912202 1268944251
-0.26104701 0.608082 0.67720097 1246708022
-0.50643897 0.49335599 0.91001201 1244274975
-0.515324 0.60096997 0.702079 1246179101
-0.42860499 0.428148 0.99007499 1272035741
-0.510818 0.42614499 0.94752097 1249667416
-0.18527099 0.59714502 0.677935 1268017217
-0.77133501 0.41637799 0.924568 1269666687
-0.26803899 0.60108298 0.69161099 1248807207
-0.77109498 0.42146799 0.92447001 1267299937
-0.41090599 0.60097897 0.70197999 1247098648
-0.41658899 0.64923602 0.64864397 1248287052
-0.51064098 0.44139001 0.94965798 1249142096
-0.161458 0.473333 0.92905498 1267759724
-0.77140999 0.492412 0.927697 1247826503
-0.16990399 0.47428799 0.928702 1249272402
-0.55486399 0.48969901 0.88623899 1225394690
-0.51060301 0.44987801 0.949534 1248483653
-0.56002998 0.490264 0.88658601 1226249227
-0.33574399 0.47894001 0.94569802 1247497019
-0.54270101 0.49397099 0.89269602 1226446610
-0.365935 0.47875199 0.94812697 1248878416
-0.53746998 0.493608 0.89098102 1226117644
-0.64342302 0.64664698 0.68080801 1247957571
-0.57301098 0.49880999 0.907314 1225657094
-1.01136 0.660348 0.88486499 1247957060
-0.230066 0.48170599 0.80939102 1245854517
-0.77079898 0.436607 0.92133701 1267692391
-0.58579499 0.496185 0.89936 1225657609
-0.176135 0.48404399 0.94837201 1267168613
-0.59085101 0.49453101 0.892546 1226446610
-0.27474001 0.480073 0.94963902 1268945017
-0.81682402 0.529109 1.00884 1266771537
-0.263787 0.47824201 0.94258898 1268747642
-0.51083797 0.49112299 0.86982203 1245394740
-0.259222 0.47900301 0.94394398 1268813435
-0.61849898 0.50520998 0.91855901 1225723402
-0.30559301 0.47672799 0.943295 1270655635
-0.63620502 0.498824 0.90445501 1225986057
-0.299211 0.477294 0.94378299 1268813692
-1.3628 0.64260101 0.85398102 1249796954
-0.29172501 0.478558 0.94604099 1266839903
-1.29681 0.655325 0.86940199 1249535063
-0.77254999 0.50734401 0.93878198 1249009495
-0.37941799 0.47585601 0.69065398 1244669469
-0.73453599 0.48652601 0.88406301 1226051337
-0.36118001 0.478239 0.69266599 1244603424
-0.809089 0.53582603 1.00915 1268548977
-0.40079901 0.47493401 0.69074798 1245460273
-0.511361 0.49002299 0.85492402 1246183482
-0.403308 0.475761 0.691495 1244999722
-0.84140301 0.49819201 0.92469102 1269985083
-0.39362699 0.47570601 0.68993998 1244472603
-0.231878 0.48114601 0.78806901 1244669989
-0.21596301 0.48174599 0.67538297 1246708281
-0.513313 0.491319 0.85303098 1226577683
-0.78315598 0.491941 0.77748698 1246375962
-0.842327 0.496943 0.91290098 1271759696
-0.42127401 0.47498801 0.68886602 1244735262
-0.215633 0.49054399 0.789042 1226248205
-0.43440101 0.47647399 0.69248801 1245261863
-0.233383 0.483641 0.77138001 1247433292
-0.42857301 0.474731 0.68819702 1244735519
-0.51626903 0.49886501 0.83844602 1243880984
-0.447615 0.48441699 0.70620602 1244932902
-0.23562101 0.47994399 0.75256598 1244209434
-0.45559001 0.47819301 0.69398499 1245196072
-0.21783599 0.48998201 0.76123202 1243749141
-0.52260101 0.49202999 0.72958702 1226774804
-0.51651102 0.48976001 0.800852 1244473636
-0.46026599 0.478432 0.69389701 1244932641
-0.21810199 0.490024 0.75527102 1243683346
-0.47149199 0.48146001 0.70019197 1245721643
-0.53021502 0.492165 0.803527 1244341276
-0.479835 0.48108199 0.69944 1246510903
-0.850214 0.50087702 0.706496 1246306825
-0.475418 0.49084499 0.71770102 1245787180
-0.47870901 0.48833099 0.71204001 1245589801
-0.239452 0.48084101 0.941167 1268089972
-0.43166801 0.477983 0.68384302 1226709522
-0.235504 0.48398501 0.71747899 1226379021
-0.48669401 0.48697299 0.70806199 1245393192
-0.521182 0.49981901 0.78367102 1225787146
-0.24345601 0.494403 0.68643999 1245525039
-0.240453 0.479772 0.69589603 1244605478
-0.232333 0.498355 0.69240701 1244012313
-0.51966298 0.49125499 0.76015198 1244735015
-0.51996601 0.48910201 0.75301498 1243682843
-0.49561501 0.48549601 0.70402598 1245656621
-0.49507901 0.485008 0.70301002 1245590828
-0.534428 0.50814301 0.68502301 1226446097
-0.22397999 0.498559 0.68522203 1226708756
-0.205347 0.481534 0.686261 1245393192
-0.52292001 0.49247599 0.71383798 1226381844
-0.31721801 0.47794199 0.690633 1245130277
-0.31437999 0.477503 0.689327 1245261606
-0.78485501 0.49129501 0.74498898 1245519632
-0.51321602 0.446879 0.620565 1247235653
-0.222552 0.49200401 0.70461899 1226117384
-0.51244998 0.50789398 0.735026 1246380087
-0.78320402 0.49298099 0.78923303 1247033380
-0.523435 0.49346399 0.70829898 1226052369
-0.37045801 0.475429 0.69101399 1245458731
-0.36025599 0.475427 0.68948299 1245261352
-0.78981501 0.49264801 0.70350403 1243683605
-0.343584 0.477474 0.69107401 1244735521
-0.73572201 0.49651799 0.70064098 1248878423
-0.210888 0.486287 0.688797 1246576695
-0.733504 0.49632701 0.69998997 1248878423
-0.37497199 0.47480401 0.68916899 1244669730
-0.77374399 0.49458501 0.69818097 1249536353
-0.37005401 0.47575 0.69031698 1244800801
-0.22303601 0.52971798 0.68074799 1243947036
-0.78018701 0.53261 0.67795002 1244337934
-1.14838 0.66059899 0.87508303 1248811856
-0.73351198 0.47884601 0.66091198 1249338715
-0.0900397 0.596609 0.67190099 1247821604
-0.68865699 0.481078 0.65838897 1247759429
-0.118548 0.58659101 0.65976602 1248413231
-0.84919602 0.56223202 0.70074803 1246175496
-0.53716898 0.50918698 0.68528402 1246708794
-0.099209398 0.59789097 0.67395401 1249465915
-0.73992997 0.478111 0.65950698 1249208156
-0.131781 0.59725797 0.67632401 1247361060
-0.22585601 0.53450298 0.68231899 1226511888
-0.13146199 0.58696699 0.66100198 1266769478
-0.62665498 0.414489 0.532417 1247168062
-0.16088501 0.58806503 0.66553998 1246243860
-0.150949 0.58780497 0.66381198 1248150310
-0.63970399 0.50056499 0.665438 1245984301
-0.147469 0.58748502 0.66286701 1248215846
-1.12459 0.66349202 0.93861598 1248614731
-0.16978499 0.58891499 0.66693097 1246966042
-0.222472 0.548908 0.68161798 1243618584
-0.254675 0.60348201 0.69884199 1225788678
-0.782857 0.50559002 0.684255 1245521176
-0.17430399 0.59682298 0.67815298 1247559711
-0.222358 0.558689 0.67925799 1226775575
-1.38109 0.64182597 0.82485598 1249666648
-0.231084 0.56448102 0.68633503 1226051339
-0.239329 0.59459299 0.68255299 1208420099
-0.78695899 0.53343701 0.69260597 1226642961
-0.220607 0.58951902 0.672544 1245523233
-1.14108 0.70208102 0.98297203 1248482891
-0.19215401 0.59932202 0.68316001 1247427101
-0.19194899 0.59796798 0.68113601 1247755299
-0.2325 0.58449697 0.68847603 1225657609
-0.18510699 0.59677398 0.678451 1249465140
-0.113684 0.60900903 0.671565 1248945747
-0.205888 0.59817201 0.68222898 1247887913
-0.104072 0.61271298 0.67561197 1247432001
-0.196611 0.6024 0.68720102 1249859644
-0.095686302 0.61353898 0.67567801 1245852195
-0.190558 0.59820902 0.680215 1267754309
-0.479909 0.60188299 0.70929599 1226510595
-0.25444001 0.60002398 0.68931699 1249333814
-0.46137401 0.60244799 0.707627 1245060621
-0.24486899 0.60039598 0.68857402 1249006135
-0.45969701 0.60235 0.70726103 1245389584
-0.21935999 0.59432101 0.67622298 1248612665
-0.45181599 0.60285699 0.70693499 1247756581
-0.278806 0.60053998 0.69226599 1247361310
-0.138098 0.60414797 0.66677302 1249799516
-0.26540601 0.60081297 0.69085997 1249662258
-0.125681 0.61102498 0.674999 1247761991
-0.24509101 0.592547 0.67601699 1246705706
-0.465895 0.60319299 0.708224 1246639138
-0.255968 0.94104803 1.26484 1225722372
-0.45237201 0.60404199 0.70763302 1267492163
-0.296112 0.60087198 0.69399101 1246835219
-0.45181501 0.60397798 0.70746601 1267821128
-0.287839 0.60079098 0.69275898 1249069352
-0.23994 0.61064702 0.68867701 1225525259
-0.31751901 0.60068399 0.69550902 1246309133
-0.145192 0.60538399 0.66843897 1248682070
-0.309535 0.60124898 0.69525999 1247624217
-0.125338 0.60382599 0.663544 1226444808
-0.30729499 0.60130203 0.69503599 1248018719
-0.117866 0.60909599 0.67010897 1243616525
-0.84850597 0.58239299 0.69908899 1247227675
-0.477364 0.59281099 0.69380403 1246967837
-0.216766 0.60667998 0.68961 1226248719
-0.159593 0.60406798 0.66741902 1247890755
-0.34394401 0.60108399 0.69747198 1248215841
-0.491274 0.60414302 0.71082801 1246966295
-0.340085 0.60099101 0.69681698 1248676393
-0.172039 0.60466599 0.66888398 1246708025
-0.362988 0.60132802 0.69929898 1248281375
-0.165363 0.60492498 0.66836298 1244274450
-0.359097 0.60131001 0.69875097 1248412706
-0.37818101 0.60143203 0.70040703 1248609317
-0.37538299 0.60148698 0.70011097 1249135655
-0.39403501 0.60102499 0.70086402 1247755292
-0.39124501 0.60104901 0.70052397 1248610601
-0.40977699 0.60105902 0.70194399 1247361820
-0.98058403 0.487212 0.79435802 1273935748
-0.42697701 0.60272199 0.70557302 1246507037
-0.087884903 0.60739797 0.66685599 1248154949
-0.437134 0.60302597 0.70629001 1248346913
-0.384918 0.61618 0.70085102 1249012569
-0.37646699 0.61628598 0.69987601 1248550224
-0.36912599 0.616458 0.69914103 1246971966
-0.597947 0.61208498 0.67514598 1244143123
-0.51051402 0.61348099 0.712695 1249139011
-0.372578 0.61684698 0.699081 1226444807
-0.36748001 0.61703801 0.69867098 1226247431
-0.35682499 0.61703402 0.697249 1226050049
-0.50261998 0.59150797 0.69322199 1246835740
-0.25927001 0.61489302 0.68128997 1248418387
-0.501499 0.59078902 0.69204599 1246704154
-0.40475899 0.61693901 0.70242101 1247236165
-0.18729299 0.61268997 0.68133098 1247628865
-0.42117801 0.61724699 0.70396799 1247498305
-0.21535499 0.61543101 0.68791699 1246775620
-0.43189901 0.61814398 0.70557898 1246314293
-0.19511101 0.61317199 0.68199098 1245852716
-0.44498801 0.61819202 0.70632201 1244669983
-0.40139201 0.60900599 0.70146197 1268479310
-0.45919299 0.61836201 0.70738 1244735520
-0.21769799 0.60891098 0.67681003 1248484433
-0.47338 0.61926401 0.70945102 1244275224
-0.41860199 0.61098403 0.705495 1268937808
-0.21735799 0.62143999 0.67750299 1248419670
-0.41203099 0.609855 0.70301598 1268477771
-0.20691299 0.61499 0.66719198 1248681812
-0.409931 0.60899001 0.70150799 1268149833
-0.032296602 0.648251 0.68792701 1245785900
-1.25429 0.65091401 0.95136797 1248811339
-0.53301901 0.62437898 0.720164 1245064999
-0.26980999 0.61617899 0.69194198 1247696203
-0.21639 0.63094699 0.68734598 1245590832
-0.26303399 0.61634499 0.69127399 1245919795
-0.51524299 0.61575103 0.70488501 1245327660
-0.84784901 0.53487301 0.74199897 1244270082
-0.112539 0.64558601 0.69161099 1244800803
-0.43966699 0.61078799 0.705881 1267099207
-0.108185 0.64680803 0.69271302 1244735010
-0.43510699 0.61133301 0.70604402 1267230537
-0.085288897 0.645482 0.687868 1245984558
-0.284004 0.616319 0.69295901 1246906943
-0.062361199 0.64376301 0.68247998 1246642742
-0.282262 0.61646801 0.69293803 1246117427
-0.140947 0.64481997 0.693232 1244537113
-0.300102 0.615888 0.69342297 1246182707
-0.085060298 0.65780699 0.70255202 1246971199
-0.077881202 0.64539701 0.684623 1247431747
-0.53096002 0.49495301 0.73813099 1225524999
-0.11767 0.64445299 0.68751001 1246840122
-0.56336701 0.56753701 0.63085502 1246571796
-0.31690699 0.61648202 0.69543099 1246446392
-0.102558 0.645666 0.68717301 1246774076
-1.16514 0.73333901 1.05612 1249797209
-0.37691301 0.651609 0.71736401 1244998945
-0.76486599 0.557989 0.65382802 1244340504
-0.49979299 0.620965 0.70478201 1245327912
-0.33187199 0.64841902 0.707192 1246840121
-0.130299 0.64411098 0.687639 1247563329
-0.31009501 0.64803499 0.70382202 1247169084
-0.111493 0.64702499 0.68699199 1247694919
-0.25551 0.64454502 0.691998 1247628873
-0.087492101 0.64437997 0.67917502 1247957062
-0.204549 0.64358801 0.68403602 1248023880
-0.53569102 0.513928 0.68097699 1243683351
-0.60253 0.602247 0.679932 1244075530
-0.418129 0.48175099 0.96090603 1267037020
-0.18867201 0.64649999 0.692177 1246510643
-0.58314002 0.59508502 0.66782498 1244140803
-0.29763901 0.65015298 0.71036202 1245327910
-0.40062699 0.65058398 0.71803403 1245129251
-0.29345 0.65047902 0.71025002 1244735772
-0.34778801 0.65011799 0.71048802 1246446139
-0.28444499 0.650473 0.707986 1245920046
-0.24689899 0.64541101 0.69098002 1248549710
-0.14964999 0.638466 0.67411399 1249864801
-0.58477199 0.59328002 0.664675 1245389065
-0.54857999 0.60806698 0.68458802 1247822371
-0.499331 0.63204002 0.70516998 1245722414
-0.53787601 0.59605998 0.66704202 1248611113
-0.248197 0.64573401 0.69053698 1246312748
-0.36540601 0.651043 0.71831203 1244077332
-0.24898601 0.63713801 0.679178 1245654818
-0.32042101 0.65021598 0.71022499 1245920048
-0.235892 0.64207101 0.68404102 1246972224
-0.55878401 0.59450501 0.66577297 1245717259
-0.60509199 0.60250503 0.67866701 1247229216
-0.223113 0.64407498 0.68816698 1245261606
-0.38297999 0.65289998 0.716681 1245722154
-1.19899 0.65780598 0.88485599 1249336654
-0.20306499 0.646146 0.68413401 1247300157
-0.78719002 0.489925 0.706882 1244998434
-0.350012 0.65055197 0.70818299 1247103810
-0.55388701 0.60877597 0.66775602 1248351817
-0.28369001 0.64928699 0.69782197 1247102780
-0.54905802 0.60867399 0.66699398 1248219719
-0.26312 0.64797997 0.69339198 1246576952
-0.41569901 0.64811099 0.70106101 1246313777
-0.26020899 0.64937598 0.69486701 1246511159
-0.093206003 0.60712498 0.60564601 1249601372
-0.22576401 0.64768201 0.68810803 1249208156
-0.56149203 0.619578 0.681858 1246510645
-0.62747103 0.598988 0.67499 1247164965
-1.17682 0.66121602 0.99559802 1249206097
-0.64302999 0.59794497 0.67468399 1246901272
-0.56878299 0.61479002 0.67561197 1245195294
-0.84785801 0.521465 0.741099 1244598019
-0.51457602 0.63801998 0.69875801 1245130276
-0.481179 0.655213 0.72939998 1226774546
-0.41577899 0.653409 0.70591301 1246313777
-0.419424 0.65441501 0.72027099 1245064226
-0.373786 0.65085602 0.69713402 1247300159
-0.36200801 0.65035599 0.707385 1247103291
-0.51380098 0.64397901 0.705387 1245327655
-0.32111999 0.65028602 0.70194697 1247366211
-0.218393 0.648009 0.672221 1249733469
-0.215719 0.646631 0.68332303 1248418640
-0.189685 0.64490598 0.66446298 1248549710
-0.66288197 0.60393798 0.68425101 1247163929
-0.78513002 0.56047201 0.69401699 1243618069
-1.19091 0.73381603 1.09548 1249074511
-0.15594999 0.64762098 0.67579001 1248484433
-1.21313 0.74548203 1.11361 1249074763
-0.112557 0.64589602 0.66783798 1249141332
-0.67267197 0.60312998 0.68349701 1247229983
-0.59240597 0.614456 0.676332 1244801312
-0.67170501 0.60341001 0.68373901 1247295520
-0.46360099 0.65510601 0.724832 1244275228
-0.367293 0.65085697 0.694251 1247760710
-0.69042701 0.60329199 0.68506497 1244206599
-0.245235 0.64735699 0.67385799 1249076054
-0.98327798 0.620929 0.70889199 1248220491
-0.61022103 0.61455297 0.67781597 1247167799
-0.69597602 0.60170102 0.68273199 1247098146
-1.13969 0.658171 0.83395898 1249666649
-0.21210299 0.64760298 0.68001503 1248154438
-0.639723 0.622504 0.68998998 1246379317
0.012442 0.82380599 0.88268101 1248088387
-0.63428903 0.62277502 0.68963498 1244866079
-0.101454 0.642802 0.65925401 1248811856
-0.78565103 0.564946 0.68545097 1226775060
-0.52446997 0.65631503 0.71863699 1243946260
-1.1280299 0.65556997 0.817761 1249534550
-0.40396401 0.65229201 0.697815 1247431492
-0.099469803 0.645684 0.65874797 1249469786
-0.84863102 0.57717198 0.69755501 1247554073
-0.75958103 0.60255402 0.687365 1247296030
-0.65290099 0.62115598 0.688995 1246050601
-0.74677098 0.60381597 0.68734503 1246440979
-0.678415 0.61926299 0.68890703 1248483405
-0.74305201 0.60300797 0.68580598 1247230757
-0.66840202 0.62035 0.68900597 1246115631
-0.51488602 0.634175 0.69680202 1244472347
-0.66681403 0.62051201 0.689008 1244997921
-0.68879497 0.61955303 0.68966401 1247957064
-0.44475099 0.65218401 0.69489503 1247694919
-0.320804 0.64978898 0.67582202 1248221259
-0.33639401 0.65016699 0.683294 1248089675
-0.240714 0.64798701 0.66810101 1248615503
-0.75682902 0.61409998 0.68580902 1246115366
-0.70135599 0.618604 0.68911701 1246905144
-1.18923 0.60190898 0.713588 1249074512
-1.0195 0.69531399 0.83943301 1248482375
-0.71721399 0.61889601 0.69058901 1247102266
-0.322088 0.64963698 0.67284101 1247825987
-0.712156 0.61642802 0.686777 1245260835
-0.46202701 0.65359598 0.69493097 1247300159
-0.45460701 0.65473199 0.70244002 1246971194
-0.36179101 0.65046299 0.67704999 1248483917
-0.44723001 0.65365303 0.70010501 1247629126
-0.49916399 0.654544 0.69793898 1247234366
-0.432933 0.65367001 0.69827598 1247431743
-1.09996 0.652264 0.76549798 1249469270
-0.27145299 0.64876699 0.67109901 1249141587
-0.48609501 0.65073299 0.69047201 1247431745
-0.259882 0.64858502 0.66936898 1249010007
-0.489555 0.65504098 0.695346 1247300159
-0.78674299 0.54755002 0.68694699 1226775062
-0.56655699 0.65466303 0.703798 1244472089
-0.47193301 0.653458 0.70204401 1246642229
-0.50954002 0.655922 0.69803703 1246905401
-0.74120802 0.613451 0.684843 1248417356
-0.59043097 0.65715897 0.70801401 1244472602
-0.53934598 0.49228799 0.69013 1244406554
-0.58232599 0.65393698 0.70294601 1244669730
-0.75503802 0.61429298 0.68676299 1248024134
-0.53279603 0.64858299 0.68988502 1247563590
-0.753268 0.61406201 0.68624097 1247499332
-0.047118001 0.66491503 0.647829 1249469270
-0.72612202 0.65018803 0.70414197 1246971453
-0.611485 0.64746702 0.69764 1244406553
-0.72435302 0.64887398 0.70230699 1247168832
-0.59463 0.64788598 0.69599497 1244801054
-0.36333701 0.64519799 0.65162998 1248286539
-0.266792 0.64715803 0.652942 1248747088
-0.71166801 0.65305698 0.70388901 1247694147
-0.61743802 0.64687097 0.696693 1244802080
-0.84891897 0.570907 0.69994301 1248474389
-0.78590697 0.57501101 0.70314401 1226314511
-0.798204 0.64657599 0.70608801 1248351820
-0.63549203 0.65284598 0.70547599 1244274970
-0.76533502 0.64648801 0.70178199 1248549709
-0.62637597 0.64497602 0.69451702 1244933413
-0.382386 0.64415902 0.650024 1248352845
-0.60392302 0.649719 0.697532 1246051634
-0.32414499 0.64516801 0.64381403 1248614988
-0.52017701 0.65286601 0.69068903 1247167803
-0.74357599 0.64208198 0.692698 1245590569
-0.22153699 0.64191598 0.63871098 1248680783
-0.173342 0.64089203 0.61843699 1248417352
-0.76224601 0.65138698 0.71896201 1245128992
-0.40886301 0.64527297 0.65292197 1248023112
-0.60202003 0.64684999 0.692756 1246840637
-0.211422 0.63783801 0.61868602 1248680524
-0.77076602 0.64393997 0.60583699 1248878161
-0.52023399 0.65365797 0.69071001 1247562561
-0.745206 0.64505899 0.694655 1246774328
-0.216692 0.64555001 0.64166898 1249009490
-0.228413 0.63874602 0.62106103 1248812369
-0.664379 0.64968097 0.70330799 1245392938
-0.814587 0.63923198 0.69551098 1246180910
-0.58877897 0.65657598 0.70215499 1246511154
-0.51720899 0.56484199 0.65771902 1245126919
-0.58316702 0.65710402 0.70208901 1246839868
-0.52507699 0.62540698 0.64095902 1248943953
-0.572622 0.64599597 0.68696302 1246773816
-0.17776699 0.64427298 0.618604 1249009748
-0.53300101 0.64560801 0.68139702 1248155468
-0.810395 0.62805301 0.67873001 1247364929
-0.26416999 0.64347303 0.64424902 1248615503
-0.75243998 0.64277297 0.68909699 1246378030
-0.67422801 0.647614 0.70104402 1245391909
-0.58697999 0.65428698 0.68190402 1248023880
-0.60830498 0.64578003 0.69031698 1246906428
-0.78632897 0.578587 0.68673998 1226446095
-0.23113 0.64173198 0.63692099 1248878162
-0.70497698 0.65160298 0.69182903 1247957573
-0.67859298 0.64476198 0.69711697 1245655081
-0.380155 0.63138801 0.62618798 1249076570
-0.52485102 0.65505201 0.690121 1246839606
-0.15561099 0.64028901 0.62360901 1249140305
-0.181247 0.62993401 0.59912699 1248417352
-0.361063 0.64616603 0.64061999 1249010261
-0.69200897 0.65223402 0.70613402 1246378805
-0.278514 0.64256102 0.64123899 1249075800
