# .PCD v0.7 - Point Cloud Data file format
VERSION 0.7
FIELDS x y z rgb
SIZE 4 4 4 4
TYPE F F F U
COUNT 1 1 1 1
WIDTH 1216
HEIGHT 1
VIEWPOINT 0 0 0 1 0 0 0
POINTS 1216
DATA ascii
-2.1152799 0.00093422801 1.80985 1249600329
-2.0582099 0.0060179499 1.76358 1249600078
-1.79403 0.110336 1.00035 1271311248
-2.12075 0.0029678 1.81082 1249666122
-2.0567801 0.0079557002 1.7630399 1246903344
-1.94929 0.49515399 1.61251 1247821857
-2.1201401 0.0040964498 1.80984 1249468743
-2.2523401 -0.0015752499 1.88493 1266903890
-1.82065 0.112506 1.00037 1246508586
-2.0131299 0.109517 1.0668401 1269667455
-1.76531 0.287251 0.97885197 1270061440
-2.0971501 0.54957002 1.68858 1269535607
-2.0097499 0.47102001 1.66153 1268220517
-1.9969 0.517133 1.64283 1268351333
-2.0097699 0.471412 1.66347 1267233622
-2.05459 0.014337 1.75776 1249009997
-2.05373 0.0142795 1.75797 1246113828
-1.9466701 0.50024003 1.60625 1267100494
-1.9473799 0.50123698 1.6097 1247098646
-2.0120599 0.111878 1.0660501 1269404539
-1.94714 0.50294 1.60954 1246835732
-1.9592201 0.45839101 1.62428 1268417125
-1.76135 0.306844 0.97561097 1269337717
-2.1185801 0.0142415 1.80887 1249271364
-1.82214 0.115372 1.0024101 1245654049
-1.94591 0.50527799 1.60563 1249862985
-2.0524499 0.020388201 1.75457 1248680523
-2.0520699 0.020207301 1.75579 1245784351
-1.7934 0.114896 1.00104 1269140338
-2.1173601 0.0174546 1.80713 1249468743
-1.94797 0.50828099 1.61226 1246704145
-2.0513599 0.0231362 1.75494 1245784096
-2.0121 0.115052 1.06625 1269996676
-2.1087899 0.51147503 1.70281 1269470327
-1.98724 0.52468997 1.62902 1267299415
-1.9582 0.46711999 1.6238101 1268285022
-1.94488 0.50916398 1.60423 1249664835
-1.94438 0.51065099 1.60349 1249599299
-2.0513999 0.026145799 1.75367 1248088386
-1.94576 0.51221597 1.60843 1246703118
-1.80875 0.11842 0.99390101 1271378326
-1.12328 0.20322201 1.00418 1266839390
-2.0510001 0.026895501 1.75504 1244929044
-1.98379 0.52695298 1.62274 1267759966
-2.0089099 0.117557 1.06367 1270193799
-2.08988 0.56521398 1.6768 1269272439
-1.76325 0.333646 0.97988898 1269534582
-1.98888 0.53225899 1.62818 1269075056
-1.93344 0.55992103 1.5884 1249401399
-1.75778 0.31215301 0.97158402 1268811373
-2.05007 0.031964298 1.75217 1247562296
-2.0820401 0.56709802 1.66389 1269469818
-1.9758199 0.58031398 1.60949 1269009263
-2.04883 0.0329105 1.75178 1245126163
-1.79233 0.119901 0.99824297 1272166816
-2.11853 0.0302149 1.81006 1266773073
-1.97926 0.53408402 1.6152 1267760479
-2.00986 0.121051 1.06517 1268615024
-1.79177 0.120504 0.998568 1270521991
-2.04899 0.0367993 1.75097 1246706730
-2.0084901 0.121657 1.06353 1270391175
-1.933 0.568214 1.59261 1247753227
-1.75788 0.31463501 0.97193497 1268942959
-2.0717499 0.62198198 1.6526099 1269338230
-2.0807099 0.57441902 1.66267 1269272439
-1.97447 0.584544 1.60936 1267298645
-1.97957 0.54106802 1.61701 1267891552
-2.0483799 0.038769599 1.75012 1246378022
-2.0485699 0.0379804 1.75656 1245518349
-2.0088401 0.122869 1.0649101 1249732691
-1.7915601 0.121844 0.99845397 1270521991
-1.93222 0.57599699 1.59246 1248082191
-1.8073 0.12355 0.99267399 1271444122
-1.79208 0.122234 0.99817699 1272232609
-2.1143301 0.037930001 1.80334 1249864528
-2.07303 0.63238502 1.65622 1269338230
-2.00685 0.124922 1.06231 1270391689
-1.93284 0.57633501 1.59023 1248678189
-1.98641 0.55079299 1.62657 1268746091
-1.9757299 0.595824 1.6119601 1268548712
-1.97651 0.54440898 1.61166 1267759966
-1.7912101 0.1232 0.99815601 1270390405
-2.1141701 0.040903501 1.80365 1249732942
-2.04757 0.0437303 1.75576 1246175506
-1.75769 0.319251 0.97163802 1270061440
-2.0452199 0.048605502 1.74564 1246245666
-2.0071001 0.12705299 1.06364 1249864790
-1.76442 0.32555899 0.98113298 1268745322
-1.98016 0.55837101 1.61585 1268285540
-1.79142 0.124939 0.99762601 1272166816
-2.23665 0.044271201 1.8658 1267497053
-2.00968 0.12749 1.06484 1270391945
-2.23685 0.045313701 1.86633 1267497053
-2.04456 0.05057 1.7446899 1246114336
-1.77625 0.220065 0.98761499 1269798520
-1.80621 0.126967 0.99171001 1271443865
-2.1094999 0.048614699 1.79599 1249535306
-2.0470099 0.050316598 1.75609 1246570515
-1.79138 0.12593099 0.997688 1272166816
-2.0071001 0.128868 1.06374 1266838871
-1.93636 0.54752201 1.59207 1249862983
-2.1097701 0.0536834 1.79554 1267298647
-1.93332 0.54834998 1.59131 1248543256
-1.79137 0.127581 0.99787003 1272101023
-1.7909499 0.12784199 0.99835098 1270390405
-2.043 0.0596077 1.74755 1245058310
-2.04456 0.060903098 1.74502 1247890236
-2.0443599 0.061859 1.74482 1247824443
-2.0420201 0.061624601 1.74591 1245190150
-2.00699 0.13336401 1.0643899 1248284734
-1.76332 0.331543 0.979801 1269797754
-1.43642 0.221458 1.2963901 1268471590
-1.93856 0.56160802 1.60467 1248739859
-2.1092401 0.061820399 1.79414 1268022370
-2.01127 0.13427299 1.06654 1270785426
-2.1075599 0.062847599 1.79309 1267167318
-1.7906801 0.130944 0.997352 1272035230
-2.24243 0.063129097 1.87704 1267300446
-2.0098901 0.13569801 1.0654401 1270653842
-2.0061901 0.13572299 1.06332 1267364710
-1.79041 0.13119499 0.99802601 1270193026
-1.44083 0.138631 1.3354599 1269590325
-1.8049901 0.133361 0.99088597 1271444124
-1.39434 0.30935201 1.29593 1267294794
-2.1090701 0.068715103 1.79526 1267892325
-2.1075599 0.068730198 1.79431 1266905686
-1.7908 0.132919 0.997742 1271969437
-2.0412099 0.072506003 1.7405601 1246902313
-2.0390999 0.072236598 1.74212 1246570771
-2.00858 0.138485 1.0644799 1270850965
-2.0411899 0.073430501 1.74072 1247099437
-2.0390899 0.073159598 1.74231 1246636052
-1.8056999 0.135263 0.99241298 1271576221
-2.13833 0.068487599 1.94418 1245715211
-2.00489 0.140312 1.0624501 1267759719
-2.13854 0.034575298 1.93322 1248022582
-1.78948 0.134619 0.99672103 1271114128
-1.7899899 0.13496301 0.99691802 1272035230
-2.0900099 0.078138001 1.7695 1249601356
-2.0088201 0.141224 1.0648201 1270917264
-1.78926 0.135295 0.99651098 1271114128
-2.0052099 0.142078 1.06332 1248613959
-2.0559399 0.089725301 1.77221 1247298613
-2.10484 0.079898 1.79127 1266970709
-2.0858099 0.0094230399 1.82187 1247100971
-2.3096099 -0.0258958 1.98036 1267561817
-2.2243099 0.084551401 1.84953 1267629411
-2.1057701 0.082919501 1.79168 1267694433
-2.0390501 0.083875798 1.73856 1245389075
-2.0382199 0.083621502 1.7408201 1245058561
-2.007 0.14387 1.06494 1249074766
-1.80472 0.13865399 0.99156499 1271576221
-2.2254801 0.0855079 1.85172 1267695204
-2.0381999 0.084547304 1.7410001 1244795648
-1.47051 0.262593 1.58371 1267091220
-2.0087199 0.21288 1.69266 1249469262
-2.1022 0.085124403 1.78713 1249798737
-2.0101299 0.14487199 1.06612 1270851219
-1.78923 0.138982 0.99639601 1271772058
-1.7888499 0.13895901 0.99638999 1270916749
-2.1029999 0.089135297 1.78751 1267826020
-2.03829 0.0896855 1.73624 1248416069
-2.1562099 0.068685897 1.89004 1266707791
-2.09233 0.070107996 1.76566 1267760479
-2.10009 0.090259902 1.7840199 1249798737
-2.0912099 0.071066797 1.76566 1266707791
-2.03758 0.090174697 1.74098 1245388033
-2.05509 0.190734 1.79091 1247490079
-1.7892801 0.14063799 0.99664998 1271772058
-1.78889 0.140614 0.99663401 1270850956
-2.06548 0.19952001 1.80936 1245388823
-2.1006 0.095275998 1.78404 1267497053
-2.0088301 0.149491 1.0652601 1270917264
-1.78898 0.141315 0.99633902 1271706265
-1.78864 0.141289 0.996382 1270785163
-2.09974 0.0963412 1.78256 1267562846
-2.03438 0.097938403 1.73592 1246702096
-2.65435 -0.083211496 2.82515 1266838096
-2.0982101 0.099265397 1.7821701 1249601356
-2.0371101 0.0990569 1.73588 1247428402
-2.00403 0.151684 1.06282 1249337424
-1.9246 0.127534 1.7747999 1249593111
-2.03637 0.101907 1.73497 1246573093
-2.00352 0.15259901 1.06243 1249337424
-2.09974 0.105179 1.78442 1267431260
-2.0990801 0.105082 1.78513 1249535563
-1.4768 0.22396301 1.49072 1268144419
-2.0332699 0.105446 1.73527 1247491609
-1.47732 0.218346 1.48905 1268341798
-1.47712 0.202727 1.53743 1268932903
-1.80776 0.146319 0.99554598 1271247000
-1.78842 0.144989 0.99602801 1271443093
-2.2224901 0.110591 1.84893 1268089190
-2.0985401 0.108079 1.78469 1249667403
-2.0350299 0.107584 1.73343 1246112800
-2.0171499 0.20020001 1.07578 1271639443
-2.03333 0.108219 1.73606 1247491862
-1.78738 0.14631 0.995327 1270390405
-2.0221601 0.374109 1.7318701 1267036244
-1.80865 0.148343 0.99681699 1271246743
-1.78774 0.147 0.99537802 1271311507
-2.09708 0.113391 1.7788399 1267760479
-2.67874 -0.14116099 2.5845499 1266970709
-2.2230301 0.12148 1.84975 1267694432
-2.03139 0.115791 1.73365 1247952413
-2.05004 0.539096 1.82534 1267494737
-2.0829 0.58277297 1.90133 1245978633
-1.94238 0.114152 1.38121 1267891813
-2.0518799 0.563124 1.83225 1268349790
-1.43896 0.139635 1.32812 1268537386
-2.0918 0.097859703 1.76982 1266904916
-2.04037 0.56255698 1.80838 1268349533
-2.0246601 0.51044798 1.56171 1269601402
-1.91816 0.448138 1.37518 1269535609
-1.88755 0.107842 1.93943 1267093797
-2.3155799 1.11704 3.04985 1267684127
-1.9466799 0.166881 1.50494 1266839123
-1.0714 0.108494 1.2776901 1267693657
-2.04337 0.19664 1.1010799 1271705754
-1.4427299 0.095586598 1.35493 1268406561
-2.17645 0.152824 1.93931 1266970709
-2.08301 0.210908 1.84495 1249863251
-1.43677 0.159584 1.31104 1269194797
-1.09088 0.115994 1.27583 1267365719
-2.0687001 0.094899997 1.79963 1247363369
-2.0115199 0.368808 1.7261 1246440729
-2.0329199 0.11807 1.72932 1248678726
-2.0180199 0.37187299 1.7481 1249330459
-2.07654 0.110181 1.82477 1248084009
-2.02402 0.37250599 1.73808 1248154428
-2.0869999 0.119831 1.84795 1248479019
-2.01618 0.37237599 1.73616 1247691824
-2.0404401 0.120426 1.74547 1247559464
-2.029 0.376775 1.7447 1248943428
-2.12567 0.126201 1.9217401 1247559464
-1.46978 0.30572101 1.57197 1267880744
-2.01425 0.123703 1.69801 1248610604
-1.47068 0.31477499 1.51705 1267946789
-1.99981 0.22729599 1.6766 1249204553
-2.0081899 0.446747 1.73156 1244927491
-2.03092 0.118606 1.73331 1248609827
-2.0160699 0.45062199 1.73005 1248351547
-2.0169101 0.45548999 1.7466 1248545079
-2.0961299 0.237032 1.88062 1244399872
-2.0176899 0.45688301 1.74225 1268351335
-1.5625401 0.35843301 1.45082 1268143905
-1.43513 0.176084 1.29863 1268733471
-2.0592 -0.00436464 1.76328 1249601106
-2.1220901 -0.0090767303 1.81093 1249863501
-2.05794 -0.00278057 1.76513 1245257236
-2.1182101 -0.0053694998 1.8123 1249271364
-1.79409 0.108286 1.00068 1270390146
-1.44472 0.18855 1.34935 1269457448
-1.44074 0.115187 1.35475 1269195566
-1.4430701 0.194217 1.35532 1269062438
-2.1233599 -0.00356349 1.81464 1249863501
-2.05827 0.00232659 1.76283 1249600078
-1.43345 0.18849 1.28531 1269457196
-1.446 0.119478 1.38088 1268273694
-1.44442 0.19795799 1.34319 1270706747
-1.44171 0.119791 1.34563 1268669222
-1.43311 0.19103999 1.28215 1269588266
-1.44484 0.124948 1.37687 1268998187
-1.43229 0.193082 1.2787 1268864543
-1.44191 0.219754 1.32838 1268931624
-1.44096 0.198677 1.3224699 1270838333
-1.44203 0.222341 1.34097 1268536866
-1.4320101 0.193352 1.2769099 1268930336
-1.11072 0.205598 1.04085 1267956324
-1.44502 0.206248 1.3613501 1268338713
-1.4380701 0.22075 1.30749 1268207901
-1.4318 0.198498 1.27562 1268207127
-1.0692101 0.369564 1.28582 1271377805
-1.44797 0.21549401 1.37758 1268734497
-1.09226 0.41851899 1.2825 1267360834
-1.43813 0.206811 1.3094 1268471074
-1.0348901 0.49906299 1.27447 1273087656
-1.44665 0.214164 1.35671 1268470822
-1.43934 0.224829 1.32599 1269194535
-1.78541 0.15898401 0.99373001 1270851469
-1.78545 0.15896299 0.994268 1269667195
-1.1008 0.232391 1.2651401 1269076337
-1.11357 0.205486 1.031 1249272143
-1.10191 0.233647 1.25617 1249667920
-1.06734 0.207323 1.08579 1245193752
-1.4439501 0.21943 1.3540601 1269129002
-1.0671901 0.21809401 1.1037101 1245785632
-1.78534 0.16029599 0.99427801 1269404023
-2.08688 0.15304901 1.76697 1267233881
-1.78536 0.160652 0.99385399 1270654090
-2.0262401 0.151794 1.72084 1247889461
-1.78503 0.16129 0.993994 1269404023
-1.06761 0.221962 1.1044 1246179619
-1.78506 0.161644 0.99357498 1270654090
-2.0227599 0.153257 1.72387 1249595431
-1.10338 0.27699801 1.2524199 1248943429
-2.0731299 0.157619 1.74664 1267036502
-2.0973599 0.159151 1.7869101 1267759968
-1.0882699 0.271911 1.27859 1268485231
-1.10618 0.27980801 1.25656 1249532750
-1.43893 0.22762901 1.3093801 1268996645
-2.02525 0.15751299 1.71605 1267497569
-2.03054 0.157417 1.7312599 1246244636
-1.43908 0.25617099 1.3018 1268209184
-1.06458 0.23512501 1.12316 1244139776
-1.4348 0.25433701 1.29167 1268601884
-1.78486 0.16330799 0.99350601 1270588297
-1.78476 0.163286 0.99387002 1269404023
-1.4322701 0.252269 1.27705 1268470299
-2.1961999 0.17099901 1.81029 1268352362
-2.02512 0.159367 1.7162 1267497825
-1.43045 0.25533599 1.26432 1267615756
-1.80311 0.165649 0.99141598 1271509145
-2.0843599 0.16489799 1.76246 1267891811
-2.0768001 0.164536 1.75341 1249798735
-1.99183 0.18089201 1.05545 1271508888
-1.44358 0.27136201 1.3243901 1268668188
-1.7852 0.165333 0.99417698 1270654090
-1.78523 0.165319 0.99470901 1269535609
-2.0775299 0.16748001 1.7554801 1249864528
-2.02351 0.164783 1.71804 1245916440
-1.08093 0.102045 1.28064 1249600068
-1.0700001 0.106296 1.28171 1268417128
-1.44189 0.29926801 1.34433 1266831652
-2.0831699 0.17076799 1.76134 1267497053
-1.12281 0.206553 0.99756199 1248813653
-1.8018399 0.168301 0.99015701 1271509658
-2.02315 0.16861001 1.71415 1267497055
-1.43793 0.30019799 1.34279 1246633994
-1.0827 0.107558 1.2828 1269074545
-1.08749 0.30807501 1.29014 1268875104
-2.2000799 0.185029 1.81743 1268153956
-1.39337 0.29771701 1.32389 1267619101
-1.08987 0.22144499 1.27698 1268484726
-2.08181 0.176624 1.7598701 1267365467
-2.0215299 0.174124 1.71197 1267299677
-2.02143 0.174073 1.71375 1248284480
-1.06867 0.309268 1.28438 1270259330
-1.78447 0.169322 0.99368399 1270456711
-1.7846299 0.169321 0.994394 1269404023
-2.20228 0.189428 1.82195 1268153956
-1.12616 0.244542 1.02733 1246967585
-1.80185 0.1717 0.99051201 1271444119
-2.0797501 0.181447 1.7568099 1267365467
-2.0210299 0.17777801 1.71375 1248414782
-1.9901201 0.18896399 1.05442 1271377302
-2.06723 0.18357401 1.73842 1267299674
-2.0220699 0.179737 1.7144099 1267496543
-1.0617 0.20725399 1.12369 1246902565
-1.78432 0.17133 0.99372101 1270390918
-2.07779 0.18527 1.75375 1267365466
-2.06668 0.18450899 1.73753 1267299674
-1.41391 0.297387 1.35296 1268214086
-2.02071 0.18149 1.71392 1247888176
-1.98909 0.191156 1.05365 1271508888
-1.78399 0.172307 0.99390101 1269206644
-2.02088 0.185266 1.71313 1266904405
-1.06411 0.20741899 1.10774 1245522459
-1.78343 0.173274 0.99328101 1269075058
-2.1895299 0.201395 1.80409 1268681327
-2.0192001 0.186058 1.71176 1247230245
-1.05731 0.206172 1.09943 1249338187
-1.79972 0.175284 0.98784798 1271312790
-1.78335 0.173611 0.99272102 1269996160
-2.01981 0.18706 1.71129 1249600845
-2.0780699 0.19417199 1.75416 1268155237
-1.987 0.194157 1.05203 1271377302
-2.06267 0.19389001 1.73154 1267431514
-1.98658 0.195025 1.05171 1271443095
-1.78298 0.17526101 0.99243301 1269996160
-2.0626199 0.195815 1.73185 1267365721
-1.06059 0.205801 1.08135 1266905698
-1.78289 0.175585 0.99284297 1269008496
-2.0172801 0.19337501 1.70937 1246768929
-1.43409 0.059196901 1.3216 1269656118
-2.0760601 0.20189101 1.7517999 1268155237
-2.0193901 0.196374 1.71252 1266705999
-1.78306 0.177286 0.99326199 1268943215
-1.09354 0.143888 1.28361 1248546363
-2.01735 0.19805101 1.71059 1245782292
-1.14081 -0.13108701 1.28148 1244532226
-1.78315 0.177972 0.992966 1269798781
-2.07377 0.20660099 1.74828 1267957858
-1.3717901 -0.136829 1.32592 1249008968
-2.01755 0.20182 1.70987 1249534025
-2.0733199 0.208525 1.7478 1267628123
-2.0171599 0.202718 1.70926 1249534025
-2.00017 0.20234799 1.06217 1270588043
-1.3016 -0.13384899 1.3189501 1247492651
-2.18835 0.22152001 1.80362 1268746093
-2.01529 0.20345899 1.70746 1244861702
-1.45481 -0.12665001 1.301 1246965022
-1.7828799 0.17997099 0.99284297 1269732988
-1.78272 0.17995401 0.99312299 1268811886
-1.79324 0.182394 0.98122901 1271509915
-1.78248 0.18127801 0.99198103 1270456711
-1.78194 0.18122 0.99225199 1268614507
-2.01229 0.20781 1.7060699 1247952669
-2.0697999 0.216005 1.7424099 1267496537
-1.41038 0.298592 1.29225 1249072961
-1.09339 0.089605898 1.258 1249601610
-1.09556 0.110074 1.25983 1267102549
-1.07935 0.113899 1.2683901 1266772555
-1.1355799 0.12725499 0.91507697 1269995137
-1.41789 0.297425 1.31891 1266706257
-1.0764101 0.116449 1.2737401 1267759196
-1.12257 0.25387701 1.01266 1268744549
-1.05525 0.108895 1.31319 1269732988
-1.06733 0.1031 1.29906 1268746344
-1.4303499 0.30142301 1.29873 1267556149
-1.0952899 0.111355 1.27837 1249529138
-1.96418 0.20319 1.07267 1271837859
-1.95727 0.202444 1.07313 1271772318
-2.01317 0.21255399 1.70306 1247494445
-1.11273 0.20454501 1.03679 1267561821
-1.41065 0.30904499 1.34909 1248415551
-1.38893 0.30177501 1.28836 1267822923
-1.43694 0.19918901 1.31769 1270049082
-1.37789 0.31048301 1.31299 1249066770
-1.11536 0.204265 1.02616 1267495773
-1.06637 0.137833 1.29515 1268221031
-1.12114 0.20583101 1.0356899 1246311455
-1.42388 0.29596201 1.2823499 1249271104
-1.0655299 0.13277 1.2969199 1268221031
-1.78155 0.18319499 0.99099398 1270325125
-2.0690401 0.219843 1.7417099 1267298645
-1.1253901 0.204965 1.0201 1246180642
-1.95906 0.203595 1.07767 1249666389
-1.95692 0.203372 1.0789 1267364192
-1.95591 0.20326699 1.0795799 1267890278
-1.44807 0.313568 1.3505501 1247684868
-1.4355299 0.124387 1.32626 1269524532
-1.7811 0.183485 0.991422 1268482921
-2.0129099 0.21438999 1.70293 1247297066
-1.43499 0.148197 1.3131 1269524532
-1.4346 0.133321 1.31619 1268735277
-1.1358401 0.204074 0.98972303 1244274708
-1.1001 0.254428 1.2735699 1248089147
-1.43928 0.14539801 1.32673 1268866602
-1.43919 0.134749 1.32967 1268537896
-1.13245 0.216012 1.00588 1247298093
-2.0120599 0.215233 1.70332 1244203776
-1.10298 0.27624801 1.25012 1267497823
-1.10474 0.277078 1.25247 1248681026
-1.11149 0.27622601 1.24904 1249069084
-1.43925 0.137245 1.32871 1268932654
-1.10098 0.28300801 1.26086 1267826272
-1.45614 0.26389101 1.33258 1270642496
-1.43892 0.13970999 1.3255399 1269195826
-1.37879 0.30383199 1.30714 1267948074
-1.43348 0.143021 1.30687 1268472101
-1.12296 0.244404 1.03983 1247955504
-1.12353 0.245362 1.03943 1269666939
-1.1238 0.245267 1.03593 1266705737
-1.12669 0.243981 1.02707 1248087092
-1.43805 0.14511199 1.3200999 1269392946
-1.44309 0.30381301 1.32716 1249329694
-1.13004 0.243136 1.01604 1249139265
-1.44587 0.30379599 1.32837 1246702878
-1.43801 0.145597 1.31964 1269656118
-1.78087 0.18514401 0.99131298 1268482921
-2.18313 0.23901901 1.79579 1268680300
-2.0695901 0.22678199 1.74227 1268614505
-1.44383 0.304346 1.3314199 1249724707
-2.01244 0.22087599 1.70342 1245981206
-1.44241 0.30565101 1.3219399 1248080651
-1.43408 0.150474 1.31098 1268998688
-1.4336801 0.30500901 1.31563 1267687218
-2.01002 0.223397 1.70284 1246834960
-1.43389 0.151408 1.3093899 1268538139
-1.39827 0.30888101 1.29537 1266767935
-2.0097799 0.224298 1.70252 1246900495
-1.40848 0.29410499 1.33801 1269722170
-1.43409 0.156836 1.30997 1268735016
-1.97673 0.210896 1.06028 1246377769
-1.97488 0.210702 1.06121 1246311976
-1.40862 0.294819 1.33876 1268012847
-1.4022 0.30703801 1.28936 1249333823
-1.43744 0.157958 1.31681 1268076833
-1.95868 0.209419 1.06735 1246443561
-2.01142 0.226316 1.70052 1249205320
-1.95988 0.21007501 1.07069 1247561526
-1.9596 0.210087 1.07314 1247232561
-1.95481 0.209534 1.07287 1247100460
-1.95258 0.209319 1.0750901 1246772011
-1.9498399 0.20901699 1.0757101 1246508584
-1.7368701 0.212275 1.1044 1268351586
-1.94989 0.20949499 1.07634 1247758649
-1.94569 0.20905 1.07828 1247363893
-1.94538 0.20901801 1.0785201 1247298101
-1.80548 0.25171399 1.2401 1270062205
-1.93879 0.208316 1.0814199 1246574894
-1.81063 0.25195801 1.24999 1270062205
-1.93617 0.208039 1.08269 1246640171
-1.44224 0.29054999 1.32686 1267554103
-2.0350499 0.38676 1.69735 1270127998
-2.0550499 -0.077496298 1.7366101 1246772259
-1.99189 0.214551 1.06396 1267694434
-1.09209 0.107517 1.28272 1267231838
-1.93161 0.20804 1.08602 1247429688
-1.87053 0.27745599 1.3680201 1270127998
-1.92811 0.207699 1.08928 1246772527
-1.98245 0.33807099 1.6592799 1246769438
-1.85149 0.253025 1.32837 1269930619
-1.91913 0.206717 1.09193 1246575146
-1.8544 0.253521 1.33527 1268220001
-1.91696 0.20650201 1.09372 1246443560
-1.85533 0.25310799 1.33574 1269930619
-1.90949 0.20562001 1.09253 1245851423
-1.9865201 0.33418101 1.66513 1268087654
-2.1729801 5.4724501e-06 1.91093 1266839123
-2.06745 0.23633 1.74005 1268417126
-1.96232 0.0233049 1.5105799 1266839123
-2.1017301 -0.069736399 1.84288 1246773037
-2.39905 -0.0144243 2.46349 1245783838
-1.44065 0.253878 1.34231 1270313009
-2.7120099 -0.0279752 3.10355 1245783838
-2.1543601 0.025139101 1.9672 1245652510
-1.92305 0.207623 1.09152 1247759421
-2.1496401 0.0265726 1.9577301 1245652254
-2.1831601 0.251838 1.79804 1268877679
-1.90571 0.27496201 1.43507 1269930619
-2.1012599 -0.057895601 1.84334 1247102515
-1.86437 0.252738 1.35428 1268220001
-2.09378 -0.048853502 1.83577 1245519880
-2.0674901 0.0443362 1.79175 1245849633
-2.1025901 0.044339798 1.86374 1245783840
-2.08901 -0.033017799 1.82117 1249007940
-1.98663 0.32877299 1.66652 1246703902
-2.1203599 -0.036646198 1.89205 1244533506
-1.43897 0.197877 1.31601 1269195566
-2.04231 0.34115499 1.70723 1268220001
-2.0080099 0.231517 1.70042 1247294996
-1.9556 0.212437 1.0749201 1269534843
-1.66796 0.19832 0.97037399 1268746345
-1.1419801 0.146557 0.90535998 1270982289
-2.06252 0.058744598 1.7836 1245981216
-1.95144 0.21215899 1.0842299 1268351084
-1.67665 0.202455 0.98695302 1270193791
-2.0132999 0.33319399 1.7218601 1246703903
-1.93601 0.21033999 1.08328 1266706259
-1.6792001 0.20152199 0.99235702 1268746345
-2.04444 0.33576101 1.70868 1269930619
-1.93232 0.2104 1.08463 1268483698
-1.68505 0.204099 1.00324 1270391169
-1.95709 0.29028901 1.53708 1268154208
-1.92628 0.209732 1.0863301 1267234145
-1.68308 0.201691 0.99981302 1268746344
-2.0453601 0.33110899 1.70983 1269930619
-1.74874 0.24997 1.13121 1270259583
-1.9148901 0.208968 1.09104 1268417647
-2.0374999 0.0657157 1.73329 1245981217
-1.75361 0.250458 1.14151 1268812138
-1.79203 0.27886701 1.21787 1270325376
-1.9065599 0.208039 1.09307 1267365216
-1.91889 0.277343 1.52022 1246769697
-1.90334 0.356415 1.44117 1270259583
-1.74008 0.236601 1.11374 1268746345
-2.04599 0.33749101 1.7895401 1246769953
-1.81573 0.29162699 1.26493 1270259583
-1.9366 0.27781799 1.55661 1246637856
-1.92655 0.210766 1.08964 1271442842
-1.8215899 0.288084 1.27684 1268877417
-1.82184 0.210896 1.26608 1269733240
-1.93273 0.366157 1.4987299 1270324863
-1.88482 0.32750601 1.40332 1268877417
-1.8132499 0.206498 1.25016 1268022622
-2.00648 0.411282 1.64586 1270324863
-2.36028 0.4761 2.4439099 1268417903
-7.3471799 3.9625101 12.3584 1268746345
-1.11915 0.207177 1.0456001 1249534025
-2.0063601 0.230343 1.69294 1246901543
-1.9960001 0.281854 1.67904 1246506784
-2.06709 0.246154 1.74137 1267890782
-1.99789 0.273911 1.68178 1246704160
-2.1878099 0.27631101 2.0717199 1246967335
-2.03636 0.072541498 1.73192 1246047265
-2.04109 0.22633301 1.7636 1246967334
-2.0315199 0.094805703 1.72516 1245849887
-1.99666 0.25643501 1.68066 1246963985
-2.3284199 0.37463 2.3742099 1246835747
-2.0062699 0.24617 1.69811 1247622677
-2.1858001 0.31937301 2.07375 1246901539
-1.82909 0.154653 1.2737499 1267496278
-2.1022999 0.074957699 1.86753 1246112802
-1.8413 0.158005 1.29644 1269338482
-1.75869 0.152945 1.13758 1268680298
-2.31657 0.29306799 2.3382499 1246769957
-2.16994 0.081561998 1.91807 1249864782
-2.04477 0.105649 1.7539001 1245981474
-2.42413 0.38574201 2.57212 1246835747
-2.5231199 0.34773001 2.7697599 1246835749
-2.0734601 0.083751798 1.80962 1246112802
-2.89521 0.43584201 3.54564 1246835749
-2.4470999 0.388313 2.6196201 1246835748
-1.89879 0.098293401 1.45339 1245849888
-2.0585499 0.27002099 1.72565 1268943723
-2.39784 0.15733001 2.4855599 1245915681
-1.77853 0.20099799 0.98911297 1269600889
-2.4651899 0.16595501 2.4922099 1268483689
-2.00139 0.26205599 1.6914099 1249068325
-2.08108 0.125523 1.75335 1266707278
-2.07687 0.27709901 1.76302 1268680551
-2.2373099 0.24391399 2.1686399 1246901540
-2.00208 0.26756799 1.6882499 1246835997
-2.14463 0.141122 1.96382 1246178848
-2.0747099 0.28271899 1.75994 1268614505
-2.39446 0.175227 2.48118 1246179104
-2.1731 0.300199 1.78536 1268484202
-2.0556099 0.14151999 1.78127 1246310433
-1.99687 0.286331 1.68739 1266898473
-1.77728 0.210237 0.98804998 1270193026
-2.16715 0.31807801 1.77828 1268943470
-2.1163099 0.19532201 1.91347 1246507555
-2.0509701 0.299676 1.71694 1268153954
-1.99584 0.28981301 1.68601 1266898729
-2.0586901 0.15238801 1.78913 1246310177
-2.16751 0.324619 1.78001 1269206642
-1.84456 0.133599 1.29948 1268484202
-1.99686 0.29427099 1.68137 1247624996
-1.7762901 0.213076 0.98710102 1269798268
-2.16731 0.33088401 1.77886 1268549995
-2.2430799 0.192074 2.1730599 1246245153
-2.16658 0.33175701 1.77775 1268484202
-2.0989201 0.183643 1.87612 1246507555
-2.04935 0.31387699 1.71478 1269141103
-1.77564 0.216325 0.98662698 1269864061
-2.0768399 0.160604 1.74783 1268615275
-2.1619401 0.33704001 1.77264 1269207925
-1.99457 0.30439901 1.67304 1268286307
-2.13272 0.179822 1.94491 1246245153
-2.04072 0.316585 1.70416 1267562071
-2.04618 0.31979901 1.70979 1268877931
-2.0803499 0.17222001 1.83641 1246310689
-2.0460801 0.32075301 1.70978 1268877931
-2.0416999 0.319841 1.70674 1267562071
-2.25174 0.37062901 1.92075 1268155237
-1.99321 0.311813 1.67571 1248875317
-1.77495 0.220925 0.98624998 1269404023
-2.03725 0.3272 1.69952 1267825243
-1.99226 0.31904599 1.67537 1247756072
-2.0457101 0.331516 1.71128 1268483173
-2.0371799 0.330118 1.7 1267825243
-1.99119 0.32055199 1.67345 1247756072
-1.77482 0.223285 0.98635 1269404023
-1.99076 0.322855 1.66923 1267957343
-2.0451801 0.336299 1.7112401 1268285794
-2.15903 0.36089799 1.77176 1269273718
-1.77438 0.22453099 0.98592597 1269206644
-2.04369 0.33775499 1.70862 1268285794
-2.0406201 0.33803701 1.70649 1267430485
-1.98795 0.326361 1.67181 1247425036
-1.98959 0.32996801 1.66839 1267826274
-2.0436699 0.34350601 1.70785 1269272689
-2.1536701 0.36752301 1.7618999 1269142132
-1.77351 0.22696701 0.98459899 1269929854
-1.98989 0.332917 1.66968 1267826274
-2.0364699 0.345402 1.69988 1267627864
-1.9884599 0.33540401 1.66915 1248811070
-2.1536 0.372868 1.7626899 1269076341
-2.04024 0.34916499 1.70231 1268680552
-2.0338199 0.34735 1.69507 1267693657
-1.7733099 0.229302 0.98460299 1269798268
-1.9869 0.339517 1.6668299 1248087096
-2.18695 0.38952699 1.8164001 1268549484
-1.98721 0.34036899 1.66574 1267825767
-1.98685 0.34211501 1.66539 1267562852
-2.03932 0.355748 1.70188 1268680552
-1.77277 0.231189 0.98411298 1269732475
-1.9862601 0.34398699 1.66649 1247560752
-2.1561699 0.38458499 1.76906 1269600889
-2.0320799 0.35650301 1.69356 1267693657
-1.9843301 0.347424 1.66704 1246571021
-1.98528 0.34808201 1.66345 1266773335
-1.77179 0.233272 0.98308402 1269337717
-1.7722501 0.233588 0.98226601 1271574679
-2.1559801 0.391886 1.76811 1269009263
-2.0369699 0.363727 1.69893 1268352614
-2.0292101 0.361229 1.6889 1267694684
-2.15593 0.39295301 1.7682 1269338228
-2.1612899 0.395852 1.77592 1268746091
-2.0362 0.36539301 1.69777 1267826270
-1.77178 0.23514301 0.98184198 1271574679
-1.98498 0.35578001 1.6664701 1245718548
-1.7717201 0.23564599 0.983262 1269403510
-1.77144 0.235714 0.98147202 1271377300
-1.9843 0.35738099 1.66541 1245847568
-1.77179 0.236358 0.98344302 1269403510
-2.15955 0.401746 1.77396 1268811884
-2.0450301 0.37587199 1.72298 1268285794
-1.98314 0.35946199 1.66153 1249335879
-2.151 0.40296501 1.76153 1269469814
-2.0360701 0.37502301 1.69759 1269206896
-1.43688 0.143343 1.31297 1269261617
-1.77119 0.239049 0.98152602 1271377300
-1.77143 0.23967101 0.98335201 1269337717
-2.14626 0.40753499 1.75427 1269469814
-2.0355201 0.38075799 1.69771 1269272435
-2.02387 0.37757 1.68181 1268153954
-1.7711 0.24134099 0.98359603 1268613994
-2.1475401 0.41320699 1.75555 1268811884
-2.03474 0.38639101 1.69734 1269272435
-1.77162 0.242082 0.98338401 1270324612
-1.98813 0.37342 1.65605 1267037274
-2.0338199 0.388962 1.69608 1269272435
-2.14571 0.41810399 1.75512 1269338228
-1.77125 0.243119 0.98157603 1271837851
-1.96918 0.37238401 1.64648 1248215318
-2.03034 0.39231199 1.68998 1268155237
-1.77088 0.244914 0.98274899 1270258819
-1.98722 0.382503 1.65619 1266774102
-2.14276 0.425201 1.74948 1268747374
-2.14241 0.42532599 1.75076 1269339511
-1.98508 0.383627 1.65391 1248549440
-2.1422999 0.428518 1.75111 1269339511
-1.77056 0.247061 0.98161203 1271443093
-1.77071 0.24726801 0.98279899 1270061440
-2.14136 0.429977 1.74792 1268813167
-2.02808 0.40016499 1.68718 1267760479
-1.98421 0.38612801 1.6470799 1267760995
-1.9709899 0.385272 1.65135 1248083477
-1.7705801 0.247908 0.98269999 1270061440
-1.97159 0.38653401 1.65291 1248083477
-2.1387999 0.43420601 1.74429 1268813167
-2.1389699 0.43457699 1.74649 1269471097
-1.98216 0.39040601 1.64754 1249273163
-1.77005 0.24927901 0.98121399 1271311507
-1.98193 0.39347801 1.6440099 1267497823
-1.9891 0.39979401 1.6638499 1249075784
-1.7697999 0.25124699 0.981103 1271049875
-1.76991 0.25145 0.98223901 1269602172
-2.13432 0.44072899 1.73781 1269142132
-2.02531 0.411699 1.68415 1267496024
-1.96276 0.39219201 1.63556 1247951892
-1.76987 0.25162399 0.98124599 1271049875
-1.44572 0.33511099 1.3191299 1268405534
-2.13395 0.442702 1.73752 1269142132
-2.0248699 0.41314799 1.68172 1268614505
-1.98061 0.400987 1.64667 1248877633
-1.7709301 0.35547501 1.61067 1267750688
-1.98097 0.40245301 1.6440001 1267760225
-1.98075 0.40328699 1.64375 1267694432
-2.1307199 0.44896901 1.73492 1269734269
-1.7695 0.254581 0.981094 1270983825
-1.76924 0.254904 0.98128301 1270194309
-1.97928 0.406923 1.6452399 1248877633
-2.0227101 0.42194501 1.67932 1268352103
-1.96207 0.40274 1.63463 1247427083
-2.02176 0.424413 1.6779799 1268220517
-1.95955 0.40504101 1.62984 1248018194
-1.76849 0.256924 0.98005998 1270589067
-1.97931 0.41295099 1.64291 1267628639
-2.1329601 0.46020001 1.73698 1268878960
-2.0209301 0.42793599 1.67709 1267891552
-1.97858 0.415732 1.64388 1266707537
-1.95883 0.40930399 1.62929 1248280338
-1.97879 0.41646701 1.64261 1267431513
-1.9582601 0.40879601 1.61691 1246444072
-1.76835 0.258939 0.98010498 1270785161
-2.01933 0.43599099 1.67562 1267824988
-1.97844 0.42234299 1.64503 1249601610
-1.768 0.26086599 0.979877 1270587782
-1.76776 0.26084799 0.98004198 1269535094
-2.12816 0.46958199 1.73044 1269206642
-1.97727 0.42321301 1.64098 1267365719
-1.76823 0.26122299 0.97972798 1271443091
-1.97629 0.423933 1.64098 1249470024
-1.7678601 0.26158601 0.98025602 1269469558
-2.12953 0.47246301 1.73326 1269206642
-1.97596 0.42433399 1.63854 1267168340
-1.9537899 0.41934901 1.62095 1248476432
-2.02021 0.44376901 1.67521 1270127741
-2.0190101 0.44342399 1.67466 1269009517
-1.76828 0.263423 0.98052901 1270588297
-2.12692 0.47754201 1.7297 1269272435
-2.0185299 0.44477499 1.67215 1269864570
-1.97463 0.429616 1.6388299 1249535817
-1.95271 0.42240399 1.61936 1248739604
-2.0173399 0.44742399 1.67223 1268614759
-1.97303 0.43207499 1.63424 1267102547
-1.76798 0.26546901 0.98085499 1269732988
-2.1257501 0.483376 1.7287101 1269338228
-1.97349 0.434641 1.63758 1249470024
-1.43953 0.237085 1.3244801 1268405281
-2.0151899 0.45272401 1.66729 1269601654
-2.01454 0.45270601 1.6678801 1268351587
-1.9616899 0.43510601 1.63367 1247952672
-1.9608901 0.43592301 1.63404 1249661225
-1.7678699 0.26776099 0.98048502 1270456711
-2.12445 0.48875499 1.7256 1268943470
-2.0141499 0.45545301 1.66768 1268285794
-1.76773 0.26849201 0.98087299 1269272437
-2.0151701 0.456698 1.66807 1269667447
-1.76722 0.26954699 0.979855 1270193539
-2.01367 0.460134 1.6677001 1268154208
-1.76718 0.269977 0.98033398 1269140851
-1.9659801 0.44630301 1.63954 1249203777
-2.0137899 0.46281499 1.6666501 1269470068
-2.1270299 0.50105101 1.7320499 1269206642
-1.7665 0.27083799 0.97858697 1270785676
-1.9646699 0.44926801 1.63748 1247229985
-2.0132 0.466831 1.66817 1267956829
-1.96384 0.451298 1.64371 1266831387
-2.0132699 0.467471 1.6665699 1269272689
-2.1243999 0.50603497 1.72844 1269404021
-2.1229999 0.50629699 1.72612 1269272435
-2.0127499 0.47054201 1.66804 1267891036
-1.9635 0.45519599 1.6363699 1246900763
-2.01156 0.47335801 1.66447 1268680552
-1.76631 0.27468801 0.97926801 1269732988
-1.7662801 0.274775 0.97970998 1268680300
-2.0109899 0.47598001 1.6639 1268877931
-2.0063601 0.262586 1.69857 1245260322
-1.99379 0.58212602 1.65185 1266903887
-2.0376401 0.386002 1.70552 1267234135
-1.92805 0.20821799 1.12351 1245983521
-2.0246401 0.163073 1.7207 1249009486
-2.20279 0.18443599 1.82421 1267760225
-1.9633501 0.21314199 1.09638 1267694695
-1.9965301 0.212336 1.06692 1267167331
-2.1004701 0.63506299 1.70621 1269009265
-1.9373699 0.208542 1.11371 1246180647
-2.0023899 0.57615602 1.66281 1269469814
-2.0011201 0.48647299 1.65236 1267956575
-2.00332 0.57193601 1.66362 1269732986
-1.99912 -0.088136002 1.62707 1246706719
-1.95897 0.475566 1.62963 1248282668
-1.9382 0.20286199 1.13561 1271312287
-2.05898 -0.077447496 1.76729 1247228697
-1.94003 0.203045 1.13401 1271378080
-2.0639601 -0.071720101 1.75344 1249009221
-2.10624 -0.070964597 1.8547601 1245389077
-2.1064601 -0.062532596 1.85641 1245455386
-2.09077 -0.053100199 1.82558 1245521435
-2.1036201 -0.053716 1.85409 1226440960
-2.0994899 -0.043217599 1.84487 1245586972
-2.1010699 -0.0329023 1.8495899 1245587229
-2.0936301 -0.0254333 1.83538 1245587229
-2.0940101 -0.018127499 1.8372101 1245522206
-2.3057201 -0.038105 2.2686501 1245587999
-2.20191 -0.0114681 2.05951 1245587229
-1.8516999 0.119659 1.81961 1267092506
-2.02442 0.37310201 1.74207 1267694438
-2.02458 0.37487099 1.74059 1248285245
-2.0299201 0.38354099 1.77381 1248805145
-1.38494 0.799353 4.2973599 1268931869
-2.01473 0.39042601 1.7309099 1246378021
-2.0193999 0.47459701 1.6829799 1267364438
-2.0680001 0.232069 1.74239 1268089444
-1.97277 0.41184399 1.46412 1270061953
-2.8125501 1.03623 2.94121 1269338230
-2.02162 0.46830201 1.6859699 1268285540
-2.0474899 0.0255094 1.74911 1244865819
-1.8221999 0.31061199 1.19882 1269404021
-1.76375 0.47012401 1.6156501 1267552539
-1.78544 0.24390601 1.0043 1269732988
-1.9939899 0.53347301 1.63905 1268219998
-2.13624 0.490033 1.74866 1269009007
-2.1018801 0.57806301 1.69902 1269206131
-1.9861701 0.43007201 1.66632 1248417084
-1.82076 0.16201501 1.01562 1271313049
-1.80738 0.089442998 1.01925 1268811373
-1.994 0.54248202 1.64088 1268351333
-1.78666 0.233631 1.00497 1269469816
-2.0968201 0.58293802 1.69131 1269140851
-1.7871701 0.23157001 1.0053999 1269864574
-2.0181 0.191603 1.71244 1244470289
-2.1423399 0.44918099 1.75463 1269075056
-2.0743699 0.19833399 1.74885 1268549995
-2.0195999 0.18646801 1.71438 1246444846
-2.14978 0.421444 1.76399 1269206642
-2.0762501 0.192966 1.75142 1268549995
-2.03759 0.38700801 1.70569 1267365721
-2.0378499 0.38617 1.70601 1267431257
-2.0034599 0.17701299 1.06668 1272297891
-1.7895 0.217885 1.0072 1269798781
-2.0206201 0.181252 1.71517 1247497535
-1.9858299 0.368251 1.67493 1244467968
-1.79935 0.149708 1.01396 1270259332
-1.99045 0.55900103 1.6355799 1268811884
-1.99022 0.36077499 1.67881 1249403728
-1.82257 0.14964899 1.01686 1271444633
-1.79065 0.21147899 1.00789 1270785676
-2.0065501 0.17052101 1.0691 1272298917
-2.0494599 0.329193 1.7212 1267365721
-2.0072 0.169303 1.06961 1272166818
-1.79984 0.144474 1.01332 1271575192
-2.0509701 0.32205799 1.72247 1268155237
-2.0077801 0.168079 1.0695601 1271310996
-1.9991699 0.30717301 1.68932 1249272660
-2.0081 0.166824 1.06978 1271376789
-2.052 0.31763601 1.72349 1268418409
-2.0085499 0.165576 1.07061 1272297891
-2.1722901 0.30995199 1.7883199 1268746863
-1.80039 0.14079501 1.01457 1270127748
-2.0115399 0.163286 1.07319 1271969439
-2.1725099 0.308972 1.7885 1268615277
-2.00158 0.272232 1.69444 1247097111
-1.9253401 0.211299 1.12819 1269274496
-1.6942 0.29623699 1.38541 1269591615
-2.01948 0.165777 1.70883 1266705739
-2.07059 0.022510501 1.78824 1268089449
-2.1538701 0.42111701 1.76463 1271180184
-2.20011 0.182916 1.81673 1270588299
-2.1091001 -0.0605556 1.85879 1266969941
-2.10131 0.0158372 1.77713 1268352365
-2.09554 -0.062474798 1.8316801 1249469259
-2.0859699 0.14228199 1.76454 1267364954
-2.16908 0.00718797 1.9018 1268944502
-2.0855701 0.052294299 1.83337 1247884313
-2.1905 -0.074993499 1.93387 1268088165
-2.0204 0.140624 1.07783 1248351558
-2.0392699 0.37476301 1.70284 1271772830
-2.01773 0.165344 1.7033 1268811889
-2.01335 0.174593 1.69519 1268943477
-2.0699201 0.0060915798 1.78994 1248942399
-2.1106701 -0.00063147402 1.87993 1249134629
-2.03668 0.38949299 1.6989501 1271970209
-2.1644001 0.40131301 1.7810301 1271180696
-1.52089 -0.229093 1.85997 1249531971
-2.1975801 0.19149999 1.81309 1270588299
-1.43041 0.020450501 1.32594 1267949110
-1.68125 0.26465201 1.34444 1268670511
-2.1567299 0.414996 1.76903 1271179929
-2.09303 0.055973198 1.76443 1269470586
-2.0983601 0.028971899 1.7725199 1268746351
-2.0410199 0.36960101 1.70581 1271772830
-2.0283899 0.17938299 1.73792 1267292207
-2.0840399 -0.0049829502 1.81299 1267957606
-2.0743301 0.027208401 1.80892 1248542749
-1.44067 0.156523 1.34003 1270247484
-2.07919 0.377482 1.78124 1270128262
-2.15764 -0.234479 1.84803 1249864531
-2.0994999 -0.0086586503 1.85689 1249792559
-2.0740299 0.184838 1.74567 1270654092
-2.19996 0.18514299 1.81664 1270588299
-1.97758 0.34034801 1.6448801 1269665914
-2.198 0.19605701 1.81409 1270588299
-2.0864799 -0.0119129 1.81734 1267892327
-2.08637 -0.0141187 1.81696 1267760742
-2.20117 0.174068 1.81789 1270719885
-1.7992899 0.096123397 1.00705 1269798268
-2.0127399 0.181474 1.69447 1269207165
-2.1124401 -0.0229485 1.88187 1249529644
-2.09166 0.070927598 1.76291 1270062723
-2.05478 0.0352397 1.75771 1268286572
-2.03725 0.077242598 1.73195 1268218991
-2.0169899 0.163335 1.70365 1249862731
-2.1178999 -0.0097863199 1.80234 1266772305
-2.0788801 -0.0200726 1.80591 1246903333
-2.1888499 -0.087809101 1.9276299 1268285802
-2.0121601 0.212403 1.69908 1266839129
-2.0880499 0.17030901 1.85821 1267226414
-2.0946801 0.040954702 1.76645 1268877936
-2.1884899 -0.097436503 1.92625 1267957094
-2.07986 -0.023189999 1.80335 1267431776
-1.9992501 0.52673298 1.654 1266706510
-1.91101 0.21025901 1.1368099 1271049624
-2.1956601 0.201253 1.81054 1270588299
-2.07528 -0.026907301 1.79396 1267562079
-2.1832199 -0.036181498 1.923 1268352364
-1.91512 0.21043099 1.1330301 1270918806
-2.07566 -0.031324599 1.79439 1267627872
-2.01017 0.219395 1.69801 1248218942
-2.1340499 0.18932 1.8617899 1269667197
-2.08202 -0.214757 1.7851 1247428655
-1.80129 0.13567699 1.0147901 1269798781
-1.98272 0.33856699 1.65706 1267230546
-2.08764 -0.0364995 1.81785 1267298907
-2.3540499 -0.119 2.04021 1268154986
-2.18104 -0.044314999 1.91834 1268286571
-2.76682 -0.041604999 2.4064 1269799299
-1.8071899 0.0893602 1.01855 1268943472
-1.93102 0.21112201 1.11843 1269668999
-2.05863 0.043214001 1.77854 1248476956
-1.93258 0.211224 1.1172 1269799559
-2.0169699 0.17341 1.70436 1267034452
-1.98025 0.33596301 1.64996 1269468535
-2.0938499 0.048472401 1.76543 1269075828
-1.97218 0.21094701 1.07074 1269339778
-1.92115 0.210236 1.12966 1267629160
-1.9732 0.210853 1.06906 1269404801
-2.0924399 -0.047331002 1.82662 1267233370
-2.0913 0.086934 1.76538 1270193540
-2.18103 -0.0551535 1.91755 1268154985
-1.90467 0.210778 1.14858 1268023916
-1.05601 0.0248242 1.3128 1266969421
-2.9430201 -0.051229201 2.57566 1267233634
-2.0264599 0.157758 1.72227 1249665356
-1.91178 0.210613 1.1396 1267892073
-2.0850799 -0.211733 1.79137 1247560241
-2.7904999 -0.0390485 2.40481 1246837548
-1.98081 0.332405 1.65082 1269468535
-2.78335 -0.040045101 2.4117301 1246377252
-2.19785 0.16922601 1.81387 1271115670
-1.91269 0.21059699 1.1384701 1267892330
-2.06865 0.204834 1.73888 1269996162
-2.7121201 -0.034759 2.3357699 1245192463
-2.0629001 -0.039132599 1.76906 1246048550
-2.0683899 0.211032 1.73883 1270456713
-1.92432 0.21094701 1.1271501 1267563624
-2.04635 0.33625001 1.7116899 1271575194
-1.92957 0.210691 1.1197799 1267432038
-2.06832 0.208929 1.73853 1270390920
-2.0072701 0.169503 1.06924 1269732226
-1.98694 0.31507599 1.66197 1268481639
-1.9388601 0.21015701 1.1063 1267497317
-1.93832 -0.196885 1.4762 1249731402
-2.0450201 0.14260601 1.7564 1267494744
-2.0338099 0.214122 1.74324 1267757402
-1.94484 0.210807 1.10304 1267299938
-2.1682 0.166814 1.2521501 1271245983
-1.94871 0.21066099 1.09784 1267365732
-2.1633601 -0.20993499 1.8647 1266969429
-1.8226 0.153203 1.00857 1271575708
-1.98728 0.302632 1.6617301 1249798734
-2.0474999 0.125009 1.76217 1247756070
-1.95769 0.210412 1.08626 1267694694
-1.9148901 0.21093901 1.14012 1267759977
-2.01386 0.14370801 1.0685101 1271311248
-1.96094 0.21053299 1.08322 1267497315
-2.0676501 -0.133146 1.7503099 1247956798
-1.08246 0.0139794 1.3077 1248082720
-2.00016 0.25445899 1.68231 1248873789
-1.96176 0.210426 1.08171 1267760487
-1.96463 0.211634 1.09815 1246443821
-1.98475 0.075830199 1.02288 1269207161
-1.93469 0.208094 1.11414 1246049062
-1.9382499 0.075639702 0.987216 1247430457
-1.96682 0.210429 1.07596 1267563367
-2.0190001 0.132448 1.07259 1270522506
-1.93743 0.072161503 1.02697 1249140562
-2.8086901 -0.042514499 2.4298201 1271181212
-1.91631 0.205623 1.1228499 1245260060
-2.0334799 0.103945 1.0842 1270390665
-1.80901 0.090111099 1.0208 1272364195
-1.80988 0.086028203 1.02175 1272364195
-1.94613 0.210898 1.10206 1267431781
-1.94726 0.210596 1.09913 1267694694
-1.95125 0.210933 1.0964299 1267431524
-1.97018 0.20789699 1.07003 1247036982
-1.82314 0.141497 1.01859 1271773600
-1.9638 0.210392 1.0792 1267497829
-2.1126299 0.0115593 1.7969 1248614461
-2.04498 0.040780999 1.7431 1248350786
-1.91828 0.21334399 1.14477 1268023919
-2.0056701 0.182716 1.06655 1270587786
-1.91997 0.21336 1.14297 1268023919
-1.8204401 0.15474901 1.0154999 1271247771
-1.92442 0.212905 1.1357501 1267892333
-1.81065 0.079071604 1.02144 1272495779
-1.90159 0.20716199 1.14705 1245917987
-1.9313101 0.21231 1.1251301 1267695211
-1.9376 0.212378 1.11848 1267366502
-1.92369 0.20027401 1.1368099 1271575708
-2.0476899 0.019038901 1.7535501 1247096856
-1.9127001 0.19998799 1.14842 1270984085
-1.93812 0.21229 1.11746 1267366502
-1.90696 0.200067 1.1559 1271115417
-1.91664 0.211484 1.1367199 1269931142
-1.9103 0.207157 1.13697 1246115369
-1.94046 0.212207 1.11445 1267366247
-1.95763 0.20140301 1.10022 1268220014
-1.9408799 0.212192 1.1138999 1267366247
-2.0676501 0.221071 1.7362 1271640987
-1.92004 0.213002 1.14302 1249207381
-1.95494 0.201352 1.10317 1267958125
-1.92292 0.212735 1.1384799 1249207125
-1.94923 0.20169599 1.11224 1267629161
-1.9337699 0.21201999 1.12281 1248747340
-1.99041 0.078073703 1.03004 1269272954
-1.90688 0.20042901 1.15583 1267300193
-1.88099 0.053185899 1.22837 1270390920
-1.96144 0.201371 1.0977 1272101803
-1.95875 0.207349 1.08215 1246115366
-1.9474 0.20844901 1.09882 1246970678
-1.94655 0.20712 1.09495 1246115368
-1.96909 0.208395 1.0742 1246444333
-1.95667 0.52997398 1.63729 1246635783
-1.9773099 0.20859601 1.066 1246049576
-1.94429 0.207381 1.09901 1245852195
-2.0301199 0.22445001 1.74476 1266766381
-1.83929 0.55827701 2.3589101 1267420953
-1.92221 0.206211 1.11753 1245720096
-1.97211 0.212345 1.0764199 1270195084
-1.9914 0.079588898 1.03389 1249601623
-1.9802999 0.211803 1.06467 1270194314
-1.94701 0.208213 1.0999 1245523230
-1.9164 0.213769 1.14706 1270063499
-1.90748 0.20540901 1.13188 1244667408
-1.94432 0.212492 1.10974 1269340035
-1.93626 0.206881 1.10703 1244405519
-1.87874 0.055803701 1.22118 1270851471
-2.77054 -0.047800101 2.4717 1248021053
-1.95433 0.212403 1.0982 1268879487
-1.8022701 0.131404 1.01644 1269140851
-1.95577 0.21213201 1.09526 1268813695
-1.98719 0.191756 1.05182 1271180436
-1.96139 0.21191899 1.08796 1268813694
-1.79965 0.150093 1.01478 1270259332
-1.9628 0.211979 1.0867 1268550523
-2.0210299 0.181786 1.71639 1247892300
-1.96543 0.21191099 1.0834399 1268353144
-1.93068 0.201318 1.1311899 1248154428
-1.97249 0.211457 1.07336 1268089452
-1.9442199 0.20194501 1.11876 1249469520
-1.9789701 0.211495 1.06635 1267957353
-1.98803 0.21164 1.05703 1269666944
-1.98489 0.41340399 1.6580499 1248549440
-1.89785 0.213542 1.16845 1268813432
-1.99823 0.0814927 1.03944 1269536639
-1.89816 0.213587 1.16833 1268813432
-1.9739799 0.20087899 1.07762 1269799558
-1.90096 0.213294 1.1637599 1268879225
-1.98198 0.200938 1.0685199 1270259851
-1.90115 0.213255 1.16335 1268879225
-1.8206 0.156202 1.0167201 1271838366
-1.9059 0.21347199 1.15916 1268550262
-1.90815 0.213348 1.15604 1268484469
-1.99641 0.19903401 1.06269 1270983057
-1.88598 0.0572512 1.2455699 1270324870
-1.98851 0.183074 1.05225 1270457228
-1.95565 0.080956697 1.0170799 1248351559
-1.82213 0.152345 1.0089099 1269997189
-1.82438 0.138134 1.01007 1270654092
-1.82245 0.14973199 1.0083801 1270655119
-1.95631 0.16926201 1.11991 1272102060
-3.06655 -0.030088101 2.48053 1245061657
-1.99325 0.083385497 1.03705 1249075538
-2.00666 0.16841701 1.06993 1269469818
-1.8220299 0.149464 1.01816 1271707551
-2.0176499 0.198741 1.71288 1245325595
-1.99923 0.190111 1.06516 1272298917
-1.82278 0.147791 1.00912 1270194568
-1.96925 0.201335 1.08568 1268155502
-1.98469 0.084400401 1.08946 1246311722
-2.01963 0.083544299 1.07191 1246970676
-2.0290999 0.321695 1.6783299 1249403977
-1.82366 0.14322001 1.0088 1271313049
-2.00265 0.160312 1.06048 1270785423
-1.82691 0.12754799 1.01192 1271181461
-2.00243 0.182174 1.0671901 1270456458
-1.8435 0.075822398 1.02793 1246509616
-1.82376 0.141956 1.00972 1270260361
-1.94924 0.082238898 1.0096101 1247364664
-1.88229 0.066636197 1.23822 1270193541
-2.00263 0.18117 1.06733 1270390665
-2.00509 0.155362 1.06233 1270851471
-1.99858 0.177148 1.05768 1270983055
-1.88607 0.20495901 1.13407 1270984854
-1.9442 0.20083401 1.11534 1271839144
-1.9994 0.17591099 1.05852 1271180436
-1.94846 0.200975 1.11103 1271904935
-1.99877 0.0895219 1.04395 1266970978
-1.9529099 0.201208 1.10707 1271839142
-1.9422899 0.209089 1.11534 1245917474
-1.82719 0.111762 1.02035 1271640987
-1.94943 0.209401 1.10814 1246641710
-2.0086401 0.13547 1.06302 1270127748
-1.9335001 0.210646 1.11754 1268747641
-1.88229 0.063072503 1.23669 1270127748
-1.94835 0.21143501 1.10753 1267366247
-1.82335 0.13981301 1.00877 1270719885
-2.02192 0.12599701 1.0799 1249338712
-2.03457 0.101062 1.73068 1266773848
-2.0251701 0.095778801 1.07488 1270917778
-2.01633 0.122882 1.06954 1269930886
-1.96403 0.21208499 1.09298 1267958384
-1.88035 0.063732997 1.23095 1270127748
-1.82559 0.133967 1.01212 1270654092
-2.00142 0.168648 1.05976 1271312022
-2.00177 0.16311701 1.0598 1271114641
-1.98087 0.21235 1.07696 1267233885
-2.0155101 0.117692 1.06831 1269667971
-2.01384 0.223039 1.7084301 1245720359
-1.98866 0.212749 1.07022 1267694182
-1.79392 0.137251 1.00252 1272101536
-2.0240099 0.099184602 1.07478 1269996679
-2.0229499 0.092483804 1.0728 1269668992
-2.0357201 0.088654503 1.73401 1244272910
-2.0365901 0.051616099 1.72903 1244734492
-1.99858 0.088076703 1.0435801 1266839391
-1.84287 0.077574201 1.02767 1247825733
-1.99348 0.30155 1.68094 1246375447
-2.0506699 0.25713801 1.72009 1267168088
-2.03459 0.100243 1.08512 1270193286
-1.95741 0.53319299 1.63626 1246571287
-1.80678 0.094123498 1.01772 1270719883
-2.0231299 0.100903 1.0739599 1270259850
-1.88235 0.069770001 1.2397701 1270127748
-1.95742 0.086787798 1.01027 1247430716
-2.0743401 0.100514 1.7422301 1249272391
-1.84242 0.079944797 1.02733 1247957059
-2.0013599 0.0917551 1.0473599 1267168357
-2.0086901 0.0575758 1.16045 1249469006
-1.94425 0.208252 1.10909 1245392160
-1.82655 0.130751 1.01235 1271640987
-1.98589 0.059081499 1.13697 1247362866
-1.95298 0.20913599 1.10452 1245523232
-1.8872401 0.073562801 1.25657 1270127746
-2.6277299 -0.056412999 2.4693 1270128012
-1.82892 0.112161 1.01289 1246707245
-2.00142 0.056474902 1.16878 1246574118
-2.0265901 0.097268499 1.07623 1269668225
-1.80479 0.110185 1.01755 1269075828
-1.98955 0.21013901 1.06917 1245785889
-1.8422 0.083231799 1.02711 1246904371
-2.0139301 0.213799 1.07559 1269733763
-2.0225799 0.099315397 1.07486 1266839643
-1.80721 0.092503302 1.01898 1270127233
-2.00302 0.206506 1.0666 1268221044
-2.0410299 0.066879101 1.09252 1272364455
-2.00159 0.093955599 1.04786 1267299942
-2.1083 0.0130416 1.78953 1249731917
-1.84203 0.083794899 1.02758 1248417352
-1.80643 0.097152703 1.01814 1269864061
