# .PCD v0.7 - Point Cloud Data file format
VERSION 0.7
FIELDS x y z rgb
SIZE 4 4 4 4
TYPE F F F U
COUNT 1 1 1 1
WIDTH 1112
HEIGHT 1
VIEWPOINT 0 0 0 1 0 0 0
POINTS 1112
DATA ascii
-0.47331199 -0.122887 0.98279297 1267825005
-0.39673099 -0.121617 0.97261399 1243747597
-0.39291099 -0.121323 0.97026402 1225982977
-0.299606 -0.120614 0.96455699 1225786625
-0.27581599 -0.120472 0.96340501 1266971238
-0.46314299 -0.122073 0.98273098 1244537110
-0.38903901 -0.120657 0.97130799 1267760494
-0.353892 -0.12088 0.97307998 1268286577
-0.47667301 -0.121392 0.983751 1247298360
-0.38989499 -0.119903 0.97165799 1267497319
-0.32104099 -0.1196 0.96917301 1225786626
-0.545847 -0.121619 0.99220902 1246840119
-0.31510901 -0.118454 0.96631497 1225786368
-0.54530501 -0.120846 0.992553 1243944975
-0.47898 -0.11981 0.98402297 1226376964
-0.29771701 -0.117544 0.96534801 1249800550
-0.530321 -0.119787 0.99052298 1248682058
-0.47827399 -0.119007 0.98406202 1248548172
-0.45488 -0.118393 0.97897702 1225918211
-0.42685801 -0.118227 0.977588 1267759717
-0.401759 -0.11784 0.974379 1247563068
-0.377801 -0.117536 0.971861 1267300198
-0.52779001 -0.118406 0.985798 1249142096
-0.31392601 -0.115901 0.96486998 1243813388
-0.46096501 -0.117049 0.981179 1225852931
-0.43752801 -0.116777 0.978894 1246379056
-0.352882 -0.115992 0.97227597 1249799006
-0.53729099 -0.117435 0.99126202 1246114600
-0.48896399 -0.116886 0.98660898 1246313000
-0.42917901 -0.115863 0.97795302 1246050093
-0.369142 -0.114901 0.96981299 1225786882
-0.47900301 -0.115428 0.98109901 1226378497
-0.37757701 -0.114278 0.97128499 1267167840
-0.369167 -0.114113 0.96987897 1225852419
-0.34278199 -0.113897 0.96803802 1246313265
-0.32250401 -0.113541 0.96500403 1267168876
-0.51610303 -0.114994 0.98429 1248615246
-0.39507899 -0.114194 0.977395 1246904373
-0.39414701 -0.114133 0.97686899 1267167843
-0.30433801 -0.113136 0.96830398 1225852931
-0.265971 -0.112606 0.963754 1267301484
-0.54445499 -0.114657 0.98835599 1267892852
-0.52864498 -0.114546 0.98739398 1268089970
-0.40419301 -0.11312 0.97505498 1268352364
-0.44597599 -0.112708 0.97843802 1249205586
-0.36231199 -0.112037 0.972583 1268221297
-0.35027799 -0.112086 0.97300398 1226049538
-0.29622599 -0.111449 0.96744901 1246509617
-0.47949201 -0.112322 0.98210198 1226379266
-0.46317101 -0.112052 0.979729 1268089971
-0.436827 -0.111963 0.97894198 1226641669
-0.42914999 -0.111842 0.97788602 1245655078
-0.40351501 -0.11173 0.97689199 1246838322
-0.368527 -0.110951 0.97007602 1245590057
-0.35169899 -0.110831 0.96901703 1249734235
-0.34930199 -0.110977 0.97029501 1225984258
-0.32069001 -0.110729 0.96811402 1225590275
-0.479496 -0.111517 0.98211098 1226313992
-0.43680301 -0.10251 0.90286899 1268153192
-0.454474 -0.11124 0.97965801 1244010508
-0.29523399 -0.110023 0.96887302 1247168836
-0.26771101 -0.109865 0.967475 1225523456
-0.489142 -0.111259 0.98696899 1244667409
-0.43818 -0.110333 0.97874099 1267827308
-0.42919999 -0.11025 0.978001 1245062687
-0.37948799 -0.109634 0.97251397 1268418675
-0.350943 -0.109006 0.96693802 1249078865
-0.49440601 -0.110487 0.98731297 1244469002
-0.492488 -0.110384 0.98638701 1249470039
-0.46338001 -0.110032 0.98323399 1244338448
-0.40322399 -0.109246 0.97618699 1248614730
-0.29251099 -0.108748 0.97168601 1267959415
-0.26416901 -0.108875 0.97280902 1267958126
-0.47900799 -0.109153 0.98259401 1243618577
-0.37836099 -0.107717 0.96962899 1245061908
-0.375882 -0.107621 0.96876401 1249272918
-0.313402 -0.107255 0.96544802 1226443786
-0.30181 -0.107946 0.97165197 1226246913
-0.29314199 -0.107919 0.971403 1244866335
-0.494708 -0.108773 0.98646599 1245258517
-0.47891799 -0.108327 0.98241001 1225854723
-0.438279 -0.107948 0.978962 1267169127
-0.429313 -0.107871 0.97825998 1226115077
-0.40257099 -0.107661 0.976349 1248088643
-0.38135299 -0.107159 0.97178799 1267430502
-0.342695 -0.107391 0.97387302 1247826759
-0.52367997 -0.108091 0.98763603 1246709303
-0.447375 -0.107076 0.97834301 1247759422
-0.381033 -0.106472 0.972799 1243680001
-0.377731 -0.106149 0.969845 1266970979
-0.32344201 -0.105001 0.95934999 1249074260
-0.295647 -0.106195 0.970227 1226246400
-0.29319799 -0.106605 0.97396702 1225655040
-0.29203999 -0.10697 0.97729701 1225588736
-0.54533303 -0.107531 0.98995101 1267564915
-0.50798303 -0.106735 0.98261499 1267695476
-0.47178799 -0.106087 0.97664303 1268024182
-0.469616 -0.106904 0.98415601 1267301996
-0.39105499 -0.106254 0.97813898 1245850404
-0.38380399 -0.105058 0.96713799 1246376487
-0.375808 -0.105616 0.97226697 1248615502
-0.340242 -0.105923 0.97506797 1245784862
-0.32716799 -0.104501 0.96199101 1247889725
-0.267838 -0.105432 0.97051698 1226442497
-0.54685599 -0.10716 0.99404401 1247037502
-0.50621098 -0.105861 0.981987 1267300208
-0.50510198 -0.106544 0.98831201 1268483964
-0.49791601 -0.106409 0.98706102 1226771969
-0.474289 -0.105844 0.98181999 1266708069
-0.466966 -0.105989 0.98315901 1226444035
-0.46428999 -0.105875 0.98209602 1268418933
-0.44971901 -0.105683 0.98031002 1225719808
-0.448735 -0.105962 0.98290098 1243614467
-0.42881501 -0.105517 0.97876698 1226180353
-0.29951599 -0.104956 0.97350502 1249273430
-0.25277901 -0.099816203 0.92587 1267563123
-0.54710603 -0.106393 0.99449903 1245063457
-0.505346 -0.104725 0.978912 1244930845
-0.50662202 -0.106204 0.99271601 1245391135
-0.460906 -0.104957 0.98105502 1246511151
-0.37175599 -0.104696 0.97857201 1226115072
-0.342273 -0.102986 0.96259803 1244075795
-0.31810901 -0.101167 0.94560802 1245521949
-0.30915901 -0.101204 0.94594401 1246773049
-0.29897901 -0.10422 0.97409302 1267564140
-0.54746997 -0.105224 0.99117798 1249800030
-0.500166 -0.104956 0.98863298 1244536080
-0.48257101 -0.104775 0.98691899 1226181898
-0.46081999 -0.104133 0.98087198 1249537882
-0.42921001 -0.103484 0.97475201 1226179840
-0.42254299 -0.103788 0.97760701 1243877123
-0.42084199 -0.103724 0.977005 1267957355
-0.397237 -0.103766 0.97738701 1226640387
-0.38231701 -0.103045 0.97060001 1267760494
-0.373081 -0.10467 0.985883 1225917440
-0.242649 -0.095125496 0.89604002 1268221043
-0.50009698 -0.10413 0.98849601 1249338967
-0.499329 -0.104122 0.98841703 1267761008
-0.48195201 -0.103519 0.982692 1226772752
-0.46844801 -0.103576 0.98322701 1267497320
-0.45229501 -0.103528 0.98276699 1225851136
-0.434567 -0.102085 0.96907902 1245654054
-0.432962 -0.102044 0.96868402 1245654308
-0.43306601 -0.102237 0.97051698 1245983273
-0.42911801 -0.102662 0.97454298 1246246189
-0.42326799 -0.102811 0.97595698 1247758397
-0.396725 -0.102831 0.97612798 1246246443
-0.372978 -0.10283 0.97610903 1248746832
-0.55141097 -0.103514 0.990385 1249798489
-0.54583102 -0.103563 0.99085402 1243614979
-0.481379 -0.102745 0.98300099 1243681294
-0.452611 -0.101814 0.97409701 1243811844
-0.38716501 -0.101223 0.968413 1249733212
-0.55107802 -0.104157 1.00441 1245916962
-0.48077801 -0.101964 0.98325199 1246575668
-0.47156 -0.102008 0.98367298 1268286069
-0.54599297 -0.102241 0.99380702 1267826287
-0.539814 -0.10232 0.99456501 1267760495
-0.44556701 -0.101597 1.00349 1268285289
-0.205566 -0.078047998 0.957039 1267694951
-0.0150177 -0.076917402 0.95266902 1226245376
-0.202241 -0.077364698 0.968126 1266773856
-0.34712899 -0.0765654 0.97827798 1268021865
-0.0178257 -0.074566603 0.95260698 1246969907
-0.37333101 -0.075665101 0.97703701 1268285546
-0.323331 -0.073465697 0.94866198 1268416880
-0.32579401 -0.074348003 0.96003503 1268482417
-0.36079299 -0.073916502 0.964697 1267891310
-0.34235299 -0.073620804 0.96083498 1266706779
-0.336564 -0.073905401 0.96453899 1249338197
-0.325187 -0.0729471 0.95204902 1247957318
-0.20047399 -0.073798597 0.96307302 1225785600
-0.372751 -0.073379204 0.968054 1246837288
-0.36780101 -0.0731043 0.96442997 1245851173
-0.35693201 -0.072627999 0.95815301 1244666901
-0.332057 -0.072439902 0.95566303 1226705411
-0.32367 -0.072140299 0.95171303 1226049024
-0.209993 -0.072861798 0.96115202 1244140041
-0.018493 -0.072085299 0.95082301 1267299693
-0.34097701 -0.068899103 0.918975 1226245634
-0.35573599 -0.072607502 0.96834701 1226310913
-0.32317799 -0.071096301 0.94821298 1226115072
-0.00658199 -0.0713607 0.95156097 1247695688
-0.33518299 -0.071086302 0.95855802 1243877124
-0.21085501 -0.071336299 0.96185499 1249074765
-0.19878399 -0.071330197 0.96176702 1267300203
-0.35427001 -0.071153998 0.97019702 1244272402
-0.354105 -0.0712649 0.97170502 1247759684
-0.35209301 -0.071292602 0.97208202 1266904929
-0.34955901 -0.071803004 0.97902602 1267299172
-0.34387001 -0.071820699 0.97926301 1267233636
-0.33185101 -0.069747098 0.951038 1267364967
-0.209665 -0.0706238 0.962901 1225916928
-0.35481399 -0.070465997 0.97168601 1245194015
-0.33557099 -0.070486099 0.97195202 1268352632
-0.016356301 -0.0688226 0.948883 1243681036
-0.36701599 -0.069809698 0.97365803 1247825735
-0.211521 -0.069186002 0.96489 1268352372
-0.199095 -0.068824202 0.95984799 1268023923
-0.0156346 -0.0679482 0.94755203 1226311686
-0.0149073 -0.067818798 0.94575101 1225457664
-0.00939814 -0.068309501 0.95257699 1225523713
-0.2015 -0.068132102 0.96119499 1226642188
-0.0122303 -0.067654103 0.95436001 1225983491
-0.35512501 -0.068133302 0.97253698 1244405527
-0.200735 -0.0673244 0.96092701 1266972007
-0.0115343 -0.066914298 0.95498002 1247957833
-0.326931 -0.066198699 0.96758699 1243879954
-0.0135293 -0.064791702 0.94688803 1268484727
-0.49520099 -0.0659336 0.987454 1267956582
-0.49588001 -0.065598898 0.99465001 1243943690
-0.48741299 -0.0626266 0.98641902 1226443011
-0.48791301 -0.062784798 0.98890501 1247825222
-0.49443001 -0.060886599 0.98447001 1268680303
-0.49549001 -0.0611072 0.98803002 1249601622
-0.323843 -0.059009001 0.96688497 1267825007
-0.320317 -0.058884699 0.96485001 1268088431
-0.47437099 -0.058231801 0.96724403 1268614254
-0.32680199 -0.057947401 0.97571403 1268218993
-0.089097701 -0.061357401 1.0473 1268484465
-0.265277 -0.059319202 1.02704 1268089456
-0.19323599 -0.060956299 1.05528 1268353134
-0.082539096 -0.0550882 0.953843 1267760997
-0.057138599 -0.055689 0.96420699 1268550258
0.028921301 -0.054440498 0.94258797 1269800326
0.040346999 -0.053919502 0.93358099 1268287607
0.072953098 -0.0551611 0.95501101 1245851944
0.091495499 -0.0544612 0.94291002 1245194015
-0.12516101 -0.054493401 0.957165 1268353137
-0.119586 -0.053266 0.93565297 1268945018
-0.082566701 -0.054323498 0.954162 1269077372
-0.0812492 -0.0543833 0.95520902 1268812669
0.090611003 -0.0535748 0.94094002 1225720577
-0.49761701 -0.0551822 0.98360097 1268746095
-0.28823999 -0.054389 0.96937299 1268813434
-0.284778 -0.0545475 0.97218901 1268813175
-0.28313699 -0.054784998 0.97641098 1268484474
-0.241649 -0.053408299 0.95190901 1267694697
-0.1648 -0.053979799 0.96202397 1268748158
-0.15662199 -0.053367499 0.95113301 1266842218
-0.116867 -0.0544465 0.97029299 1269142407
-0.0545954 -0.053702399 0.95702702 1269012360
-0.0495479 -0.053584799 0.95493197 1268025210
-0.034112498 -0.053666599 0.95637798 1244340249
-0.030330401 -0.053217199 0.94838601 1244405528
0.027665401 -0.0531522 0.94719499 1245719586
0.076526999 -0.0517179 0.92166603 1225589505
0.087776899 -0.052766599 0.94030398 1226246405
-0.29847601 -0.053125098 0.96092999 1268156274
-0.245947 -0.052796699 0.954974 1244930840
-0.24645101 -0.053210299 0.96243602 1244995858
-0.246373 -0.0533472 0.96490502 1244995597
-0.243634 -0.0529061 0.95694602 1244470026
-0.213467 -0.0534789 0.96726203 1268616831
-0.20305499 -0.053553801 0.96860701 1247957059
-0.188063 -0.053351998 0.964957 1268812924
-0.0583813 -0.053151902 0.96126902 1267630706
-0.0354844 -0.0528249 0.955356 1225458177
0.0143385 -0.0521557 0.94325203 1225588992
0.028398201 -0.0524389 0.94835401 1226245380
0.059899401 -0.051865399 0.93798703 1269010559
0.067109697 -0.0520957 0.94213802 1226049029
-0.488866 -0.053963199 0.99083602 1245654053
-0.36578 -0.0530583 0.97419101 1268288377
-0.27900201 -0.0528077 0.96954799 1247893067
-0.27864099 -0.052875001 0.97078103 1249538661
-0.237876 -0.0528806 0.97085899 1267038571
-0.22104 -0.052790899 0.96920598 1246116653
-0.21775299 -0.052687 0.96730202 1266709605
-0.21405999 -0.052655399 0.96671999 1247695176
-0.21137001 -0.0525181 0.964203 1246839612
-0.17997099 -0.052689999 0.96733302 1244734753
-0.085931398 -0.052309699 0.960311 1226311426
-0.079717301 -0.051950701 0.95373303 1244931356
-0.072880097 -0.052089199 0.95626599 1225984261
-0.061676599 -0.0521533 0.95743299 1267433063
-0.020638499 -0.051901199 0.95279199 1225655041
-0.0192267 -0.051882401 0.952447 1225458432
0.041144401 -0.050990298 0.93607098 1225851650
0.0417885 -0.050933901 0.93503797 1244931873
0.075156301 -0.050657 0.92994702 1245260579
0.0976272 -0.050935902 0.93504202 1225523968
-0.45155999 -0.0528013 0.98432797 1249534801
-0.42202801 -0.052737601 0.983127 1268548208
-0.41417801 -0.052385598 0.976578 1268220785
-0.40472499 -0.052466899 0.97808301 1268877946
-0.40149799 -0.052516401 0.97900099 1245127702
-0.35493001 -0.052036401 0.97004801 1225786880
-0.30080101 -0.051582102 0.96156901 1226049027
-0.29225501 -0.051826999 0.96611601 1268023926
-0.284282 -0.051543102 0.96083301 1226049284
-0.235259 -0.0516655 0.96307999 1245787433
-0.235653 -0.052067101 0.97054702 1267367281
-0.075830698 -0.051392999 0.95791602 1225589504
-0.0205056 -0.050791699 0.94670397 1225852420
0.0598602 -0.050292399 0.93737102 1225851393
0.098296598 -0.0498075 0.92833197 1268420223
-0.54393601 -0.052506302 0.99406803 1268418169
-0.51085699 -0.0522702 0.98958999 1268484468
-0.442476 -0.051778998 0.98027402 1246378539
-0.40375 -0.051539399 0.97572601 1247034928
-0.308238 -0.051086299 0.96711302 1225851394
-0.30440599 -0.050567199 0.95730901 1225719808
-0.244488 -0.050875001 0.96308398 1268023920
-0.21333 -0.050557099 0.95706302 1226049540
-0.17009801 -0.0509215 0.96391702 1249865309
-0.152569 -0.051000599 0.96539903 1225787653
-0.133582 -0.050816402 0.96191001 1267234670
-0.13137899 -0.050787002 0.96135402 1225654272
-0.047401 -0.050412402 0.95423001 1208419328
-0.039740201 -0.0505106 0.95607901 1226245632
0.0032003201 -0.049635299 0.93952501 1268484730
0.0277676 -0.050228801 0.95071697 1246444846
0.064199902 -0.049673401 0.94020802 1225852161
0.099348404 -0.049228299 0.93178302 1269078148
-0.54986203 -0.051835101 0.99684399 1268747645
-0.54701501 -0.051774099 0.99567199 1268616061
-0.42717001 -0.050872698 0.97831202 1246443041
-0.29675299 -0.050038598 0.96223402 1267696490
-0.295315 -0.0502772 0.96680897 1268682618
-0.257238 -0.049940702 0.96033299 1267892852
-0.24618401 -0.050432701 0.96976101 1268352882
-0.164828 -0.050040498 0.96219099 1225917440
-0.151921 -0.050229099 0.96579999 1208418817
-0.126673 -0.0500989 0.96328801 1268749435
-0.118774 -0.0500618 0.96257102 1268617094
-0.11787 -0.049979299 0.960989 1267103343
-0.067987204 -0.049765099 0.95684999 1245722411
-0.058632098 -0.0496087 0.953843 1268091258
-0.041859102 -0.049731102 0.95618099 1246707247
-0.038387701 -0.049799901 0.957497 1244668442
-0.02121 -0.049252599 0.94699103 1269077131
-0.019130901 -0.049291901 0.94774401 1246314299
-0.0177473 -0.049329899 0.94847101 1225458176
-0.0093714204 -0.049406599 0.94993699 1225589249
-0.0079701198 -0.0494023 0.94985503 1225523712
0.0256072 -0.049336001 0.94856203 1249733722
0.0282086 -0.047806598 0.91922802 1269012098
0.078157596 -0.0485285 0.933043 1225392640
-0.50362098 -0.051171999 0.999834 1245720354
-0.50105 -0.051059999 0.99764901 1245129501
-0.435588 -0.0501258 0.97940701 1268220785
-0.394012 -0.0499801 0.976542 1267760496
-0.217418 -0.049273498 0.96266502 1268353661
-0.167009 -0.049266499 0.962497 1244865303
-0.15001599 -0.049512699 0.96728402 1248880984
-0.085904904 -0.049141701 0.96001703 1269076872
-0.067281097 -0.048979301 0.95683998 1245722410
-0.0565589 -0.0488571 0.95445299 1249537375
-0.017774399 -0.048624899 0.94990402 1245195556
0.0570907 -0.047979601 0.93728501 1244931870
-0.53484601 -0.0500312 0.99351197 1268615537
-0.50506699 -0.049910799 0.991108 1244799503
-0.30013201 -0.048662402 0.96626002 1225392128
-0.188495 -0.048711699 0.96716899 1267958899
-0.188026 -0.048775099 0.96842301 1267038056
-0.186913 -0.048671201 0.96636498 1247563842
-0.17592999 -0.048392799 0.96084499 1225326592
-0.136888 -0.048614699 0.96521598 1268090227
-0.114544 -0.0481948 0.95688701 1226048515
-0.108894 -0.0485062 0.96304899 1246246441
-0.055885699 -0.048099902 0.95497203 1267301998
-0.0184555 -0.0477961 0.94893098 1269209999
-0.55714798 -0.049375501 0.996737 1267694183
-0.503847 -0.048836902 0.98586297 1268550258
-0.45346001 -0.048732501 0.983729 1269668751
-0.40564999 -0.048305701 0.97510898 1243680263
-0.331898 -0.048034199 0.969598 1246773814
-0.31174901 -0.048123699 0.97138798 1248747863
-0.25119501 -0.047638699 0.96158701 1267169129
-0.218711 -0.0476657 0.96210998 1243811848
-0.21551999 -0.047744501 0.96369398 1268615802
-0.17591301 -0.047599599 0.96075302 1225392384
-0.171708 -0.047809701 0.96497899 1243615489
-0.12967101 -0.0477852 0.964459 1267565684
-0.087448999 -0.047635902 0.961429 1268419971
0.055023901 -0.0464462 0.93739098 1268089460
0.090966299 -0.046098199 0.93036503 1267235436
-0.55626398 -0.048544399 0.99646902 1266903899
-0.461041 -0.047808599 0.98134899 1267432303
-0.45530301 -0.047813799 0.98145199 1243679753
-0.437148 -0.047727201 0.97966701 1226377476
-0.414029 -0.047726002 0.97962898 1243813392
-0.309127 -0.0471447 0.96766597 1246378800
-0.296491 -0.046838101 0.96138299 1267565167
-0.208362 -0.0469414 0.96344101 1225393152
-0.14771099 -0.047077999 0.96619999 1267828852
-0.138366 -0.047049001 0.965599 1268024947
-0.13192999 -0.046785899 0.96021003 1225588992
-0.096728899 -0.0468788 0.96209002 1268682623
-0.088887103 -0.046857599 0.96165198 1247958863
0.0370446 -0.045662399 0.93710899 1244143124
-0.55126601 -0.0477392 0.99672502 1244798229
-0.51181501 -0.0474867 0.991445 1246050088
-0.502083 -0.047258001 0.98667902 1245325340
-0.483771 -0.047103599 0.98345101 1245852974
-0.48002401 -0.047091499 0.983199 1246115115
-0.433911 -0.0469638 0.98051101 1266708836
-0.423623 -0.046864901 0.97844499 1266905193
-0.40772799 -0.046778802 0.97664303 1248942414
-0.28143001 -0.0464889 0.97052801 1226180865
-0.27215099 -0.046128102 0.96301198 1225851136
-0.238581 -0.046088401 0.962165 1267234406
-0.23836499 -0.046184201 0.96415901 1246312746
-0.17491999 -0.046322901 0.96700501 1244669720
-0.116701 -0.046133898 0.96303302 1268747642
-0.097470097 -0.046104301 0.96240503 1268682367
0.020027701 -0.0454771 0.94927597 1249142101
-0.55070698 -0.046936199 0.99704301 1244798744
-0.49512199 -0.046409398 0.98584998 1267234409
-0.43317601 -0.0461578 0.98048198 1266971747
-0.422993 -0.046071898 0.97865498 1267563382
-0.29606101 -0.045412 0.96460003 1247892028
-0.270677 -0.045328598 0.962816 1247760194
-0.23043799 -0.045371499 0.9637 1244997402
-0.184516 -0.0454344 0.96500301 1247300413
0.0193235 -0.0446877 0.94906002 1248945752
0.055639099 -0.0440774 0.93611002 1225458432
0.062594101 -0.044115499 0.93691403 1225526276
-0.54066998 -0.046014201 0.99479902 1244535572
-0.49542099 -0.0459661 0.99373299 1226511892
-0.458004 -0.0454503 0.98259097 1226771979
-0.350831 -0.044713199 0.96663499 1268879747
-0.346616 -0.045186698 0.97683799 1268352373
-0.22020701 -0.044667002 0.96555698 1268353402
-0.20840999 -0.044579498 0.963664 1246840121
-0.184055 -0.044530701 0.96259701 1249011031
-0.173162 -0.044649798 0.96515602 1268222067
-0.13833199 -0.044660602 0.96536601 1225918978
-0.0453935 -0.044247001 0.956393 1226642705
-0.036127299 -0.044124398 0.95374399 1268091765
0.0088031497 -0.0437795 0.94628102 1268879490
-0.51131803 -0.045001999 0.99048299 1245326366
-0.44005099 -0.0445861 0.98131198 1244009998
-0.43225801 -0.044528399 0.98004001 1266774624
-0.42756 -0.044870201 0.98753601 1268352635
-0.35311699 -0.044117 0.97096199 1248089931
-0.35137299 -0.044167701 0.97207499 1249339223
-0.272228 -0.043884199 0.96580201 1226114560
-0.207752 -0.043950401 0.96721399 1225853188
-0.19909599 -0.043771401 0.96328002 1267959415
-0.031255901 -0.0434114 0.95527297 1225457664
0.081637397 -0.0424226 0.93350399 1225457920
0.088858999 -0.0425862 0.93708801 1268749958
-0.56116998 -0.044437099 0.99605501 1244536083
-0.52018499 -0.0443229 0.99347699 1244404500
-0.51959699 -0.044335298 0.99375302 1244010514
-0.34816 -0.0436868 0.97915298 1226180864
-0.236984 -0.0428975 0.96144301 1246445108
-0.097438097 -0.042930499 0.96209103 1226115074
0.0179094 -0.042315301 0.94826901 1244078107
0.0391143 -0.041813299 0.937038 1225523456
-0.49443901 -0.043177102 0.985937 1267300965
-0.46533799 -0.043039601 0.98278701 1267760495
-0.40299499 -0.0427274 0.97564101 1267628395
-0.40161899 -0.042734101 0.975793 1244864789
-0.23775201 -0.0421189 0.96168399 1268156022
-0.207096 -0.042084001 0.960868 1226378245
-0.20072199 -0.0422334 0.96426499 1225261056
-0.133303 -0.0422685 0.96502 1226708494
0.038046598 -0.041388001 0.94486499 1266709097
0.0539819 -0.041322 0.943353 1269011331
0.063946299 -0.041020501 0.93648398 1268553095
-0.55010903 -0.042798601 0.99596101 1268813695
-0.54869401 -0.042860299 0.99739099 1244207118
-0.44111201 -0.042202499 0.98206401 1266971489
-0.39577699 -0.041923899 0.97557199 1245325853
-0.350768 -0.041959699 0.97637302 1244273423
-0.207055 -0.041287001 0.96067399 1226575623
-0.155332 -0.0412804 0.96048701 1249340511
-0.098529898 -0.041214399 0.95891798 1247760450
-0.060130801 -0.0405844 0.94428003 1268681335
-0.0150067 -0.040918902 0.95201099 1225523712
0.0172108 -0.040759701 0.94829702 1208221696
0.063483603 -0.040397499 0.93986398 1249078884
-0.54874802 -0.042045999 0.99748999 1244404751
-0.49906701 -0.0418256 0.99224699 1268812915
-0.42170301 -0.041267999 0.97900999 1249800551
-0.269995 -0.040591698 0.962919 1244997657
-0.092749201 -0.040372599 0.95762098 1225327363
-0.540066 -0.041125901 0.99503601 1247825218
-0.53925699 -0.041120101 0.99489701 1268220530
-0.44063199 -0.040546302 0.980995 1268550517
-0.43062401 -0.0404891 0.979608 1249339739
-0.339766 -0.040162198 0.97166401 1247431227
-0.26839 -0.039773799 0.96225101 1268222838
-0.207268 -0.039751101 0.96166199 1243812876
-0.17625 -0.039790601 0.96259397 1225524992
-0.14286999 -0.0397829 0.96238601 1268550260
-0.14194199 -0.039921202 0.96572202 1267168357
-0.071537301 -0.039568201 0.95716298 1245459236
0.088361599 -0.038825601 0.93914801 1246972737
-0.460493 -0.0399593 0.98637098 1245786669
-0.45939901 -0.0399273 0.98558402 1267300977
-0.278061 -0.039349701 0.97125298 1226049030
-0.154011 -0.038939498 0.96107799 1225392640
-0.146367 -0.0389794 0.96205503 1248090182
0.038737301 -0.038279898 0.94472301 1244273944
0.0477851 -0.037183899 0.91775298 1268682620
-0.52171099 -0.039435901 0.99359602 1269010814
-0.51062298 -0.0393149 0.99055201 1266774626
-0.43943599 -0.038958501 0.98155302 1244536083
-0.42045799 -0.038809299 0.97779399 1245129248
-0.41554299 -0.039025199 0.98321199 1226642185
-0.41128299 -0.0387596 0.97654003 1267827575
-0.36498401 -0.038658999 0.97398299 1267629417
-0.114133 -0.038083199 0.95935601 1268683396
-0.0149691 -0.037699301 0.949651 1225589248
0.0179046 -0.037634801 0.94800901 1243749143
0.038740601 -0.037507702 0.944803 1244339481
0.087488003 -0.0372063 0.937204 1226642445
-0.54010898 -0.038679302 0.995116 1247102779
-0.539316 -0.0386751 0.99500698 1267695216
-0.52130997 -0.0386452 0.99422801 1267037284
-0.52071702 -0.038655601 0.99449497 1246115113
-0.46140701 -0.038355902 0.98677099 1226312451
-0.45276999 -0.038738299 0.99656802 1268483699
-0.41426799 -0.038167499 0.98190898 1247629636
-0.277771 -0.037426099 0.96281099 1245458213
-0.130147 -0.037426699 0.96272397 1268156025
-0.12890901 -0.037479602 0.96407902 1268287352
-0.088897198 -0.0373904 0.96176398 1267433845
-0.082302101 -0.0372933 0.95927 1267103081
0.062800802 -0.036545999 0.94001502 1225393410
-0.52075899 -0.037842501 0.99457401 1246049321
-0.495915 -0.037737001 0.99179298 1244339217
-0.44710699 -0.037567101 0.98731101 1268615287
-0.268343 -0.036608499 0.96208501 1268353403
-0.237526 -0.036668599 0.96363902 1248353105
-0.20840199 -0.036669001 0.96362698 1249471580
-0.14215399 -0.0366216 0.96234 1266774110
-0.13404299 -0.036731999 0.96522599 1225590787
-0.125485 -0.036518801 0.95963699 1244930844
-0.076621197 -0.036835 0.967884 1226443528
-0.063912898 -0.036504399 0.95921701 1225719808
-0.054033399 -0.036518201 0.95957202 1249470808
-0.00729167 -0.036255501 0.95266098 1245065254
-0.509817 -0.0368708 0.99040502 1268550521
-0.44808099 -0.036717199 0.98624998 1268550007
-0.430767 -0.0364816 0.97993398 1244998689
-0.35426599 -0.036192801 0.97215199 1245128729
-0.305444 -0.035844799 0.96280301 1226443781
-0.156295 -0.035984401 0.966438 1268090489
-0.115712 -0.035771899 0.96072102 1225523200
-0.10419 -0.035706598 0.95896602 1247694391
-0.084379002 -0.035699598 0.95876598 1225785857
-0.076878399 -0.035827599 0.96218503 1225851393
0.077657901 -0.034827601 0.935314 1268485757
0.086188398 -0.034931902 0.93810099 1225590272
-0.45033699 -0.035913799 0.98641598 1249141073
-0.44688699 -0.035928801 0.98682398 1248811592
-0.44004899 -0.035786401 0.98292297 1244734233
-0.14122599 -0.034987502 0.96085101 1243747084
-0.12687001 -0.0339857 0.93343103 1245458211
-0.122643 -0.034940202 0.959544 1245654820
-0.116379 -0.034970898 0.96038002 1246180906
-0.0065779798 -0.034632999 0.95105702 1268157822
0.0088162003 -0.034510601 0.947698 1269274248
0.017908299 -0.0345295 0.94820702 1243682323
0.057338499 -0.034280401 0.94136298 1226180611
0.078464702 -0.034111101 0.93671602 1246380087
-0.52071702 -0.0353911 0.99449497 1246180907
-0.26335499 -0.034516301 0.96982598 1268024178
-0.123099 -0.033130601 0.93093598 1269011074
-0.12572201 -0.0340284 0.95606899 1269011074
-0.091809303 -0.034261201 0.96256101 1226183436
-0.080752701 -0.034086801 0.957672 1268550519
-0.0765315 -0.034093399 0.95785302 1268550519
-0.063700303 -0.034028798 0.95603502 1269339775
0.083925702 -0.033594601 0.94377798 1208352768
-0.557037 -0.034645502 0.99654001 1244471061
-0.549752 -0.034649398 0.996647 1268220790
-0.548338 -0.0346529 0.99674499 1244338455
-0.363341 -0.0337101 0.96960199 1267629670
-0.174694 -0.033443999 0.96184403 1249406564
-0.091622002 -0.0334027 0.96060097 1225986056
-0.46994501 -0.033535499 0.98790503 1246708021
-0.43691099 -0.033348098 0.98238099 1266971235
-0.30826801 -0.032834101 0.96720803 1268221558
-0.270055 -0.032696199 0.96313298 1226509835
-0.20496599 -0.032619599 0.96083999 1225327617
-0.182124 -0.032588098 0.95990002 1225720320
-0.143447 -0.032806002 0.96626502 1268682356
-0.089883097 -0.032497399 0.95717102 1268355713
-0.0657648 -0.032434799 0.95531499 1268615792
-0.017781699 -0.032265101 0.95030302 1268813943
0.057910699 -0.031894799 0.93938202 1266840680
0.0582323 -0.031691499 0.93341899 1245721386
-0.50993299 -0.032814499 0.99063098 1268550523
-0.45292199 -0.0325999 0.984137 1268943740
-0.44790801 -0.032551698 0.98268503 1269010560
-0.44400299 -0.0325309 0.98205602 1269208192
-0.18440901 -0.0318285 0.96074897 1268287350
-0.0072926101 -0.031567998 0.95278901 1245065253
0.065271102 -0.0310007 0.93567801 1226510603
-0.47139999 -0.031963501 0.98943001 1267563885
-0.460475 -0.031863298 0.98633301 1248417870
-0.45627999 -0.0317734 0.983558 1268548726
-0.25896999 -0.031321 0.96946698 1243615756
-0.14781199 -0.031239299 0.966865 1225786368
-0.098891698 -0.031096701 0.96243501 1225721088
0.059918702 -0.0303172 0.93828797 1249669217
-0.496838 -0.0312378 0.99217802 1248220239
-0.35400799 -0.0305856 0.97144401 1245325852
0.0475748 -0.0296141 0.94041997 1268881030
0.075356998 -0.029634301 0.941037 1245784612
0.081556402 -0.029618099 0.940521 1243945748
-0.55516601 -0.030574899 0.997136 1268418165
-0.49684799 -0.0304242 0.99219799 1248351824
-0.33351099 -0.029684599 0.96806097 1248219973
-0.243239 -0.029728699 0.969423 1268023668
-0.147819 -0.029653599 0.96691102 1225786368
-0.145491 -0.0294702 0.96095502 1268419448
-0.140247 -0.0295598 0.96386099 1225655044
-0.097048298 -0.029175101 0.95133799 1225261568
0.069327801 -0.0286624 0.93456602 1247365697
0.081916898 -0.028728601 0.93670601 1268814214
-0.47028899 -0.029503601 0.98862797 1246379059
-0.45948499 -0.0294181 0.98576897 1268024184
-0.268271 -0.028704699 0.96182603 1268089974
-0.24647699 -0.028809899 0.96531701 1268878721
-0.20063099 -0.028766399 0.96382898 1225392384
-0.183097 -0.028690699 0.96129298 1246445108
-0.017080899 -0.0283648 0.95029402 1268485240
0.0192941 -0.028284799 0.94759601 1269012358
0.076826803 -0.028119801 0.942047 1225588736
0.078344002 -0.0281661 0.94359303 1226508806
-0.51833099 -0.0286888 0.98854899 1267300717
-0.46958399 -0.0286937 0.98867702 1243879186
-0.29864901 -0.027971501 0.96377498 1226312455
-0.277832 -0.027950101 0.96302497 1246970935
-0.238802 -0.0280357 0.96592999 1226048001
0.064931102 -0.0273086 0.94075799 1247696196
-0.471214 -0.0278925 0.989039 1268352890
-0.47024301 -0.027878201 0.98852998 1246839610
-0.24543101 -0.0272674 0.96680099 1226377476
-0.19866 -0.0271089 0.96117002 1267367022
-0.156882 -0.027237199 0.96566403 1268484469
-0.14055499 -0.0271085 0.96111101 1225588992
-0.134111 -0.0272393 0.96572 1208353024
0.071690798 -0.0269957 0.95696098 1248550994
0.073617101 -0.027187301 0.96372098 1248550737
-0.308038 -0.026464 0.96648902 1268089718
-0.154955 -0.026358699 0.96254098 1247432773
-0.14220101 -0.026362199 0.96265602 1267300714
-0.089306697 -0.026250601 0.95855701 1268880519
-0.047321402 -0.0260887 0.95264202 1225261825
0.0095291603 -0.0259936 0.94913799 1267104103
0.064158 -0.0257321 0.939592 1226181891
0.075084999 -0.026412901 0.96432501 1269275014
-0.487351 -0.026314 0.99072999 1267365990
-0.243579 -0.0257867 0.970779 1249799516
-0.154935 -0.025565499 0.96241999 1247432773
0.064603701 -0.0248651 0.93600303 1267499890
-0.35393301 -0.024999499 0.971237 1244601873
-0.254976 -0.024706099 0.95981902 1267497838
-0.245502 -0.0249671 0.96989501 1268287346
-0.206273 -0.024720499 0.960334 1225261568
-0.19899701 -0.0247845 0.96279901 1266906727
-0.17550801 -0.0248762 0.96632499 1248484435
-0.0086473301 -0.024390399 0.94740999 1225458688
0.0095293503 -0.0244359 0.94915599 1266972261
0.0450885 -0.0243671 0.94646502 1225261056
-0.468595 -0.024508299 0.98354399 1268550522
-0.41126201 -0.0243329 0.97649401 1267432038
-0.31506699 -0.024022499 0.96402401 1245653794
-0.253676 -0.0239293 0.96025097 1226245632
-0.176521 -0.0241243 0.96797103 1226247175
-0.173784 -0.0239431 0.96073598 1269011333
0.0095296297 -0.023657501 0.94918299 1266906468
0.017907901 -0.023632601 0.94818097 1226248457
0.059142899 -0.0233522 0.93695301 1226115075
-0.55687398 -0.024039101 0.99756497 1246312234
-0.25593501 -0.0231534 0.96076 1244076048
-0.130596 -0.0231573 0.96081102 1268156796
-0.055445898 -0.023127999 0.95953703 1268682105
-0.0164073 -0.0229425 0.95185 1269077383
-0.54839599 -0.0232352 0.99818802 1244207386
-0.557643 -0.022403199 0.99762499 1244141320
-0.51096702 -0.022259399 0.99122101 1246708274
-0.27860901 -0.021632399 0.96325803 1267892850
0.039434701 -0.0212205 0.94474202 1225457664
-0.48493499 -0.0213289 0.98581898 1267300453
-0.45959401 -0.0213334 0.98600298 1243944202
-0.41386199 -0.021224299 0.98094797 1245786401
-0.28279701 -0.020995401 0.97031403 1268286828
-0.24119 -0.0204964 0.94735903 1268221806
-0.140459 -0.020783599 0.96045601 1267367283
-0.106491 -0.0207872 0.96059 1268813683
-0.10321 -0.02084 0.96301198 1269273985
-0.097012497 -0.0207288 0.95789999 1225719808
-0.0149862 -0.020574501 0.95073599 1225589248
-0.0065656099 -0.020544101 0.94933403 1267959675
-0.52118701 -0.0208675 1.00245 1226707986
-0.488251 -0.0206299 0.99107498 1245458213
-0.41368401 -0.0203389 0.97711498 1226049538
-0.25346699 -0.0200285 0.96214497 1225589250
-0.106142 -0.020067001 0.96384901 1248286017
-0.097057201 -0.0199518 0.95833999 1225851648
-0.015743 -0.019864401 0.95409298 1248484434
-0.0149942 -0.019804699 0.95124298 1225983488
-0.43293601 -0.019659599 0.98322099 1268745848
-0.298585 -0.0192667 0.96357203 1225852674
-0.0473109 -0.019047299 0.952434 1208287488
0.0179331 -0.0189899 0.94952297 1225655560
0.089615002 -0.019672699 0.98337197 1269143167
-0.55700701 -0.019131901 0.99780399 1269076353
-0.457459 -0.0188476 0.98298001 1243878412
-0.104012 -0.0184852 0.963866 1268352629
-0.096275799 -0.018364299 0.95759702 1225787392
0.070329703 -0.0180036 0.938752 1266709346
0.085428603 -0.0194009 1.0111001 1269341064
0.086745903 -0.019530701 1.01783 1269670029
0.087946102 -0.0196319 1.02307 1269998994
0.089110002 -0.0197233 1.0278 1270130580
-0.243762 -0.0177802 0.96866399 1268156796
-0.046176299 -0.0175869 0.95800799 1191248128
0.046920702 -0.017278001 0.94120902 1246841150
0.066353001 -0.0170986 0.93148702 1208353024
0.067782499 -0.0171129 0.93225902 1225591040
0.068807699 -0.017198199 0.93686998 1225590784
0.0852869 -0.0170395 0.928271 1249471838
-0.48476699 -0.0172779 0.985479 1247694916
-0.25832701 -0.016909599 0.96440202 1226179328
-0.237887 -0.0163798 0.93439198 1246839867
-0.23866101 -0.017080801 0.97406799 1267104109
-0.224347 -0.016246401 0.92682803 1267762295
-0.18316001 -0.016861999 0.96162701 1247562561
-0.54782701 -0.016664701 0.997154 1245324827
-0.52193302 -0.0166359 0.99541801 1267431026
-0.49421901 -0.016493799 0.98695099 1267563117
-0.466093 -0.016502799 0.98745698 1245656103
-0.45599201 -0.0164269 0.98294097 1226707464
-0.43058899 -0.016397599 0.98117602 1249402704
-0.36410701 -0.0162383 0.97164798 1268024692
-0.354215 -0.0162446 0.97201198 1225524992
-0.245562 -0.0161674 0.96731597 1225523712
-0.085389003 -0.016083799 0.96218097 1249801322
-0.0164476 -0.01595 0.95416701 1269076872
0.0088395197 -0.0158842 0.95023102 1269472396
0.0461719 -0.0157139 0.94008601 1225327105
0.088171601 -0.0189605 1.13275 1225589762
-0.56030703 -0.015866799 0.99844301 1246641978
-0.43225199 -0.0156003 0.981668 1244534794
-0.258452 -0.016378099 1.03002 1225655554
-0.23413999 -0.0154201 0.97021103 1225392640
-0.199955 -0.0153212 0.96399802 1226115592
-0.18525399 -0.0153995 0.96886599 1268287097
-0.175889 -0.0153298 0.96450901 1225458944
-0.138368 -0.0153483 0.96562099 1268485502
-0.068044201 -0.0152219 0.95765901 1249075283
0.0186121 -0.0150757 0.94844198 1244407067
0.0475544 -0.0149412 0.940014 1248551508
0.053111501 -0.0124718 0.785918 1225655810
-0.54864401 -0.0150304 0.99730402 1267365734
-0.537956 -0.0149987 0.995206 1267826798
-0.50078601 -0.0150063 0.99566698 1268812916
-0.49571499 -0.0149637 0.99285901 1245522460
-0.480598 -0.0148576 0.98586601 1268682616
-0.420304 -0.0147561 0.97911698 1244207121
-0.41376799 -0.0148067 0.98244202 1248352077
-0.36367601 -0.014626 0.97049803 1267629937
-0.198808 -0.0145502 0.96532798 1249142622
-0.126919 -0.0145489 0.96516001 1225721088
-0.111714 -0.0145146 0.96288598 1268353658
-0.110928 -0.0145046 0.962228 1248878672
0.00953703 -0.0143196 0.94992399 1245655081
0.0905279 -0.0140625 0.93291998 1226311940
-0.538679 -0.0141817 0.99518698 1245589279
-0.49448201 -0.0141345 0.99185401 1244601876
-0.093216501 -0.0137182 0.96244299 1244405268
-0.074838899 -0.0136013 0.95428997 1268288891
-0.068934098 -0.0136866 0.96021599 1225916672
-0.059413299 -0.0136133 0.95510399 1268682099
-0.044710498 -0.0136389 0.95687097 1225787909
-0.0065949601 -0.0135909 0.95349002 1225261312
0.036589 -0.0134436 0.94319302 1267168618
0.0925982 -0.0132977 0.932989 1249339740
-0.47897899 -0.0132147 0.98403299 1268814468
-0.476152 -0.0132986 0.99021697 1244797712
-0.43738699 -0.0131635 0.98020798 1268944518
-0.41302601 -0.0131009 0.97556198 1226509835
-0.28238899 -0.0130129 0.96891499 1268286576
-0.25723401 -0.0130052 0.96831399 1246246961
-1.96759 0.66224498 1.3934799 1246043399
-1.67309 0.68150401 1.40083 1245522457
-1.60807 0.69633198 1.4153301 1244669461
-0.082290798 -0.0128837 0.959144 1225392385
-1.59448 0.69843698 1.38311 1246246695
-1.75727 0.665218 1.38951 1249465652
-1.66414 0.68471098 1.40528 1247691820
-1.50337 0.68957901 1.40367 1246573075
-1.37738 0.68774801 1.39571 1247098920
-1.35358 0.68805999 1.39519 1266771791
-1.89245 0.67055601 1.37335 1246378026
-1.52193 0.67463797 1.32842 1245456924
-1.8264199 0.65924501 1.3122 1247299128
-1.68726 0.403586 1.38692 1272155212
-1.73318 0.40660399 1.3859299 1269525561
-1.82546 0.40867499 1.39428 1271957065
-1.77635 0.40858001 1.3932 1272089421
-1.687 0.408306 1.38607 1271892040
-1.73335 0.408667 1.38666 1270051905
-1.7330101 0.408658 1.38662 1268933173
-1.48435 0.40742701 1.3779401 1271496514
-1.82498 0.41340801 1.39189 1272286030
-1.73351 0.41222399 1.38569 1270972231
-1.63493 0.41718599 1.40071 1271957833
-1.7781301 0.42030799 1.40447 1271694661
-1.58606 0.418648 1.38405 1272155212
-1.87435 0.42021799 1.3939101 1272154442
-1.68644 0.41951999 1.3862799 1271431489
-1.63692 0.41994199 1.38545 1272221005
-1.77911 0.42968801 1.4095401 1271694409
-1.57924 0.43217 1.41449 1272089419
-1.72756 0.42099699 1.37405 1270838330
-1.98245 0.65638 1.38631 1248410659
-1.77581 0.431582 1.39188 1271628870
-1.68695 0.432881 1.38606 1271760454
-1.63612 0.43286201 1.38481 1271563075
-1.68731 0.43374899 1.3863 1272221003
-1.68695 0.43386099 1.38667 1271694659
-1.53456 0.43388301 1.38176 1272023626
-1.73259 0.447198 1.38764 1268013869
-1.53386 0.447317 1.3812701 1271563075
-1.73261 0.44852501 1.38666 1269262390
-1.48264 0.450396 1.37901 1272023626
-1.42551 0.45478401 1.38544 1271299651
-1.8293 0.45967799 1.40781 1271628098
-1.73138 0.44811201 1.36599 1270841418
-0.50665098 -0.0108255 0.98708302 1226771975
-1.48306 0.459591 1.3761801 1271693891
-1.77535 0.46265799 1.3914 1271628868
-1.4229 0.47398001 1.38741 1271102526
-1.58487 0.47144699 1.38236 1271628866
-1.73426 0.40809301 1.3899601 1271168836
-1.3654799 0.47981101 1.39017 1270378296
-1.68738 0.40822399 1.3857599 1272418386
-1.7276 0.47714901 1.38495 1271371882
-1.7270401 0.47602001 1.38203 1270579531
-1.48654 0.40791699 1.3750499 1272417616
-1.73273 0.49002099 1.40649 1269665643
-1.68701 0.41123301 1.38561 1272023628
-1.7344199 0.41261101 1.3897099 1271497801
-1.7127301 0.48439401 1.3796 1270313006
-1.63471 0.49038401 1.39039 1271628350
-1.7147599 0.483812 1.3739901 1269787436
-1.4821 0.488906 1.37585 1271102524
-1.48686 0.415948 1.3733701 1271825479
-1.73355 0.41993099 1.38667 1269200198
-1.42064 0.49612799 1.3899601 1270576180
-1.68569 0.493718 1.39148 1271694656
-1.53457 0.49494699 1.37385 1270970936
-1.6345 0.50199199 1.39175 1271497533
-1.8745199 0.42433199 1.3937 1272417614
-1.4843301 0.42196599 1.3769 1271825479
-1.72987 0.425069 1.3854899 1267098958
-1.73137 0.51034701 1.40374 1272036512
-1.87409 0.42876601 1.39419 1271892042
-1.73182 0.51662701 1.40605 1271639952
-1.87971 0.51700199 1.40421 1270970168
-1.66238 0.69619602 1.41919 1246639649
-1.63398 0.52269602 1.38936 1271234361
-0.30958599 -0.00983366 0.96910399 1226640387
-1.58163 0.53286803 1.39109 1271430717
-0.26800299 -0.0098551204 0.971129 1243680522
-1.47673 0.685305 1.3971 1249071929
-1.68437 0.544613 1.4007601 1270773810
-1.92188 0.54627502 1.38757 1270970166
-1.85166 0.65971702 1.29242 1247167542
-1.7309901 0.56545103 1.40319 1271509911
-1.68462 0.57721603 1.4022501 1271168568
-1.68396 0.580163 1.39715 1270971189
-1.73271 0.44200999 1.39159 1266833196
-1.77048 0.65573502 1.27641 1248089156
-1.41485 0.59636998 1.39089 1269392680
-0.0826611 -0.0096120397 0.94720697 1226048000
-1.73051 0.596883 1.38433 1267029039
-1.72598 0.59700102 1.38346 1267948321
-1.32831 0.61118501 1.38599 1269003605
-1.73049 0.603486 1.38607 1266702384
-1.326 0.61869103 1.3884701 1269464411
-1.32683 0.62009901 1.38709 1269464409
-1.73059 0.60656297 1.3848701 1267556405
-1.638 0.68095201 1.3927799 1244933407
-1.7271399 0.59466797 1.3731 1247228438
-1.32541 0.63082498 1.388 1269729123
-1.90344 0.67986202 1.4040101 1245655846
-1.324 0.644391 1.38831 1269468518
-1.7755899 0.671157 1.38671 1244866847
-1.92513 0.46148601 1.39816 1271825477
-1.32376 0.65260798 1.38945 1268144173
-1.32135 0.65450197 1.3902299 1271113867
-1.75354 0.67235398 1.38709 1245130271
-1.32256 0.65647101 1.38957 1269992554
-1.32015 0.672548 1.3923399 1267753275
-1.31714 0.675093 1.39469 1270520702
-1.6235501 0.68488097 1.39455 1245326880
-1.74032 0.27548301 1.42371 1248870441
-1.7400399 0.27574599 1.42551 1270050880
-1.72727 0.273559 1.409 1268278590
-1.33679 0.26466501 1.3715301 1272298141
-1.52595 0.68927002 1.39106 1244274443
-1.76869 0.66599602 1.3915 1268673596
-1.6181099 0.68144798 1.3845201 1245128988
-1.69496 0.272697 1.39031 1271705754
-1.93054 0.67776603 1.3950599 1245127959
-1.53272 0.47546199 1.38096 1271563075
-1.68716 0.271896 1.38557 1270455941
-1.8838 0.66943598 1.38247 1245523232
-1.6725399 0.27116299 1.38174 1247032081
-1.75201 0.67217797 1.39698 1246573338
-1.8789999 0.674514 1.38846 1245522717
-1.841 0.66926003 1.39693 1246177033
-1.7262 0.67318797 1.37833 1246774842
-1.82454 0.67231703 1.4 1246571283
-1.67106 0.27175 1.38323 1248872999
-1.66082 0.27490401 1.40442 1267159592
-1.84789 0.677477 1.38899 1245524000
-1.7851 0.66275799 1.38586 1246838312
-1.50011 0.70261401 1.42055 1248742962
-1.5404201 0.68714899 1.38208 1245654816
-1.4822201 0.68638301 1.39907 1247624995
-1.53362 0.66635299 1.35647 1244996886
-1.45577 0.69150102 1.40423 1247165218
-1.8236099 0.67070699 1.37576 1246181160
-1.68076 0.272843 1.38486 1249726513
-1.39483 0.688622 1.39753 1248020789
-1.7255 0.27866301 1.4145 1248678716
-1.38273 0.69200701 1.40121 1247033633
-1.72452 0.278478 1.40598 1249661225
-1.8562 0.68208599 1.39047 1245063449
-1.32778 0.69838297 1.40654 1245850394
-1.6950099 0.672153 1.37023 1247299898
-1.70384 0.66473597 1.38197 1246769430
-1.70618 0.27774999 1.40004 1245983010
-1.6632 0.27906901 1.40826 1266765856
-1.6882 0.27864 1.40178 1247884561
-1.72357 0.27994499 1.4055099 1267224616
-1.6668 0.28077 1.41122 1267488807
-1.66575 0.28080299 1.4114799 1267489061
-1.72244 0.28164801 1.41123 1248217393
-1.69539 0.28035101 1.40473 1245522459
-1.69504 0.28070301 1.40451 1244139781
-1.6849101 0.282361 1.41511 1266829598
-1.6771801 0.281564 1.41066 1267027490
-1.67325 0.281528 1.41065 1266895905
-1.66827 0.28097901 1.40757 1249658139
-1.68127 0.28216401 1.41168 1249592347
-1.6756901 0.28132501 1.40689 1249264152
-1.6705199 0.28152001 1.40833 1249264151
-1.72298 0.28232801 1.40818 1267817014
-1.68292 0.28280601 1.41307 1249263129
-1.33734 0.273177 1.36993 1272034968
-1.69765 0.28302601 1.4089 1245455897
-1.72225 0.28363401 1.409 1266897452
-1.72034 0.28434801 1.41333 1247822894
-1.71841 0.284547 1.41225 1248482115
-1.69906 0.28411299 1.4105901 1245587483
-1.72156 0.28462899 1.41026 1249068575
-1.69971 0.28477499 1.41212 1245719069
-1.69849 0.28424099 1.40903 1244402696
-1.69117 0.28155601 1.3935601 1245386246
-1.72102 0.28547001 1.41058 1249201705
-1.71668 0.28634501 1.41125 1246245659
-1.71575 0.28650001 1.4098901 1245850900
-1.74185 0.28825 1.4165699 1247885842
-1.71359 0.28679299 1.40939 1246443303
-1.71132 0.28694701 1.41037 1247100976
-1.7046601 0.28730401 1.41269 1246048031
-1.70367 0.287011 1.41105 1245126670
-1.53319 0.47580501 1.38042 1271168317
-1.7121 0.28738499 1.41057 1246114080
-1.70937 0.287449 1.4110399 1246639914
-1.70892 0.287357 1.41054 1246639914
-1.7066801 0.287916 1.41382 1246245409
-1.71939 0.28801599 1.4116 1268408121
-1.7184401 0.28845799 1.41189 1267159338
-1.35682 0.27924001 1.37389 1268480868
-1.63476 0.48562801 1.39303 1271365948
-1.66906 0.28775701 1.40312 1247950605
-1.66292 0.288219 1.40592 1249395483
-1.26232 0.28744099 1.41632 1272626336
-1.48602 0.414206 1.3742599 1271628870
-1.66452 0.28823099 1.40371 1249200159
-1.66132 0.28858 1.40355 1268539187
-1.7144001 0.29043099 1.4097 1267685160
-1.71294 0.29073501 1.40923 1267488810
-1.63519 0.487903 1.38758 1271629120
-1.66486 0.28766599 1.3918999 1267883050
-1.77652 0.42208499 1.39161 1272417614
-1.67419 0.29068801 1.40589 1267027490
-1.67211 0.29020399 1.40333 1267422245
-1.67011 0.289832 1.40137 1267619624
-1.7082 0.291982 1.40964 1267092518
-1.6768301 0.29020399 1.4010201 1267421732
-1.70567 0.29264301 1.41113 1249592862
-1.6797301 0.289671 1.39592 1267355170
-1.77617 0.49543801 1.39393 1271234108
-1.58599 0.4285 1.38257 1271694661
-1.70894 0.292016 1.4055099 1269657153
-1.69634 0.291628 1.40381 1267093802
-1.68021 0.28971201 1.39402 1268012842
-1.67932 0.28992099 1.39516 1268210221
-1.6785901 0.29142201 1.40324 1268341807
-1.70763 0.29245999 1.40579 1269327930
-1.6945 0.29265299 1.40508 1268671286
-1.68792 0.29234701 1.40364 1268342319
-1.6935 0.29307199 1.40521 1269197370
-1.69093 0.292496 1.40223 1268736560
-1.70517 0.293513 1.4051 1269394489
-1.70383 0.29395899 1.40749 1269196341
-1.70129 0.293484 1.40505 1269327927
-1.5907201 0.28775999 1.37387 1270248763
-1.3367 0.287191 1.3690701 1272495520
-1.7401201 0.29971799 1.41142 1267025433
-1.35542 0.29378301 1.37485 1268415332
-1.33114 0.29488599 1.37858 1271969176
-1.32785 0.39013299 1.37385 1272627105
-1.33676 0.296866 1.36798 1272034969
-1.26393 0.30787301 1.41168 1272495520
-1.74115 0.314244 1.43125 1270050876
-1.34769 0.39333701 1.38086 1267947826
-1.63906 0.314064 1.3794301 1270904893
-1.35531 0.30489501 1.37388 1268152414
-1.35558 0.309394 1.37316 1249730370
-1.6878901 0.31168699 1.3738 1270642747
-1.33279 0.31252801 1.3736399 1272034199
-1.35478 0.315189 1.37412 1266702400
-1.75867 0.306683 1.33565 1270312503
-1.63942 0.32229 1.39012 1270051127
-1.35505 0.31877699 1.37295 1267164239
-1.33239 0.323441 1.37386 1270587782
-1.33246 0.323621 1.37288 1271837847
-1.27367 0.33245 1.39494 1272824485
-1.87317 0.445178 1.39051 1271628100
-1.74343 0.34037399 1.42634 1249459215
-1.34799 0.41281399 1.37568 1268545881
-1.35323 0.324902 1.37422 1271178889
-1.75042 0.311773 1.30977 1270313529
-1.34624 0.416078 1.3805799 1266962471
-1.33656 0.326011 1.36527 1272298140
-1.74193 0.35198301 1.43415 1267551001
-1.33122 0.33774501 1.3742501 1271377039
-1.2707 0.34833199 1.39772 1272955305
-1.3521 0.34163299 1.37582 1268217174
-1.3372 0.54505301 1.38308 1249395729
-1.32972 0.34458801 1.37596 1271640211
-1.32945 0.34513399 1.37625 1271771797
-1.33111 0.346863 1.37155 1272495520
-1.35189 0.34972599 1.3756 1249071416
-1.39545 0.68671 1.39538 1249007163
-1.35121 0.35419601 1.37525 1270981513
-1.35182 0.35447901 1.37472 1269072230
-1.32832 0.36161599 1.3758301 1271772823
-1.3513 0.362508 1.37524 1249729344
-1.35268 0.341932 1.37442 1269204072
-1.52736 0.308083 1.21989 1269130282
-1.3303 0.363572 1.37202 1271509651
-1.35123 0.36651099 1.37467 1267033929
-1.74517 0.38343 1.43495 1267288344
-1.32837 0.37483701 1.3745199 1271443090
-1.35053 0.375653 1.37518 1249531443
-1.7427599 0.37060201 1.4406199 1269919032
-1.34999 0.376982 1.37489 1269995895
-1.27034 0.38521501 1.39369 1272824746
-1.3282 0.378957 1.37404 1272100762
-1.35062 0.379199 1.37448 1249531957
-1.74714 0.40434101 1.44419 1267617312
-1.32928 0.384628 1.3713 1272167068
-1.3442 0.46587801 1.37695 1267557443
-1.33478 0.35622001 1.36514 1271969175
-1.3513499 0.36526 1.37454 1267890006
-1.3302799 0.385212 1.36911 1272298654
-1.63718 0.38440999 1.3816 1270379321
-1.35121 0.39185101 1.37362 1249132567
-1.34961 0.39283901 1.37481 1266834488
-1.34867 0.396074 1.37552 1269731181
-1.24886 0.41795999 1.42327 1272758691
-1.3497601 0.396734 1.3747801 1247687952
-1.32666 0.39724001 1.37477 1272101788
-1.3490601 0.39736599 1.37509 1267494217
-1.48739 0.39469001 1.37142 1268999466
-1.3489799 0.40029001 1.37502 1267033411
-1.34868 0.40094301 1.3753999 1267823185
-1.48701 0.39696601 1.37234 1268999466
-1.34779 0.401732 1.37606 1270521986
-1.73887 0.41541401 1.42537 1267686438
-1.32644 0.40394601 1.37421 1271772056
-1.3490601 0.40427899 1.37511 1248082209
-1.3263 0.406497 1.3743401 1271706516
-1.32583 0.40972501 1.37483 1271706516
-1.3482701 0.40993899 1.37549 1249664061
-1.34808 0.411376 1.37532 1267691348
-1.32531 0.413434 1.37523 1271574930
-1.26443 0.42676601 1.39861 1272956583
-1.5861599 0.41035599 1.37398 1268933673
-1.3251801 0.418504 1.37521 1271377298
-1.4873 0.41177699 1.3678499 1268473122
-1.32657 0.41828701 1.37252 1271574677
-1.34685 0.42033899 1.3772399 1248874542
-1.53608 0.41644001 1.37806 1268999466
-1.74471 0.436957 1.43454 1267619110
-1.34754 0.42184299 1.37609 1247886616
-1.74491 0.43851 1.4368401 1266961182
-1.71268 0.47398701 1.30441 1268145454
-1.34683 0.42505401 1.3763601 1267558474
-1.3257101 0.425154 1.37412 1270983307
-1.32495 0.42585099 1.37447 1271904409
-1.34674 0.42767501 1.37647 1266833718
-1.34488 0.42897201 1.37805 1270981510
-1.24371 0.45716301 1.4263099 1272561825
