# .PCD v0.7 - Point Cloud Data file format
VERSION 0.7
FIELDS x y z rgb
SIZE 4 4 4 4
TYPE F F F U
COUNT 1 1 1 1
WIDTH 1136
HEIGHT 1
VIEWPOINT 0 0 0 1 0 0 0
POINTS 1136
DATA ascii
-0.0191638 0.131653 0.597 1248221259
-0.0031405401 0.13176499 0.59751397 1243617296
0.016359 0.131947 0.59834701 1225393667
-0.052383199 0.13308699 0.59725201 1225393668
-0.0191733 0.133093 0.597296 1245326621
-0.00085027202 0.133296 0.59821397 1246643774
0.0140757 0.133432 0.598831 1226183183
-0.0100144 0.133826 0.59750301 1247761221
-0.0274304 0.13772599 0.602525 1266777208
-0.022804201 0.13838901 0.60239798 1245458984
-0.0019994001 0.137577 0.59887302 1246643520
-0.0193606 0.139237 0.60306603 1244537629
-0.0078103798 0.139468 0.60407197 1225524483
-0.00202337 0.13974001 0.60525298 1226181896
-0.052900199 0.139947 0.60312402 1225328131
0.0049454202 0.140597 0.60595 1246907979
0.380768 0.180512 0.77812302 1226580281
-0.0112884 0.140898 0.60424399 1244143900
0.0049368199 0.14103299 0.60482901 1266777466
-0.045807 0.140863 0.60111099 1244342052
-0.0182399 0.14159299 0.60424 1248288092
0.0119143 0.141959 0.60581398 1208419073
0.46637401 0.283328 1.20924 1249866595
0.00377947 0.142516 0.60521698 1249802354
-0.0367168 0.14275099 0.603248 1244079132
0.00494307 0.143305 0.605609 1249209703
0.0095867701 0.143286 0.605528 1244736552
-0.0320439 0.143241 0.60238999 1248487264
-0.0170977 0.14381599 0.60481697 1247235910
-0.033218101 0.144016 0.60273498 1247368270
-0.031984601 0.14366999 0.60128498 1247368270
-0.028581699 0.144642 0.60245502 1225985292
-0.0066759498 0.145541 0.60620701 1245130276
0.0084726699 0.146209 0.60899502 1247630928
-0.050739199 0.145936 0.60493302 1225262854
0.00029851799 0.146538 0.60745102 1225589763
0.0072993902 0.14679199 0.608509 1225985032
-0.0066780802 0.146984 0.60640502 1247958859
-0.0519379 0.147438 0.60538298 1244211236
0.000298714 0.14813399 0.60826403 1225589762
-0.0055202502 0.14850999 0.60693902 1244603936
-0.050805401 0.14891399 0.605721 1245856061
-0.0089952601 0.148946 0.60587198 1249274204
0.00379417 0.149378 0.60763198 1266973557
-0.034549098 0.149627 0.60579401 1226511634
-0.050822899 0.150359 0.60592997 1208288259
-0.0101663 0.15047701 0.60641903 1247037759
0.0049568601 0.150694 0.60729998 1244340763
0.0084537901 0.150757 0.60755801 1244801830
-0.049691498 0.151149 0.60630101 1244408615
-0.0055229198 0.151381 0.60724801 1225918985
-0.049702398 0.15188 0.60643297 1225723404
0.43272099 0.266298 1.0537699 1248747857
0.44061199 0.246924 0.97712898 1247433024
-0.0300002 0.15430801 0.60776001 1226775320
-0.0078491904 0.15413401 0.607081 1226709782
0.41545299 0.280417 1.1045901 1248484683
0.43679899 0.26147899 1.03002 1247037239
0.0026340601 0.15526199 0.60877103 1247761747
-0.0090217302 0.15567499 0.60764599 1244934444
0.016659399 0.156128 0.609424 1245658165
0.43144801 0.26541999 1.03615 1246708274
0.0178273 0.15682399 0.60940099 1226380817
0.00029966101 0.157342 0.60868901 1226182414
0.0155012 0.157637 0.60983199 1246579267
0.41894001 0.264918 1.0249799 1248024391
0.41464901 0.26097801 1.00974 1247958855
0.42126399 0.25791201 0.99787998 1247827269
-0.023111099 0.15850499 0.610461 1248289632
-0.0183296 0.157663 0.60721701 1225262081
-0.0125554 0.15824801 0.60947502 1208419328
-0.0020334199 0.15796401 0.60838503 1244472610
-0.0078754798 0.158847 0.60908097 1267830409
0.415115 0.271202 1.04003 1267959413
0.37574399 0.28022799 1.0699 1269538445
-0.020650901 0.159705 0.60701001 1225591304
-0.0113722 0.160154 0.60872102 1246381890
-0.0102139 0.16029 0.60924101 1245789753
0.0131739 0.161283 0.61035299 1244540199
0.42915401 0.258037 0.97663099 1267038824
0.44181299 0.25887001 0.97978902 1266710374
0.0131749 0.16199701 0.61039799 1225592070
0.43085101 0.25354201 0.95546502 1249012056
0.412698 0.28498 1.06467 1249143128
-0.44868299 0.249881 0.92923898 1267101789
-0.431209 0.24802899 0.92235601 1249271886
-0.445292 0.25420299 0.93333298 1249469521
-0.46593001 0.253948 0.92457199 1267232349
-0.45305499 0.25568399 0.93089902 1267759976
-0.44852301 0.25615299 0.93260998 1267694183
-0.47055501 0.25559801 0.92669702 1267627107
-0.39176399 0.257525 0.933716 1268087658
-0.389341 0.25710699 0.93220198 1268087658
-0.38113701 0.25520599 0.925309 1267561314
0.39503399 0.207139 0.75130999 1226315544
0.064038798 -0.33796 1.01559 1269999254
0.093155801 -0.33521801 1.00691 1269735054
0.054047499 -0.316957 0.95970798 1271117735
0.295726 -0.32323101 0.984137 1269010559
0.292858 -0.328843 1.0034 1269867154
-0.093695998 -0.26417699 0.84301603 1208354048
-0.019256599 -0.32129201 1.00761 1269867411
-0.149526 -0.25053 0.84630603 1225986059
0.298118 -0.30123001 0.99391198 1269273733
0.201645 -0.29885799 1.00325 1270986919
0.319857 -0.280788 0.951518 1270526368
0.2388 -0.296233 1.00721 1270262426
0.29965001 -0.29069 0.99748302 1269668491
0.223216 -0.28782699 0.99786198 1269933461
-0.151307 -0.23232301 0.83582199 1245787948
-0.54793501 -0.22622 0.835913 1268287605
-0.116682 -0.21603601 0.78900802 1246840896
-0.55300999 -0.232206 0.86790699 1267431270
0.079733498 -0.280285 1.01004 1271183271
-0.67523003 -0.256969 0.96264499 1269471623
-0.53181899 -0.23642901 0.89389402 1267365734
-0.488635 -0.221889 0.84252298 1268550262
0.299669 -0.277022 1.00168 1269405830
-0.42986 -0.21665099 0.83422601 1267825514
-0.41768399 -0.21813899 0.83894002 1268286836
-0.13998801 -0.22144 0.83992398 1248681036
-0.61729598 -0.24097 0.92922598 1268813693
-0.58267498 -0.242422 0.93298298 1269273474
-0.52003199 -0.218473 0.847018 1268483442
-0.31090701 -0.209416 0.80748302 1268616314
-0.23922101 -0.23356099 0.89230502 1269011074
-0.22116201 -0.23465601 0.89545602 1269338756
-0.194121 -0.23697001 0.90253901 1268945281
-0.209279 -0.23487701 0.89908201 1268154482
-0.032992601 -0.247995 0.93853003 1269668745
-0.0075148302 -0.25081801 0.94749397 1270063763
-0.45070499 -0.21104001 0.827407 1268023920
-0.077499099 -0.24252599 0.92440701 1268024690
0.211229 -0.24864 0.93498898 1270262169
0.30243 -0.278153 1.03578 1269207938
0.094156802 -0.25180301 0.95420301 1269011072
0.11679 -0.24652401 0.934609 1268945539
0.171996 -0.249378 0.94262302 1269274760
0.224757 -0.24666999 0.930996 1269472393
-0.27147001 -0.2101 0.82633299 1269339784
-0.164591 -0.21832199 0.85163301 1268944506
-0.46960801 -0.20257901 0.81004298 1269405830
-0.349886 -0.21997499 0.86790401 1269998226
-0.288636 -0.210554 0.83170801 1270458265
-0.161779 -0.21783499 0.852965 1269734279
-0.460549 -0.20428 0.82190198 1269471879
-0.061430901 -0.23362 0.91268599 1269800335
0.0383767 -0.238885 0.92788601 1270525087
0.055570599 -0.24058799 0.933384 1270394013
-0.40850499 -0.210191 0.84446299 1269800847
-0.34032601 -0.21691599 0.86627102 1270394016
-0.36537999 -0.21438 0.86127901 1269867923
-0.26659101 -0.221598 0.883789 1269933203
-0.143738 -0.213697 0.850151 1270589851
0.181575 -0.25912699 1.0073 1271841458
0.15581501 -0.24384899 0.96352702 1271117735
0.185716 -0.237305 0.93804199 1270591393
0.118633 -0.234815 0.93510801 1268946309
0.12506001 -0.25536999 1.01964 1270788513
0.20497499 -0.25454 1.01334 1269407118
0.30688101 -0.268356 1.06128 1270591646
-0.103801 -0.235379 0.993092 1270129812
0.29939601 -0.247325 1.03229 1269208449
0.25073901 -0.25079599 1.0525301 1270920356
0.30465999 -0.236102 1.01774 1269866125
-0.106044 -0.220789 1.0118099 1270326932
0.0666814 -0.220827 1.02795 1270854305
0.30433601 -0.211814 1.02105 1269537671
0.26465699 -0.218628 1.05941 1270986149
0.33110601 -0.17959499 0.87592 1270131610
-0.098461904 -0.20100699 0.99935299 1269997969
0.37222001 -0.181366 0.908957 1270789542
-0.187571 -0.074323699 0.44165799 1269735054
0.253907 -0.18849 1.03864 1269209481
0.349913 -0.187436 1.05818 1269868438
0.079839103 -0.17817099 1.03967 1270261398
0.33295199 -0.170586 0.99045902 1270591391
-0.096503399 -0.18115801 1.08453 1270063499
-0.183879 -0.170955 1.05689 1269339778
0.27583501 -0.16682599 1.04742 1270920099
-0.110749 -0.15903699 1.05556 1269931145
0.28364199 -0.161091 1.05321 1270985892
-0.182614 -0.150291 1.0466599 1269076606
0.39557999 -0.113307 0.77121502 1268815750
0.043502901 -0.147366 1.04344 1270129553
-0.0449472 -0.13954601 1.00319 1270458259
0.132443 -0.140949 1.01679 1271248293
0.29917601 -0.148541 1.0590301 1269999252
0.281167 -0.146887 1.05652 1270262169
-0.080340497 -0.123111 1.01019 1269799559
0.025588799 -0.121228 1.01362 1270590106
0.30602899 -0.124536 1.06652 1270063249
0.0126086 -0.118786 1.04851 1270063760
-0.065458 -0.117479 1.06213 1269536387
0.088564202 -0.118615 1.09094 1270919328
-0.0670463 -0.116671 1.09559 1269404801
-0.145549 -0.085630402 0.86368901 1248744258
0.29111499 -0.11024 1.06223 1270788513
0.306429 -0.10403 1.06721 1269405828
0.212356 -0.094529398 1.04678 1270984609
-0.143769 -0.072814398 0.86148298 1245914646
0.284857 -0.092281297 1.06565 1268813952
0.20903 -0.089020804 1.04808 1270063760
0.421074 -0.095324896 1.1016001 1268419711
0.12584101 -0.085409299 1.02658 1269800842
-0.248853 -0.0725573 0.92192203 1268088432
-0.219956 -0.073606603 0.93168998 1267431011
-0.0280532 -0.079129398 0.97934902 1268088941
-0.38127801 -0.067598999 0.88638097 1268746876
-0.35299301 -0.068397999 0.89332801 1268023666
-0.329878 -0.069019198 0.89862198 1267497322
-0.44379699 -0.064543903 0.86633402 1267760494
-0.40355501 -0.065754302 0.877267 1267563115
-0.49013299 -0.061971098 0.85009599 1267563113
-0.28153199 -0.068098404 0.917741 1268088689
-0.540371 -0.056031801 0.82344401 1268484215
-0.50802797 -0.057398301 0.83811599 1269076352
0.46248901 -0.084587097 1.11221 1270328991
0.039145 -0.072149597 1.0042599 1271709357
-0.555269 -0.051253799 0.80570298 1268550780
-0.52816498 -0.05328 0.83117503 1268747900
-0.46199799 -0.0557127 0.85810399 1269274246
-0.43865499 -0.056616001 0.86823601 1269734284
-0.41116601 -0.056577701 0.87752903 1269076867
-0.406003 -0.056768999 0.87968701 1268945281
0.130008 -0.068056002 1.02841 1270458777
0.51294398 -0.070163503 1.0159301 1269407119
-0.020884201 -0.064541198 1.04304 1270590106
0.14127199 -0.064040199 1.08934 1270524311
0.436652 -0.063548997 1.06233 1270459294
0.16638 -0.0592058 1.0416 1270722206
0.35264099 -0.061790898 1.06259 1270261915
-0.088927999 -0.047018599 0.91037798 1268551812
0.092858598 -0.054440401 1.0249799 1269800588
0.0287404 -0.0528499 1.0923001 1270655384
0.50512701 -0.049381699 1.01491 1269012361
-0.068181902 -0.038353201 0.90555102 1266971493
-0.0135944 -0.044434998 1.03909 1268813182
0.35806599 -0.0484678 1.09759 1269209227
-0.20622601 -0.0417744 1.06288 1267956072
0.108445 -0.044430502 1.10114 1269800075
0.399499 -0.046233099 1.09306 1269340813
-0.076089203 -0.033913601 0.91577297 1246313268
-0.069430001 -0.032177702 0.948946 1246577730
0.53019297 -0.038197301 1.00008 1269012361
0.198379 -0.036318701 1.04897 1270064019
-0.26585299 -0.0359326 1.17976 1269732483
-0.045127101 -0.022678901 0.84377003 1268550782
0.138252 -0.023298999 0.89118397 1249734752
-0.316448 -0.0141183 1.18142 1268550260
0.027110601 -0.0109113 0.76530099 1266977071
0.137446 -0.0104193 0.80738997 1267038822
0.30492201 -0.0125376 1.07174 1267300195
-0.098558202 -0.0065704901 0.86801201 1249668704
-0.177834 -0.0050305901 0.840105 1267561833
0.30627999 -0.0068113301 1.08026 1269208451
0.136452 -0.0045185601 0.76732802 1267301230
0.46207401 -0.0067018098 0.91348499 1268288638
0.060003899 0.00136669 1.00958 1268813693
0.11795 -0.00057157601 0.74034601 1267830625
0.30730999 0.0059577199 1.08275 1269076865
0.30445799 0.0058319401 1.07022 1248746825
0.304537 0.0069810399 1.0704 1248615240
0.49429801 0.00546761 1.04878 1270197405
0.12999 0.0107772 0.65202397 1248616273
-0.098681897 0.0127111 0.58279401 1247104320
-0.092967503 0.0127453 0.58504599 1247630921
-0.078435101 0.0127735 0.58888298 1249604195
-0.042744402 0.0133617 0.59583598 1249802086
-0.025529601 0.0139597 0.59911901 1248354129
-0.0131541 0.0139847 0.60217899 1249867878
-0.0078839296 0.0140126 0.60399699 1267039599
-0.13784701 0.016859099 0.55118698 1244209177
-0.13425601 0.0168439 0.55135101 1244406558
0.414395 0.0348267 1.06635 1268157822
-0.097014003 0.0162182 0.529239 1244407839
-0.094737701 0.017431799 0.55806398 1244473632
-0.0576851 0.018097701 0.565835 1245196073
-0.052450601 0.0177176 0.557872 1245525037
-0.0242252 0.018757399 0.57255697 1246380346
-0.0154725 0.019349201 0.57419699 1245327658
0.51735097 0.040754899 1.03672 1268618119
0.47444099 0.035073102 0.89748299 1248880220
0.48272499 0.041941699 0.99222302 1268618118
0.47584099 0.051118199 0.96945399 1269012361
0.56937402 0.064689897 1.16883 1269078154
0.476152 0.052367799 0.972767 1268222845
0.46852201 0.046887901 0.88854802 1249077597
0.48823801 0.073903799 1.0880001 1269670291
0.46422201 0.058807001 0.88437301 1267367536
0.47016501 0.094896302 1.09807 1267696501
0.491339 0.091920197 1.06912 1268157052
0.095627896 0.047033399 0.58839202 1226512401
0.47762901 0.096264496 1.05507 1268947338
-0.35612601 0.091993503 0.94444102 1267365220
-0.29571801 0.0885057 0.91506898 1266839133
-0.36750299 0.088932998 0.90683502 1267036255
-0.434461 0.089844003 0.89494699 1266838622
-0.26842001 0.089628898 0.90061098 1267102048
-0.238132 0.086618401 0.87502003 1266837591
-0.48223299 0.086682796 0.85647899 1267957357
-0.49683401 0.085816599 0.84042603 1267497320
-0.34895599 0.0906258 0.88923001 1267760744
-0.51161897 0.085704602 0.83124697 1267365734
-0.45998901 0.095467798 0.91011399 1267759978
-0.230722 0.099218003 0.94378102 1266772050
-0.32840699 0.095219903 0.89753997 1269076352
0.465552 0.118015 1.12342 1269077902
-0.55515403 0.093742102 0.86790198 1266773597
-0.55605698 0.094812103 0.87680697 1267234148
0.44758099 0.113898 1.05914 1269143947
-0.512245 0.093218997 0.822752 1268550780
-0.50425202 0.093272902 0.823488 1268287608
-0.140791 0.057505101 0.554892 1226182155
-0.126504 0.0583116 0.55747002 1225459460
-0.072341599 0.0601447 0.56946701 1225985804
-0.055307701 0.060325898 0.57151502 1226117390
-0.604514 0.104518 0.88664699 1268682107
-0.022174001 0.061879002 0.580329 1226117645
-0.0133287 0.0620047 0.58162498 1226183183
-0.0025003699 0.062691599 0.58283901 1225854218
0.0118254 0.063182101 0.58710599 1226117645
0.0237025 0.063788101 0.58768499 1225591046
0.057624999 0.064396396 0.59351403 1226248976
0.072882503 0.065071002 0.59465998 1225788680
0.122874 0.065794997 0.597381 1244406553
-0.194019 0.11283 0.85602599 1248219971
-0.308328 0.15751401 1.11361 1267034970
0.44786099 0.15317801 1.0774601 1267631478
0.474457 0.14316 0.90613401 1266973294
-0.0177969 0.091176897 0.591977 1245921596
-0.022855399 0.091560103 0.59074199 1247105095
0.43448901 0.185357 1.06993 1268157822
0.0089282198 0.098170497 0.59196699 1246907719
0.48237401 0.190099 1.0658 1267368306
-0.173191 0.133719 0.76410103 1226380562
0.013227 0.100319 0.59389699 1225526020
0.465608 0.179786 0.99193299 1268158081
0.0112851 0.101558 0.59411103 1245855546
0.013188 0.101452 0.593624 1245460788
-0.33218601 0.229266 1.2023 1249336392
-0.14734 0.105515 0.59040302 1226641930
-0.00137599 0.113165 0.59529698 1248288084
0.00682098 0.114067 0.59677702 1247499081
-0.0142913 0.114405 0.59531802 1246972231
0.000869215 0.114733 0.59698802 1245392936
-0.045287799 0.11484 0.59157503 1246052411
0.0192375 0.116953 0.59910202 1247631702
-0.43638599 0.15426999 0.75052899 1267233634
0.079839401 0.122008 0.60349101 1226381332
0.41198799 0.24677099 1.1244 1268354431
0.0053265202 0.12492 0.59958601 1244999465
-0.00783733 0.125313 0.59857702 1248353876
-0.055004701 0.127583 0.59279901 1226644251
-0.045419399 0.14243799 0.603782 1247763543
0.424068 0.267566 1.05975 1248748886
0.0127968 0.14516599 0.60759002 1247171406
0.412139 0.27200601 1.04731 1249603423
0.40097401 0.27433401 1.05142 1268026234
0.42912501 0.268296 1.0191801 1267499892
0.0039149402 0.15116601 0.60926801 1245591859
0.424014 0.29012799 1.0904 1249801572
0.43103099 0.26562101 1.00257 1248683093
0.185215 0.18072 0.70491803 1247498047
0.187732 0.18465599 0.69645202 1246577971
0.29766899 -0.31113201 0.98866498 1269669257
0.29607001 -0.30490899 1.0155801 1269735052
-0.34841701 0.0973114 0.90634799 1268221045
-0.143558 -0.19057301 0.84988499 1268944252
0.30294001 -0.221956 1.01776 1269471112
-0.547355 -0.054310799 0.81251198 1268945279
0.30822501 -0.162863 1.06297 1268155763
-0.092129797 -0.31239799 0.89948601 1225328644
0.091494396 -0.34780699 0.99844998 1270130842
0.18959001 -0.345667 0.99765098 1270723749
0.19390599 -0.34549499 1.00544 1270921128
0.102411 -0.359882 1.04723 1270328219
-0.50399899 -0.32486999 0.94285601 1269012101
0.29407999 -0.32550299 1.00705 1269406603
0.102202 -0.33852401 1.04792 1270327962
-0.093789503 -0.267239 0.84546798 1208353280
0.296267 -0.312675 0.98533303 1269735571
-0.25499699 -0.33742499 1.05399 1269143945
2.58163e-05 -0.336575 1.0583301 1269341326
-0.39593801 -0.32749799 1.0305901 1267892851
-0.37498999 -0.357797 1.12306 1268287096
0.29996401 -0.30327401 0.99372 1270064793
-0.0129562 -0.30254599 0.99179697 1270130842
-0.45730799 -0.27393699 0.89852399 1269143687
-0.53635299 -0.39534199 1.27121 1267958643
-0.093816496 -0.235073 0.79636401 1225788938
0.300993 -0.29485601 0.99624097 1270196379
-0.58408803 -0.42774999 1.3816299 1269142917
0.29760301 -0.30152401 1.01982 1269406861
-0.232216 -0.29790601 1.00217 1270065049
0.091910601 -0.29541701 1.00437 1270590880
-0.59358299 -0.29033801 0.97363299 1268880515
0.108542 -0.296902 1.016 1270196891
-0.24937201 -0.27004501 0.94159597 1269735825
-0.48442799 -0.38064399 1.32011 1269998227
-0.065355301 -0.27792901 1.00596 1269406867
0.327445 -0.27250299 1.0085 1270459807
-0.051856101 -0.28084701 1.03026 1269867161
0.00175742 -0.272008 1.00574 1270590367
0.085451402 -0.27193001 1.00848 1271315116
-0.74631 -0.32096899 1.14922 1268221556
-0.44414899 -0.293596 1.0667599 1269735055
0.057588398 -0.28259501 1.04741 1270656673
-0.25773999 -0.251665 0.933635 1269340297
0.32156599 -0.2714 1.02239 1269276562
-0.62988698 -0.278227 1.0252301 1267958643
-0.501468 -0.221669 0.84183699 1266970978
-0.343606 -0.25477099 0.96792799 1268353144
-0.14393701 -0.21190301 0.84180897 1271183017
-0.64092302 -0.272286 1.07228 1268090230
0.15578701 -0.252 1.03005 1271183272
-0.086501397 -0.231415 0.94618303 1270326679
0.146469 -0.24901 1.0224 1269604498
-0.234258 -0.219179 0.90059698 1269669262
0.01997 -0.252157 1.04096 1270261915
-0.107312 -0.239039 0.99700803 1269603985
0.301651 -0.243083 1.03922 1269603471
0.0303006 -0.235038 1.0159301 1270788259
0.11841 -0.228214 0.99693298 1270920356
-0.58811003 -0.228825 0.96991801 1267826800
-0.57455701 -0.238105 1.01204 1268879745
-0.44424301 -0.253391 1.11239 1268813953
-0.338884 -0.23318601 1.03767 1269340297
-0.107685 -0.219322 0.999753 1269340301
0.30239201 -0.224198 1.0415699 1268813953
-0.615439 -0.229637 1.02171 1268089972
0.0799134 -0.211046 0.98721403 1270920099
-0.60089803 -0.23742799 1.0695699 1269340297
-0.662889 -0.233694 1.05941 1268024436
0.255777 -0.214624 1.0256 1270722466
-0.316475 -0.229633 1.07968 1268813953
-0.358302 -0.22555999 1.06405 1269537676
-0.375348 -0.23759501 1.1222 1269340297
-0.088134699 -0.19981 0.97267401 1269931921
0.074802697 -0.23231199 1.12907 1270985122
0.301743 -0.20544399 1.04492 1269604498
-0.57947898 -0.212111 1.03362 1269406089
-0.46569201 -0.201647 0.99128401 1268747647
0.221312 -0.200057 1.025 1269867157
-0.461045 -0.198994 0.98376101 1269273991
-0.59895998 -0.19122 0.95681298 1267300456
-0.111754 -0.21276601 1.09121 1269800588
-0.60728002 -0.190679 0.98226899 1268747902
-0.0267707 -0.18887 1.0324301 1270458265
-0.36779299 -0.191076 1.0314 1269208198
0.34756899 -0.18501 1.04917 1270592163
0.30838001 -0.18337999 1.06091 1268551297
-0.63043898 -0.18664099 1.02247 1268747902
0.103982 -0.172217 0.99815202 1270591391
-0.0254461 -0.186206 1.0697401 1270721692
0.045743499 -0.172307 0.99993801 1270261399
0.087842397 -0.18655001 1.07985 1270262169
0.218757 -0.17218301 1.02913 1270459294
-0.61120498 -0.1999 1.1322401 1268023924
-0.10147 -0.17227601 1.0471801 1269997714
-0.44962701 -0.171904 1.03558 1268879233
-0.230782 -0.16337299 1.00941 1269668749
0.296 -0.159716 1.03751 1270064020
0.334438 -0.161424 1.05742 1270921128
0.1129 -0.153102 1.00769 1270129813
-0.292687 -0.16558699 1.08314 1270063507
0.22973 -0.15142301 1.0405 1269932950
-0.535896 -0.14834601 0.95807701 1269010819
-0.246509 -0.154158 1.02151 1269931921
-0.62552899 -0.159968 1.03074 1268353144
0.22928999 -0.14802399 1.03944 1270656673
-0.68598002 -0.164564 1.0686899 1268155765
-0.090107001 -0.14666 1.00766 1269602696
-0.69553 -0.166493 1.0876 1268682109
-0.34210399 -0.158108 1.06589 1269405577
0.27614 -0.146385 1.04728 1269670035
-0.39279899 -0.16859201 1.14557 1269668749
-0.25546601 -0.73992199 0.899921 1269209488
0.036467001 -0.14047 0.99923098 1270524570
0.56335902 -0.80908799 1.28151 1269867937
-0.55119002 -0.14580201 0.99151498 1268945538
-0.18857101 -0.15642799 1.09922 1269931145
0.30005699 -0.135198 1.0477099 1268353404
-0.35958201 -0.69275701 0.86783201 1269867418
-0.183805 -0.134615 1.01519 1268812664
0.29934299 -0.131726 1.04619 1268616576
-0.46803901 -0.140389 1.05005 1268747902
-0.226704 -0.121996 0.939367 1269273733
0.0531496 -0.72169602 0.883246 1270197413
-0.0451652 -0.120114 0.96766198 1270918558
0.28812 -0.12646499 1.05468 1269209227
0.108195 -0.121521 1.01211 1270656926
-0.079294004 -0.123259 1.03703 1270458005
-0.62949502 -0.132108 1.05862 1268023666
-0.65394902 -0.138724 1.11018 1267892080
0.114029 -0.841824 1.04448 1270460587
-0.465464 -0.19935399 0.71695501 1268353404
-0.37712801 -0.22878499 1.00519 1268418171
-0.056589201 -0.12547401 1.13424 1270129041
-1.5141701 -1.08957 1.52018 1269999773
-0.56792903 -0.117678 1.03382 1268878976
0.30597901 -0.105498 1.06672 1269997969
-0.50827301 -0.13337 1.22 1269076612
-0.145803 -0.086845897 0.85950297 1248942146
-0.109913 -0.112374 1.11344 1269009271
0.37522301 -0.098829702 1.08908 1269868701
-0.41723701 -0.105803 1.0440201 1269273991
0.053617399 -0.74863601 0.90675902 1270328997
-0.36956799 -0.103644 1.0629801 1269010819
-0.53471297 -0.111931 1.16061 1269142405
0.308047 -0.089241102 1.07208 1249337427
0.034456201 -0.084351398 1.00352 1270590106
0.078045197 -0.084499702 1.01334 1270655642
0.110285 -0.084853001 1.02342 1269208195
0.304997 -0.084592797 1.06954 1268945026
0.46545899 -0.085634999 1.1120501 1270591911
0.41946101 -0.062547602 0.875386 1269012879
-0.116117 -0.089379102 1.1134501 1268681078
0.39728099 -0.079533897 1.0950201 1269341328
-0.033470102 -0.0835623 1.08566 1269536905
-0.62298799 -0.095045596 1.15526 1269602956
-0.55539298 -0.085561901 1.04219 1268550011
0.101208 -0.074741602 1.07218 1269011332
0.36819699 -0.071702197 1.09132 1269605014
-0.14779 -0.061092101 0.860659 1270127241
0.126617 -0.067813598 1.02586 1271380649
0.036397502 -0.066258602 0.99614799 1270787230
0.30263799 -0.067617297 1.08241 1269604496
-0.47913301 -0.69519001 0.908885 1269011334
0.47141001 -0.0570191 1.03064 1270065567
-0.068931997 -0.063978203 1.01366 1269142145
0.0665344 -0.66712803 0.91259998 1269210517
-0.355165 -0.68055499 0.89562601 1268814219
-0.342361 -0.0687811 1.05217 1268616579
-0.20976 -0.059711602 0.98771 1268942967
0.47632599 -0.050107401 1.0241801 1267960704
0.095995702 -0.055358201 1.04143 1270655387
0.385077 -0.052539699 1.10252 1269802647
-0.56420898 -0.070444301 1.15833 1268418682
-0.33307499 -0.058431 1.02077 1268878976
0.30714601 -0.050220799 1.07575 1268946563
-0.193165 -0.0551994 1.02505 1268153451
-0.23176301 -0.055727601 1.0674 1268021865
-0.057221901 -0.62132603 0.937181 1270130590
0.40355101 -0.0436946 1.06771 1269868188
-0.101909 -0.0403485 0.87998199 1247170119
-0.0040686601 -0.0470029 1.08515 1269076612
0.14061099 -0.763345 0.87947899 1270000036
-0.17920899 -0.63986897 0.91533703 1270327970
0.090796202 -0.0384514 1.01905 1269339273
0.093644902 -0.0382916 1.016 1269538446
0.33477399 -0.0358897 1.06619 1269736086
0.113314 -0.82137102 1.00957 1269078934
0.44244 -0.031127499 1.04717 1270065567
-0.079824001 -0.033739399 0.87978703 1247168578
1.7503099 -2.0025401 2.58586 1269144727
0.0122814 -0.625561 0.90307999 1269867937
-0.41966599 -0.60666198 0.93068498 1268155771
-0.296278 -0.041586399 1.10874 1269471112
0.148256 -0.65605599 1.00467 1269604765
0.382339 -0.029508401 1.10558 1270788774
0.234331 -0.69287097 0.89667898 1269868446
-0.164967 -0.63640201 0.91823202 1269472661
-0.48528299 -0.210409 0.81287801 1266904675
0.0897654 -0.67601597 0.948834 1269276052
-0.473079 -0.537103 0.83226597 1268616322
-0.41794601 -0.56270403 0.87139702 1268287357
0.170395 -0.693618 0.99119902 1269802657
-0.39444399 -0.56423402 0.87104601 1268682369
-0.36160001 -0.56058502 0.86047602 1268156025
-0.56168801 -0.56803101 0.93666399 1268023928
-0.279295 -0.59056097 0.918208 1268485508
-0.056528602 -0.61748898 0.92972302 1270656935
-0.054616999 -0.61666799 0.93000698 1270788267
-0.084991299 -0.60719901 0.92984098 1270130078
0.025338501 -0.0106213 0.75752199 1267501883
0.0174971 -0.61720002 0.94104201 1270722476
0.15612499 -0.643273 0.96517903 1269801374
0.052400101 -0.625328 0.95485902 1271249072
-0.313068 -0.016613699 1.08666 1268747390
0.078272298 -0.62161797 0.943385 1270262179
0.14990801 -0.63449597 0.96393597 1270328488
-0.28516999 -0.63149101 1.0798 1269472403
0.51256901 -0.79735899 1.24958 1268815249
-0.48365301 -0.0152059 1.2017 1269339784
-0.093877301 -0.0082385298 0.86778599 1266774887
-0.670439 -0.52468401 0.83192098 1269472910
-0.157708 -0.58301598 0.97746402 1269932184
-0.330244 -0.60390902 1.10737 1270196124
0.49178499 0.00379833 1.04951 1269539736
0.0303305 -0.43170699 0.61924303 1248946535
-0.0439706 -0.55833399 0.94360298 1269933212
-0.146093 -0.0058040898 0.71751302 1246839868
-0.60853797 -0.0106581 1.12199 1268484218
0.0224576 -0.427699 0.62066197 1247827543
0.0190787 -0.426083 0.62125599 1249011302
0.273882 -0.58927 0.95325798 1266775148
-0.56793702 -0.49234799 0.95231098 1269209229
0.00323741 -0.417887 0.62364101 1249208678
-0.00157891 -0.414938 0.62311399 1249143139
0.0573644 -0.41749001 0.61384201 1269539232
-0.187227 -0.25352401 0.26421499 1269472401
-0.094535701 -0.52348399 0.94191903 1270393505
0.27511001 -0.569287 0.96083498 1269340048
-0.51766801 -0.50855702 1.0208 1268616322
-0.0125413 -0.40974399 0.62608802 1267038838
-0.310743 -0.49434799 0.94204903 1269538194
0.13094901 0.0120573 0.64622003 1249472615
-0.30876899 -0.49314001 0.94123799 1269209229
-0.314843 0.019300601 1.05706 1267759724
0.210454 -0.545986 0.96156901 1269802144
-0.0346657 -0.396808 0.62523001 1246577215
-0.126426 -0.497096 0.94375497 1269799056
-0.56380701 -0.456646 0.95761299 1269406608
0.12987299 0.01598 0.619277 1248617050
-0.32099101 -0.474933 0.94615501 1268879494
-0.29642701 -0.468162 0.92305702 1269537424
-0.36804301 -0.46683201 0.94907802 1269340045
-0.30723399 0.0344816 1.1485699 1268482418
-0.31147 -0.494333 0.942635 1269603987
-0.493801 0.0328421 1.11734 1268089460
-0.56268603 -0.43991101 0.96204698 1269537678
-0.1909 -0.467208 0.95037597 1269800596
0.27785799 -0.52656299 0.994618 1268946835
-0.48873001 -0.46390399 1.03653 1269142666
-0.204475 -0.46197301 0.95202202 1269932182
-0.53690702 -0.43020499 0.96760303 1267958646
-0.127176 -0.46461701 0.95066297 1269075587
-0.56030601 -0.42526099 0.96258497 1269603987
-0.356976 -0.44085699 0.95299 1269076873
-0.35525101 -0.44004801 0.95333999 1268945287
-0.474617 -0.469877 1.09271 1268879748
-0.474888 -0.42516801 0.96346301 1268353404
-0.71373498 0.077643603 1.23361 1269142147
-0.56141597 0.105024 1.40731 1267694702
0.59669101 -0.543639 1.04011 1267564664
-0.0793036 -0.43846899 0.948147 1270063511
-0.32501301 -0.41485801 0.95352799 1268813183
0.28104499 -0.47909799 0.980775 1268551301
-0.136343 -0.42805201 0.96148098 1269338758
-0.34198099 -0.40363401 0.96148503 1268813699
-0.57021999 -0.38357699 0.97276002 1268353148
-0.82019699 -0.44063801 0.986287 1269933979
-0.52429098 -0.38547099 0.97612399 1267629427
-0.182441 -0.41098499 0.95871699 1269932439
-0.15290301 -0.41417 0.96061403 1270918818
-0.055167299 -0.33823299 0.63878798 1244077339
-0.117005 -0.42121899 0.98372197 1269931925
-0.245388 -0.40506899 0.97060901 1269208713
-0.29857501 -0.39924899 0.97096902 1269800337
-0.278972 0.17052899 1.34601 1249401675
0.060725801 -0.355425 0.682414 1246446917
-0.354413 -0.388549 0.96571797 1269405838
-0.341328 -0.390086 0.96714503 1268285558
0.302174 -0.46540099 1.0412 1268221567
-0.26866701 -0.39529899 0.97052699 1270063509
-0.188025 -0.39431101 0.96374702 1269602958
-0.213975 -0.38979399 0.96812999 1269669264
0.54682499 -0.47401199 1.03871 1269144212
-0.57840699 0.16878299 1.2172 1268221046
0.106133 -0.442527 0.98971802 1269340047
-0.27993801 -0.378932 0.96511298 1269011334
-0.15905499 -0.522771 0.96964902 1269669264
-0.49370301 -0.35580301 0.964589 1268813442
-0.432778 -0.36270401 0.971443 1269010821
-0.328226 -0.37222201 0.97302902 1269339786
-0.627626 -0.34299099 0.96432799 1268682369
-0.14516699 -0.38637501 0.96960402 1270063511
-0.32923499 -0.36953601 0.97104198 1269931923
-0.0258577 -0.34483701 0.75210798 1245985590
-0.53002602 -0.34671399 0.96600997 1268813955
0.241171 -0.41963199 1.00915 1270065316
-0.39954701 -0.35471201 0.97009701 1268879235
0.085274398 -0.40058801 0.988787 1269602960
-0.38986301 -0.35289699 0.97253901 1268353404
-0.196316 -0.36818001 0.97132301 1269799824
-0.57629001 0.20371 1.1073999 1267892081
-0.081358798 -0.362003 0.90514398 1269010821
-0.47531199 -0.340873 0.97520101 1268221564
-0.00730942 0.100967 0.58727801 1246774334
-0.47312999 0.223645 1.17959 1267364967
0.284491 -0.40619099 0.99475598 1268879498
-0.16796701 -0.36358199 0.97942603 1269668751
-0.37237301 -0.34235299 0.97582197 1268813955
0.084628299 -0.38405001 0.99165702 1268747908
-0.37786099 -0.34036699 0.97884101 1269537678
0.28925499 -0.425612 0.97078699 1268813441
0.54889703 -0.42092401 0.99826598 1268946317
-0.53936303 -0.32324299 0.971295 1269076614
2.5344999 0.53549898 1.1250499 1245326371
-0.41570699 -0.332082 0.97422701 1268616576
-0.130181 -0.35609499 0.97496802 1269931410
2.3345599 -0.171369 0.53816301 1270986670
-0.33254001 -0.33791301 0.97388798 1269733515
-0.198636 0.161815 0.81753099 1225985547
-0.163084 -0.348153 0.98194599 1269668751
2.63219 0.67214501 1.3237799 1244144928
-0.37333101 -0.32843199 0.980923 1269077127
4.1210499 0.67726398 1.8555599 1208288256
-0.087221198 -0.35356599 1.00149 1269470599
-0.34736401 -0.327048 0.97895902 1269736084
0.105114 -0.36607999 0.99560201 1270327712
2.4152501 0.51784098 0.82345402 1246049066
0.291217 -0.41461399 0.97761399 1269207947
2.9846499 0.379482 0.35039601 1266830900
0.42960599 -0.398671 1.0502 1269210007
1.1377 0.29708201 0.77945101 1247498829
2.8991699 -0.143604 0.50627702 1270130331
2.9349 -0.14478201 0.50156403 1269538192
2.5719399 -0.085680202 0.36731699 1269802395
0.56044602 -0.401932 1.04319 1267827836
2.77141 -0.148912 0.57140201 1269867672
0.027368 0.136512 0.60319197 1208288257
2.9084799 -0.61286902 0.947873 1268553356
2.84881 -0.520751 0.72706598 1270329766
2.5184901 -0.016194001 0.099016003 1269341328
0.182631 0.17796101 0.71146703 1246840119
3.1286199 -0.15109301 0.49514201 1271644083
2.8474801 -0.53245503 0.91057098 1269934243
3.1724401 -0.153576 0.49362999 1270657443
-0.045905501 -0.30140999 0.79938602 1266972528
2.8652401 -0.52779001 0.92490399 1269671068
-0.121659 -0.30112499 0.84879202 1249799523
0.0879125 -0.34049001 0.99923903 1269142666
-0.247196 -0.30994099 0.98710299 1269010562
-0.36599499 -0.29965499 0.98817402 1268550270
0.385952 -0.37043101 1.0654401 1268617614
2.8561599 -0.118935 0.47407001 1271249841
0.53272301 -0.38717401 1.12726 1269407386
2.8377299 -0.16580801 0.88244098 1269802396
0.00133161 -0.369302 0.99217898 1269866130
3.11515 -0.097088397 0.59595197 1270130844
2.50773 -0.081558302 0.726753 1271052720
2.8400199 -0.475557 0.89641303 1269276309
0.0811041 -0.32782501 1.00049 1269801107
2.57249 -0.080409497 0.70305997 1269802653
2.60813 -0.071065798 0.64763898 1270263208
5.5666599 -1.32424 2.81178 1270657703
2.3926799 -0.089588098 0.81057698 1270921134
0.221661 -0.33138499 1.00451 1269933212
2.4061999 -0.090419203 0.81085902 1270724269
2.47404 -0.080136299 0.74155098 1270132388
-0.335989 -0.28370601 0.99272299 1268548211
2.16676 -0.0873648 0.87574798 1270789548
2.21311 -0.0954592 0.90257299 1270591912
2.24863 -0.093486503 0.88290501 1270263204
-0.51743603 -0.25063401 0.85529399 1268089978
2.33535 -0.089874402 0.84080398 1269605017
2.1084299 -0.103606 0.98543698 1269605017
2.79386 -0.37567401 0.78198498 1270789803
2.51036 -0.14866801 0.15242399 1271249842
1.7795 -0.182164 1.48256 1271118515
0.082661502 -0.30838099 1.00423 1269143949
2.8473401 -0.292678 0.51795799 1271184048
1.82932 -0.121998 1.1691 1270658734
2.84864 -0.390899 0.92221802 1270065825
1.91954 -0.10825 1.07528 1268750224
1.98207 -0.183764 1.4335001 1267566207
2.8354499 -0.35122499 0.85969198 1270065825
2.0583701 -0.140074 1.19458 1249013096
2.0337901 -0.10003 1.00222 1249473390
1.7803 -0.183011 1.50271 1269539485
1.20436 -0.228808 1.94888 1267961223
1.58741 -0.199385 1.65598 1269736864
-0.121504 -0.30100101 0.84807301 1247825474
1.6358 -0.211656 1.70409 1269013141
0.0079616597 -0.287819 1.00877 1269603728
1.41216 -0.218043 1.81717 1268487826
1.1747299 -0.166797 1.65818 1249868404
1.47542 -0.20156699 1.71584 1268751248
0.055333801 -0.28616899 1.01252 1269932952
0.087200403 -0.28849801 1.01241 1269011850
-0.30313 -0.25848201 1.00927 1268747390
2.9986601 0.031760499 0.34668401 1269077125
3.16324 0.0245401 0.33991 1271314603
0.235461 -0.29735699 1.01485 1269538454
2.8389599 0.035843 0.382947 1270327194
0.364562 -0.30499899 1.02017 1269538972
2.8759699 0.031845901 0.39534 1269866643
0.347617 -0.302818 1.02242 1268223112
2.89024 0.0410976 0.33701301 1269077127
-0.069949701 -0.25349101 0.83168 1247498570
-0.777547 -0.245581 0.99970299 1269144717
-0.359963 -0.234824 1.00044 1267892081
-0.32832301 -0.237165 1.00167 1268681597
3.15414 0.0295352 0.33924699 1271380396
3.2721701 0.00720465 0.43560001 1270196122
-0.17907301 -0.242221 0.96777201 1267496552
2.3197 -0.080212399 1.25142 1269535356
-0.470761 -0.201434 0.69218302 1267826547
-0.0757116 -0.239591 0.83958399 1268419972
-0.0247676 -0.25519499 1.01218 1269010819
3.1171801 0.032637201 0.34496301 1270591393
0.57593203 -0.30511299 1.11981 1268354180
0.399093 -0.36851901 1.01152 1269341075
2.5478699 0.0086550098 0.686032 1269207422
0.087814197 -0.26029801 1.01882 1268748678
-0.41909701 -0.21925101 0.99838501 1268879235
2.6630599 0.074473098 0.25609401 1270392730
2.0580699 -0.137995 1.29109 1246710083
2.2511899 -0.0715442 0.89149803 1270130844
1.89108 -0.63676798 4.8028498 1268944250
2.3780701 -0.059473801 0.79273999 1269406092
-0.53215402 -0.14008801 1.0165 1268221048
2.4161699 -0.058161601 0.77507502 1268287096
2.6097 0.068492703 0.32040399 1270985638
2.3773201 -0.00141776 0.82880402 1269930883
2.4377799 -0.056751698 0.76160401 1267891828
2.6161101 0.031004 0.55943203 1269734797
2.85689 -0.0432791 0.95688099 1271511208
0.081088498 -0.16881999 1.03248 1267959162
2.1915801 -0.15392099 1.92998 1269405571
2.1805501 -0.069623701 0.915465 1269209488
2.21333 -0.068804897 0.90183198 1268880779
2.0736101 -0.182607 2.1726899 1269800329
2.0905299 -0.070473596 0.959638 1268287613
3.02091 0.032779999 0.54431099 1269592137
0.35354599 -0.176201 1.04017 1269012110
1.8464 -0.14560901 1.44049 1268882066
1.90637 -0.0620903 0.98237997 1268288640
1.53652 -0.22970501 2.7235701 1268879745
3.0906701 0.0068971501 0.70674801 1269992306
1.75362 -0.141326 1.4613301 1268684427
2.8295 -0.00701374 0.91389799 1269800590
1.273 -0.16604701 1.78576 1267763842
1.05705 -0.125168 2.26863 1267499124
1.3679301 -0.13978601 1.61623 1249802351
2.4419301 0.057339899 0.62490898 1270055007
1.4391299 -0.136499 1.57787 1249603944
0.089244597 -0.31045201 1.00752 1269011334
1.48358 -0.145262 1.61244 1249210210
0.70870203 -0.061771899 1.97879 1249209447
1.5603499 -0.13854399 1.5539 1249078110
2.4251299 0.032806899 0.81041402 1269725782
1.66038 -0.14227 1.54514 1248945494
3.1514699 -0.0049250699 0.83698702 1270255218
-0.215398 -0.104939 1.07231 1267365483
0.92146599 -0.018097199 1.6412801 1249406822
1.115 -0.150482 1.7655801 1266711668
0.90032202 -0.074152596 2.0263901 1266841966
1.12037 -0.150694 1.76518 1249737074
2.04879 0.240358 -0.45603999 1269984587
1.18882 -0.155306 1.77047 1249078887
0.71809202 0.0030917199 1.5825599 1248683103
0.29162201 -0.265495 1.02336 1268550272
0.756396 -0.052027602 1.94564 1249867373
-0.49409801 -0.081896901 0.93292898 1267629166
0.47043401 -0.28167701 0.996777 1267498613
0.912844 0.0192436 0.92601299 1247565909
-0.53173 -0.191182 0.96779102 1267958133
-0.413753 -0.199178 0.96849 1268155512
2.3649001 0.042128298 0.87272799 1269395788
2.3552101 0.045489799 0.87067199 1269664632
0.61415499 0.17738999 0.78314799 1245662071
2.3719001 0.046675999 0.89465803 1270965028
0.380799 0.740677 1.24694 1226050567
2.34501 0.059657902 0.86646402 1269133130
1.0089099 0.29640201 0.76200801 1249011807
0.57755899 0.0138653 1.12068 1268814731
0.18035799 0.79664999 0.74545002 1267887951
3.1953001 0.0348063 0.90116 1269785144
2.68484 -0.020542599 0.71389598 1268681077
2.9423001 0.161342 0.029048899 1269604500
1.26182 0.17091601 1.02748 1268817043
2.88995 0.17308401 -0.0329009 1270064538
0.91689402 0.48937401 0.84240699 1249208934
4.0187898 -0.144126 1.0476201 1270525600
2.8844299 0.16033 0.100564 1270181705
2.8884101 0.178646 0.374798 1248024399
2.9245701 0.179444 0.352817 1244142874
0.98523301 0.516509 0.83675301 1247432774
3.08004 0.18059701 0.28214401 1248342808
2.8363199 0.164516 0.097757697 1270909291
2.90994 0.19558901 0.210207 1245779719
2.7916801 0.16491 0.124956 1270445650
2.88521 0.203894 0.131642 1247816989
2.8082399 0.16491701 0.119278 1272289396
2.7971301 0.21802799 0.0153722 1248802594
-0.30050299 -0.172631 1.01537 1268221046
0.29466599 -0.22181199 1.03344 1267233640
-0.133991 -0.15527301 0.86270702 1249469523
0.189392 0.70716 0.74041098 1266769212
0.26951501 -0.214784 1.03377 1268486017
2.40306 0.067503102 1.18827 1269074557
2.6500101 0.17956901 0.552095 1249077598
0.639211 0.27313599 0.69872499 1270657707
2.7381999 0.092937298 0.89862901 1270654876
2.50371 0.13127001 0.66176802 1269584160
1.26696 0.157088 1.36534 1268026497
2.5343499 0.135236 0.615457 1270048835
2.6707101 0.17236599 0.65000099 1247695176
2.5664301 0.13537 0.603001 1272421497
0.91956103 0.49885401 0.82986802 1248551515
2.9477999 0.107131 0.72236598 1269142407
3.1104801 0.15164401 0.26615101 1270263461
3.10941 0.152308 0.26058 1270131875
2.85184 0.180425 0.54231101 1268548213
2.07672 0.22915401 0.313025 1271247529
0.471367 0.18928 0.90986598 1268159385
2.42257 0.207011 0.43209499 1247497286
2.54389 0.13798501 0.60867 1273013638
2.9577601 0.107574 0.738258 1268879235
2.47405 0.131394 0.71538502 1272354678
2.40958 0.135562 1.29956 1271578550
2.4753001 0.13219699 0.70759201 1272420985
3.40924 -0.050964698 3.0867801 1266838625
2.4282 0.12872501 0.77925199 1271627600
2.3577001 0.215573 0.382606 1247956031
2.3869801 0.12774 0.826873 1271167827
0.103365 0.67436701 1.28835 1268086363
2.37205 0.120844 0.92176598 1271235422
2.93238 0.035146799 2.3721099 1267038063
2.3269801 0.119059 1.00718 1271575466
3.3343201 0.145457 0.38661501 1249013097
2.0568399 0.178991 1.02714 1269800335
3.86954 -0.26627499 5.7241402 1268617347
2.37185 0.067947596 1.51695 1271115940
0.54365802 0.81964803 0.84511602 1248877900
2.9284799 0.021018401 2.6004701 1266709093
-0.478129 -0.060841098 0.86673403 1267628908
0.93358803 0.79755503 0.91781199 1245393190
2.0274501 0.231528 0.422593 1269536392
1.10008 0.105501 1.64569 1268815758
0.93309599 0.82350099 0.91706502 1246708281
2.85921 0.16771699 0.407942 1270065057
3.04842 0.174209 0.273343 1248550226
2.9275 0.00643411 2.8396699 1248944223
3.0617399 0.174472 0.26581499 1247101755
3.93786 -0.27386701 5.8948898 1245524776
3.0048399 0.17506599 0.301985 1249338715
2.4333301 0.206954 0.56024599 1248340752
2.55685 0.176029 0.48073199 1271644605
3.08797 0.067555502 2.01722 1266826524
2.5371201 0.19809701 0.26256701 1271380656
2.05882 0.198112 0.85467899 1271247523
2.95013 0.17607599 0.33366701 1267038325
3.1814499 0.0120308 2.7269199 1246701321
2.9740701 0.177195 0.31330901 1247497027
3.04773 0.19979499 0.0548857 1269007981
3.00176 0.184046 0.64148098 1247690800
1.15496 0.169154 1.10024 1267499900
1.98162 0.17335799 1.23434 1270326934
0.239832 0.77931702 0.802459 1267231312
2.0167501 0.17181 1.23943 1271444902
4.9721498 -0.45612299 8.0064297 1248276759
2.3604701 0.21005701 0.22544099 1270851751
2.5759599 0.188483 0.36773899 1270592428
2.6780901 0.200579 0.59751701 1267948352
2.91629 0.178141 0.34711501 1249537384
0.91792899 0.40469 0.82118899 1247893326
0.23744 0.75514197 0.94529003 1249862478
1.91242 0.081977896 2.48244 1270261399
1.26239 0.21129499 1.34734 1267499897
1.9509799 0.15898401 1.47101 1271314086
3.55952 0.125594 1.61183 1267627111
-0.181429 0.78696102 0.91314697 1247365177
1.82391 0.166991 1.46179 1271643052
1.29454 0.211622 1.41451 1270394532
1.68976 0.173163 1.47899 1270327192
1.39495 0.22268599 1.20417 1269604500
3.1916201 0.17042799 0.87471402 1249132330
-0.12888999 -0.113751 1.13173 1270590880
1.02693 0.26665699 0.74889803 1247762261
2.67366 0.354123 0.638291 1269524803
0.97947598 0.35565999 0.801893 1248814427
0.56707501 -0.093448304 1.08086 1271511991
0.210122 0.86526 0.74061 1244931871
2.15063 0.377058 0.43233001 1248283707
1.30086 0.2173 1.3709199 1269473430
3.0959401 0.361247 0.60157299 1247226133
0.30063799 -0.095845103 1.0575 1266906473
3.00014 0.372924 0.65466398 1246903342
2.99648 0.210977 0.68928099 1248480832
3.1951101 0.19237401 0.87999499 1248673057
1.6541899 0.400199 1.1004601 1269735054
2.31199 0.45297 0.66298002 1247629633
2.1689 0.388255 0.59869802 1267561316
2.63766 0.380025 0.49754301 1269460555
2.68801 0.249669 0.64952999 1267419186
3.0320799 0.380759 0.74470198 1247166265
3.0006101 0.243586 0.69583601 1247560241
2.24108 0.396705 0.64701402 1267553332
2.4304199 0.395136 0.75475001 1269118472
0.528651 0.61578101 0.80848998 1249536093
2.44748 0.394869 0.75387502 1269118983
0.236699 0.89088202 1.07274 1247956800
2.69539 0.26092699 0.66377401 1269728882
1.2575099 0.423419 1.39657 1249209447
2.1898301 0.401059 0.57549798 1247823415
1.32289 0.281811 1.43442 1268486533
2.5483899 0.39387599 0.439127 1269449228
2.2653999 0.28478101 0.76593602 1267288622
3.07038 0.62852001 0.47248301 1244736551
0.53577799 0.75510901 0.84353799 1248812366
3.0558701 0.39421901 0.37268499 1248799506
3.08042 0.401568 0.65045798 1245916448
3.5419199 0.227617 1.57499 1266771800
3.6222301 0.22516701 1.68818 1249336654
3.0869401 0.26952401 0.83414501 1248481345
2.7664101 -0.29583299 0.56709498 1270065825
3.11204 0.56275201 0.52229297 1245393966
2.7981999 -0.294238 0.55247599 1271052463
3.06218 -0.27366799 0.409556 1271579064
2.53072 0.41330099 0.35226899 1271555100
3.1096201 0.40673301 0.37736201 1247028497
3.13112 0.29757699 0.76082999 1267280910
3.3850601 -0.397874 0.67439002 1271644599
3.7676301 0.27308899 1.16768 1269847852
3.8470099 -0.55329603 0.98770499 1271381428
3.95368 -0.557311 0.96623802 1270658217
2.7913599 -0.314289 0.788885 1270131622
3.9816501 -0.55657703 0.95534903 1270658217
3.0318 0.422786 0.67447197 1246312493
2.39189 -0.209831 0.67187899 1268749969
3.0410199 0.42518401 0.67432398 1246049321
2.7311299 -0.29219899 0.61895502 1270526380
2.27618 0.32378301 0.77213001 1249847815
2.4986501 0.148853 0.50916898 1271562847
2.5550201 0.138374 0.56564897 1270904914
2.73421 -0.26471201 0.60043597 1270065829
2.68521 0.326781 0.67807198 1266889230
2.27618 0.43604699 0.59118003 1267684148
2.64042 -0.243623 0.64510697 1248353885
2.97368 0.321996 0.608311 1248482115
2.71576 -0.229509 0.60416901 1270131622
4.4022999 -0.41835701 0.99206001 1269670809
2.6644499 -0.2202 0.66949397 1269539231
3.2974 0.43980801 0.88722003 1243683094
2.5492101 -0.22348399 0.73887801 1267762561
3.9828999 -0.30543 0.712107 1270262945
2.7767999 -0.209977 0.646339 1270592173
2.2887001 0.44288799 0.477954 1248732428
2.72293 -0.187975 0.62328798 1270394794
2.9386301 -0.57412797 1.03361 1269278106
0.92953598 0.71524799 0.90279597 1245460275
0.24018499 0.90074497 1.00093 1248022590
2.2235 0.45135701 0.62460601 1247562042
2.66869 0.349365 0.64551502 1268660491
3.0374401 0.344179 0.76710498 1248614731
3.00846 -0.116614 0.36413601 1270394016
3.2275801 0.44836399 0.67040801 1243880214
2.72401 -0.34251001 0.55548197 1269935270
2.9554901 -0.120493 0.399957 1270131360
0.180952 -0.237243 1.03746 1271447220
2.3540599 0.44972399 0.452907 1248864014
2.56704 0.473059 0.65658301 1247430976
2.37433 0.449314 0.44759801 1266824472
3.4302101 0.50593603 1.44434 1248484431
2.77334 -0.34990099 0.61378598 1269407899
3.60625 0.473441 0.82264102 1244143382
2.5716801 0.471607 0.67631799 1247167544
2.9769299 -0.121752 0.41790199 1270920876
3.0578001 -0.136333 0.451455 1270328739
10.3856 -2.90556 5.42981 1269934494
3.3095601 -0.550879 1.98025 1270723498
3.1688001 -0.163618 0.52327901 1270394532
3.1134501 -0.130943 0.41434601 1270920106
2.75227 -0.13143399 0.51589501 1270920619
2.78982 -0.152165 0.599684 1270328740
2.8115499 -0.150648 0.58742797 1270656934
2.7835 -0.31359199 0.56957603 1269539481
2.8577199 -0.14542 0.55366898 1270854314
2.8921399 -0.30144599 0.50673097 1270328740
3.2146699 0.47621799 0.66664797 1266840940
2.91364 -0.140443 0.517995 1271183279
3.3171301 0.50400901 1.1420701 1247957571
2.97576 -0.135675 0.481298 1270986669
2.99142 -0.136663 0.48048499 1271052462
2.85847 -0.29972199 0.52464199 1270328488
2.9042599 -0.298682 0.50729901 1270065568
2.7543199 -0.156212 0.63420898 1271578807
2.2604599 -0.0395982 0.72213399 1268550525
2.7105401 -0.121947 0.59729397 1270789039
0.87278003 -0.308079 2.5113699 1266973304
2.64429 -0.040572599 0.44451401 1270855344
2.7306099 -0.30930001 0.598759 1271710654
2.97681 -0.293181 0.47481999 1271250099
2.9898701 -0.29076001 0.46367899 1271315892
2.86972 -0.064937003 0.53569198 1271117485
3.0855401 -0.279892 0.40209699 1269605529
2.6218901 -0.097759098 0.76524699 1270592686
3.0494201 0.038688801 0.315777 1269077643
2.6813099 -0.091669001 0.72066998 1270855858
3.0829999 0.037406899 0.31390601 1269735573
2.55212 -0.100351 0.80725002 1270789552
3.1854701 0.050819799 0.213273 1271314864
2.57458 -0.095282197 0.77765 1270460587
2.89183 0.0132633 0.50831902 1270787745
3.0592101 0.040585801 0.31347901 1271511984
2.47475 -0.100362 0.83964503 1270263978
3.0838699 0.039108399 0.31510699 1272433086
2.3303699 -0.103134 0.90368199 1270198185
3.13714 0.050561301 0.23789901 1271512497
3.34549 0.0196623 0.35316199 1270920360
2.3757999 -0.100921 0.88067001 1269408926
2.8513601 0.0112005 0.54205799 1270721952
2.4269199 -0.097420603 0.85008901 1268619410
2.9080999 0.0469032 0.329099 1270524060
2.2435801 -0.10756 0.95941699 1269540512
2.96699 0.0372434 0.36714599 1270984869
3.1124699 0.045580398 0.28255701 1271577777
2.1412201 -0.104348 0.98394698 1269014683
2.8996501 0.033531699 0.41657001 1270787233
2.15591 -0.104858 0.98223197 1268948890
2.77917 0.0258501 0.51407897 1270196636
2.0949299 -0.0287011 1.01448 1267826545
0.99029201 0.59414703 0.85444701 1243816219
1.85929 0.665847 1.27993 1246972998
2.7356901 0.025105899 0.54135299 1270656159
1.98614 0.574534 1.30209 1269012361
2.60988 -0.064983197 0.73124099 1269603991
2.5520599 0.035302501 0.55417699 1269075838
2.6319399 -0.049978498 0.652542 1268485511
2.62867 0.027755 0.577721 1269734284
2.5710101 -0.065437697 0.75506097 1268287873
2.63782 0.024869399 0.59195399 1269997456
2.6458299 0.56712198 1.0657001 1244472089
2.54024 0.0311551 0.59289801 1269536387
2.4999399 -0.066174701 0.78924298 1267694964
2.4175501 -0.0204587 0.937415 1269141629
2.5073199 -0.066361003 0.788118 1267365999
2.41346 -0.066363297 0.825059 1267761015
2.4170301 -0.0663651 0.82408601 1267432306
2.49792 0.546341 0.76820099 1247233335
2.32287 -0.066278197 0.86069602 1267498870
2.34199 -0.067854203 0.86323297 1266840682
2.07763 -0.065960698 0.94885099 1268026500
2.1673 -0.069596 0.94246602 1249735531
2.40237 0.0091823004 0.756284 1269338495
2.7774401 -0.044517498 0.73046899 1270787229
2.5653601 0.00573528 0.723818 1269339008
2.57967 -0.05167 0.673352 1267564152
3.22158 0.047163699 0.192771 1270657188
2.4424 -0.052354999 0.73292702 1268485765
3.0337601 0.032797098 0.341405 1269077643
3.1266301 0.042891901 0.26176801 1270722727
