VERSION .7
FIELDS x y z rgb
SIZE 4 4 4 4
TYPE F F F F
COUNT 1 1 1 1
WIDTH 1321
HEIGHT 1
VIEWPOINT 0 0 0 1 0 0 0
POINTS 1321
DATA ascii
-0.203968 -0.0634164 1.05515 10724259
-0.0403874 -0.017901 1.01859 12698049
-0.205102 -0.180869 1.15638 10132122
-0.0727489 -0.271847 1.24443 9539985
-0.0664017 -0.0482301 1.04067 9934743
-0.0696667 -0.133952 1.12218 7829367
-0.227863 -0.091155 1.08057 11776947
-0.048344 -0.0941947 1.08667 7566195
-0.210737 -0.0988023 1.08675 10921638
-0.0355872 -0.050905 1.04945 9803157
-0.0289351 -0.165735 1.1419 9079434
-0.237262 -0.125036 1.12163 9605778
-0.0430154 -0.0833107 1.07129 9342606
-0.233586 -0.123331 1.12003 9474192
-0.000143394 -0.113577 1.09659 11250603
-0.219057 -0.32479 1.30403 9276813
-0.0156358 -0.0903746 1.07691 11250603
-0.238515 -0.31103 1.29271 9211020
-0.00440226 -0.0914495 1.07766 12040119
-0.207223 -0.197297 1.18851 9342606
-0.0461576 -0.00779166 1.00642 10724259
-0.210317 -0.257355 1.24342 9803157
-0.228162 -0.0814274 1.07313 11776947
-0.198613 -0.21573 1.20527 9671571
-0.199301 -0.276422 1.2607 9605778
-0.00324416 -0.108056 1.09247 10987431
-0.190614 -0.255986 1.24195 9539985
-0.0429888 -0.0118026 1.01016 12237498
-0.140341 -0.113494 1.11129 9737364
0.227597 0.0727551 1.31519 9605778
-0.257473 -0.260668 1.24779 9276813
-0.218882 -0.111313 1.0998 10724259
-0.24479 -0.227603 1.21741 9868950
-0.233153 -0.0820572 1.07513 11711154
-0.256377 -0.348716 1.32843 10066329
-0.229594 -0.0675734 1.0629 11316396
-0.240329 -0.288026 1.2727 10132122
-0.261505 -0.795592 1.69795 10197915
-0.17185 -0.264011 1.25005 10000536
-0.0947172 -0.090496 1.08086 9474192
-0.165963 -0.271371 1.25674 10000536
-0.25463 -0.0644975 1.06935 11579568
-0.164305 -0.264716 1.25063 10000536
-0.339837 -0.107339 1.29856 11645361
-0.147457 -0.267622 1.25312 10132122
-0.0107284 -0.0483872 1.05234 9671571
-0.420667 -0.217198 1.24592 11184810
-0.49548 -0.0929105 1.27591 11842740
-0.120743 -0.114956 1.11301 9276813
0.096191 -0.237134 1.22672 8487297
-0.116754 -0.110445 1.10885 8947848
0.00669272 -0.0955039 1.09629 8421504
-0.0160818 -0.21918 1.26098 9408399
-0.131951 0.0722274 1.28019 9539985
-0.407227 -0.196456 1.22568 11250603
0.0829115 -0.198553 1.192 8289918
-0.264312 -0.230201 1.22078 9803157
-0.00248685 -0.0494539 1.05419 9474192
-0.257802 -0.22344 1.21455 9539985
0.000263959 -0.0501945 1.05484 10395294
-0.379898 0.0755363 1.3324 9079434
-0.0583629 -0.20634 1.19697 7566195
0.00319731 -0.0460475 1.05096 11184810
0.161373 -0.0854532 1.32718 11053224
-0.0182342 -0.202118 1.25452 8487297
0.483979 -0.866238 1.81161 7763574
0.0137595 -0.257211 1.24302 6842472
0.0700123 -0.180468 1.1761 9211020
-0.267283 -0.203344 1.19696 9605778
0.0809245 -0.174625 1.17058 9276813
-0.267745 -0.206374 1.19974 9474192
0.111223 -0.204785 1.19843 9474192
-0.0690074 0.0431772 0.968049 11053224
0.000984907 -0.0469259 1.05226 10592673
0.1251 -0.211354 1.20538 9474192
0.323032 0.0192538 1.2581 11579568
0.095369 -0.167069 1.16501 9671571
0.0788728 -0.145069 1.14455 9539985
-0.0184848 -0.0212525 1.02967 10000536
0.256299 -0.186898 1.30212 12105912
-0.0518658 -0.118565 1.12511 7829367
-0.209971 0.070609 1.26956 9868950
-0.607652 0.231596 1.33058 12632256
-0.209529 0.0297107 0.986625 9868950
-0.356203 -0.32603 1.23022 9342606
-0.349479 -0.146629 1.24063 9803157
0.294039 -0.0268604 1.28048 11842740
-0.211356 0.029262 0.989399 9737364
0.243581 0.0720914 1.32069 9934743
-0.287122 -0.15195 1.26144 8816262
0.340369 -0.0298633 1.21097 9934743
-0.0192609 -0.284298 1.31424 6381921
0.131007 -0.0516925 1.32368 8684676
0.134596 -0.314996 1.21882 9803157
-0.0330226 -0.277448 1.30825 5921370
-0.0353854 -0.28319 1.31644 6250335
-0.384564 -0.0629562 1.32204 7960953
0.217638 -0.306234 1.21639 10066329
-0.00774263 -0.383859 1.4225 7039851
0.0115758 -0.332545 1.36916 6447714
-0.20273 0.0462776 0.974089 9474192
-0.0394729 -0.274517 1.30966 6118749
0.142648 -0.391332 1.43705 7631988
0.216134 -0.530338 1.5856 7631988
-0.267014 -0.143478 1.26468 9737364
0.167308 -0.289497 1.23092 11447982
-0.152707 -0.144025 1.25717 9605778
-0.450638 -0.27014 1.23242 9408399
0.00836311 -0.148311 1.26028 8553090
-0.56581 0.120209 1.39115 11645361
0.131662 -0.150885 1.2599 9737364
0.217174 0.10382 1.35163 10461087
0.103205 0.0701358 1.2985 10132122
0.31311 0.100311 1.34996 10395294
0.241289 -0.241974 1.2131 12105912
0.0447243 0.0704384 1.30555 10526880
0.235847 -0.241135 1.23965 12237498
0.059943 -0.150164 1.2696 9408399
0.243214 -0.227592 1.22707 12171705
-0.399257 -0.137024 1.26327 10724259
0.291316 0.0812274 1.34746 9145227
-0.381556 -0.134903 1.25976 11184810
0.236713 -0.228712 1.25019 12040119
-0.349985 -0.137515 1.26743 11250603
-0.410377 -0.200763 1.23815 11447982
-0.205601 -0.139405 1.26265 10987431
-0.411861 -0.170398 1.1715 11579568
-0.532441 -0.111019 1.20798 11513775
-0.40904 -0.159049 1.16966 11776947
-0.188296 0.24776 1.36328 8224125
0.140565 -0.138933 1.27782 11711154
-0.434388 0.2537 1.38106 9276813
0.179815 -0.138238 1.27155 10790052
-0.502429 0.261694 1.43682 9408399
-0.212648 -0.126255 1.26941 10855845
-0.414051 -0.167221 1.27395 11447982
-0.185676 -0.126246 1.27389 10461087
-0.13448 -0.167585 1.26109 11119017
0.0148865 0.243134 1.36473 8355711
-0.158805 -0.129362 1.28469 10855845
-0.0136181 0.243941 1.36778 8289918
-0.35488 -0.1482 1.24295 9934743
-0.0228205 -0.417415 1.18128 8289918
-0.392152 -0.138168 1.27146 11184810
0.0149083 -0.417134 1.17829 7631988
-0.160824 0.208504 1.33868 9474192
0.156801 -0.414098 1.16286 7697781
0.0197225 -0.144993 1.26606 9145227
0.168404 -0.412033 1.16122 8158332
-0.275307 -0.137539 1.27171 11908533
0.217175 -0.387571 1.13343 10263708
-0.114233 -0.137263 1.26863 11119017
-0.0929058 0.162668 1.41141 8750469
0.0725324 -0.135969 1.26607 11711154
-0.497413 -0.0473906 1.27962 10000536
-0.197694 -0.12793 1.27451 10790052
0.248214 -0.301573 1.16459 12105912
-0.386275 -0.0805549 1.29287 12237498
0.158418 -0.0609426 1.31746 8816262
-0.359427 -0.0797162 1.2948 11711154
0.131259 -0.0644448 1.33654 8882055
0.070673 -0.323896 1.22866 9408399
-0.460185 -9.89214e-05 1.17751 11842740
0.0773222 -0.323682 1.22773 9408399
0.232276 -0.180391 1.3088 11513775
-0.453782 0.0742115 1.0058 11513775
0.290547 -0.0102924 1.30937 10790052
0.263422 -0.285611 1.14247 11250603
0.142125 -0.311304 1.21433 10000536
0.347131 -0.00104626 1.2173 10000536
-0.0760642 -0.312277 1.23528 10066329
-0.488991 0.0993277 1.33987 10855845
-0.0696133 -0.308012 1.22905 9671571
-0.0820111 -0.152785 1.27123 9671571
-0.468226 -0.300672 1.25508 10921638
-0.182777 -0.148022 1.26754 9474192
-0.42957 0.050633 1.1196 11513775
0.00515954 -0.153761 1.27403 9671571
-0.542809 0.144797 1.28194 11776947
0.0741728 0.0335762 1.31483 10855845
-0.141141 -0.289754 1.23747 9671571
-0.362715 0.0976783 1.29605 11711154
-0.109397 -0.287955 1.2349 9474192
0.175378 -0.154425 1.27563 9605778
-0.0927134 -0.287963 1.23375 9539985
-0.451988 -0.268267 1.2354 8684676
-0.443083 -0.140567 1.27714 10066329
-0.381495 -0.270482 1.23575 8421504
-0.415346 -0.0515875 1.3036 8684676
-0.331347 -0.270447 1.23602 8487297
-0.457265 0.0963693 1.33289 10526880
-0.380855 0.1425 0.719822 10461087
-0.479165 0.0961674 1.33952 10526880
-0.506374 0.00844002 1.13723 11842740
0.105248 -0.136 1.26752 11908533
-0.402159 -0.266936 1.24814 8355711
-0.00670272 -0.273991 1.2376 8355711
0.243015 -0.140387 1.28 10855845
-0.406812 -0.264989 1.24768 9079434
-0.440023 -0.0533196 1.31464 9079434
-0.385874 -0.265902 1.24844 8553090
0.310087 -0.118069 1.1971 12105912
-0.35156 -0.265354 1.24868 8487297
-0.0592193 -0.191722 1.26152 9737364
-0.398276 0.137144 0.800625 10921638
-0.383234 0.147321 0.755031 11842740
0.063454 -0.264501 1.24189 8289918
-0.40768 -0.161149 1.19118 11842740
0.161982 -0.262364 1.23794 9145227
-0.551848 0.201188 1.16712 12500670
-0.0286734 0.0274061 1.32264 10855845
0.124334 -0.143379 1.27152 10263708
0.244678 -0.264592 1.24199 11513775
-0.0283762 -0.12897 1.28676 10724259
0.296768 0.0187536 1.34256 12171705
0.378169 0.270002 1.15001 10395294
-0.49729 0.101694 1.30918 10658466
-0.483245 -0.0514531 1.2998 8882055
-0.469633 -0.0595685 1.29045 9539985
-0.491959 -0.102427 1.30042 10066329
0.507509 0.308485 1.76406 8947848
-0.365083 -0.229303 1.24431 10987431
-0.523632 0.105867 1.34095 11316396
-0.52611 0.261086 1.48666 8289918
-0.0195932 0.0579216 1.33719 10329501
-0.40849 0.249005 1.38531 8224125
-0.348704 0.0978224 1.28342 11974326
0.376855 0.229433 1.17756 11119017
-0.393698 0.097004 1.32334 11776947
-0.302758 0.24156 1.32914 7895160
-0.325671 0.175636 0.600087 11908533
-0.373899 0.243231 1.34351 7763574
-0.32787 0.175849 0.607377 11842740
0.265347 -0.213953 1.19969 11908533
-0.332761 0.17575 0.623129 11842740
-0.0142079 -0.211968 1.26247 9408399
0.106502 0.225728 1.19621 9145227
-0.106065 0.241454 1.3704 8684676
-0.0762825 -0.393786 1.23382 9737364
0.440226 0.243363 1.47403 11447982
0.143504 0.241501 1.36726 8816262
-0.367899 0.213686 1.30553 10724259
-0.355592 -0.139897 1.27575 11184810
-0.270709 0.22659 1.33834 10197915
-0.179527 0.0766613 1.28232 9474192
-0.364227 -0.328832 1.20809 10263708
0.355248 0.0308999 1.21704 9408399
-0.361333 -0.313149 1.22018 9013641
0.00431154 -0.360997 1.20597 8750469
-0.270415 0.211175 1.36742 9605778
0.0137467 -0.366337 1.23074 8487297
-0.140032 -0.317296 1.22561 9276813
0.137575 -0.317868 1.21125 9474192
0.0810263 0.104525 1.34895 10724259
0.165414 -0.319405 1.21287 9474192
-0.19457 -0.324182 1.23 8421504
-0.10089 -0.308068 1.23241 9671571
0.255665 -0.274268 1.176 12303291
-0.121977 -0.266104 1.25146 8158332
0.142802 0.0730623 1.29527 10724259
-0.36261 -0.261958 1.24339 8092539
0.218125 -0.19095 1.3199 9408399
-0.198851 -0.278765 1.2556 8158332
-0.0944144 -0.217544 1.26188 10395294
0.100842 0.241876 1.37938 8882055
-0.150341 -0.150087 1.25985 9605778
-0.177693 -0.264309 1.25515 9934743
-0.098677 -0.150883 1.26805 7697781
-0.186637 -0.284236 1.25086 8553090
-0.303703 -0.0924273 1.35077 9211020
0.29463 -0.163173 1.17414 11513775
-0.414871 -0.208182 1.36968 9539985
-0.336697 -0.147351 1.24228 9671571
-0.00737409 -0.271071 1.25371 7039851
-0.154384 -0.266506 1.25305 8355711
0.195825 -0.267224 1.23382 6974058
-0.298618 -0.272516 1.24751 8947848
-0.3222 -0.271167 1.24805 7566195
-0.239306 -0.314604 1.22809 9408399
0.169898 -0.138713 1.27437 11119017
-0.28693 -0.278098 1.2563 7566195
0.00549449 -0.157467 1.27102 6316128
-0.406579 -0.314365 1.22998 9803157
-0.0984084 0.161227 1.38066 8289918
0.0178407 -0.15219 1.26428 5987163
-0.0914033 -0.145591 1.25536 7105644
-0.101798 -0.148556 1.25913 7566195
-0.130995 -0.148715 1.25922 8684676
-0.140344 -0.149081 1.25965 9013641
-0.144662 -0.148951 1.25947 8487297
-0.32377 -0.160949 1.27418 7368816
-0.399725 -0.163095 1.24097 11119017
-0.151798 -0.15016 1.2599 9342606
-0.1568 -0.149888 1.25953 9605778
-0.168122 -0.148943 1.25828 8553090
-0.169532 -0.149024 1.25838 8487297
-0.197364 -0.148692 1.25785 9145227
-0.0540535 -0.0438926 1.28406 5921370
-0.224209 -0.147144 1.25472 8618883
-0.0859095 -0.329741 1.16978 9803157
-0.269993 -0.15119 1.25974 8816262
0.0483856 -0.160976 1.27571 6842472
-0.148147 -0.360606 1.20322 8947848
0.298418 -0.110299 1.22509 12105912
-0.00762534 -0.35836 1.20147 9803157
0.195358 -0.0923815 1.28075 12434877
0.321475 0.0247748 1.25024 11908533
0.315007 -0.0905886 1.35917 13487565
-0.254381 -0.202196 1.26879 10855845
0.127998 -0.0761501 1.31689 10790052
0.184175 -0.349636 1.19397 10921638
-0.46916 -0.00785096 1.22145 11053224
-0.326029 -0.154789 1.26313 8224125
-0.000171274 -0.337184 1.20681 9539985
0.284875 -0.181718 1.23297 11974326
0.143278 -0.316077 1.18611 10855845
0.270364 -0.0337439 1.37456 10395294
-0.132289 -0.174305 1.27583 11447982
0.336085 0.000654936 1.21241 11974326
-0.291717 -0.210419 1.1408 8750469
-0.0600145 -0.0512897 1.3222 9605778
0.205372 -0.145468 1.27577 10132122
0.022737 -0.334511 1.21628 10526880
0.128518 -0.139788 1.27207 11316396
-0.0865221 0.0752447 1.30108 9079434
-0.280193 -0.320439 1.22616 9079434
-0.525126 -0.115286 1.23717 10790052
0.251945 -0.138215 1.27624 11119017
-0.0570276 -0.288458 1.19307 10000536
-0.302468 -0.10493 1.29266 10658466
-0.257738 -0.324006 1.23123 9079434
-0.299912 -0.313068 1.22636 8947848
-0.218232 -0.3248 1.23162 8947848
-0.214393 -0.313373 1.22305 9013641
0.160964 -0.340352 1.22337 8487297
0.141728 -0.300684 1.19531 8947848
-0.426854 -0.21803 1.21521 10855845
-0.0399938 -0.148086 1.25991 5658198
-0.133806 -0.337171 1.23729 9474192
-0.352799 -0.079164 1.29138 11382189
-0.126135 -0.321416 1.22628 9671571
0.150735 -0.313916 1.20653 9474192
0.155452 -0.312552 1.20529 9342606
-0.0980362 -0.0832373 1.35753 10329501
-0.448458 -0.0601438 1.28074 10066329
-0.115259 -0.140185 1.33814 8882055
-0.14474 -0.0565349 1.29824 7960953
-0.0934639 -0.174834 1.25882 10658466
0.000249088 -0.314858 1.21886 8618883
-0.309606 -0.14703 1.25404 9276813
-0.114906 -0.134754 1.32396 8947848
-0.208431 -0.313754 1.22952 10724259
-0.0638646 -0.314699 1.22295 9079434
-0.158593 -0.147605 1.26696 9474192
0.227017 -0.200365 1.28644 10724259
0.213646 -0.185162 1.40088 10329501
-0.510178 0.199581 1.10426 11842740
0.354784 0.216646 1.34753 11513775
0.311714 0.172431 1.36388 11579568
-0.215526 -0.097312 1.35926 9474192
0.376186 0.185624 1.19234 9737364
0.355345 0.169394 1.25523 11776947
-0.0344745 0.167123 1.12506 10395294
0.0276912 -0.310805 1.21938 10921638
0.355429 0.158671 1.3693 9803157
0.377422 0.145047 1.21478 9408399
-0.571138 0.124157 1.39387 11119017
-0.367576 0.123491 1.38399 11711154
-0.0642485 -0.309468 1.23076 10197915
-0.390892 0.147952 0.810327 10329501
0.346425 0.118343 1.25791 11513775
0.122525 0.0973265 1.35253 11119017
-0.373254 0.100324 1.28507 11513775
-0.397493 0.0998624 1.28876 11513775
0.371513 0.108809 1.2214 9605778
0.138675 -0.412615 1.16534 8355711
0.0260697 0.0792831 1.32901 9934743
-0.131623 -0.367317 1.24281 10066329
0.221875 -0.34857 1.13759 11645361
0.22842 -0.33665 1.14888 11645361
0.154946 -0.275176 1.20656 11908533
-0.263404 0.0726317 1.2994 9737364
0.255901 -0.314016 1.13237 10987431
-0.144631 -0.321367 1.22674 9671571
-0.287471 -0.314042 1.22873 9671571
-0.0680205 -0.31934 1.2239 9211020
-0.237709 -0.314598 1.22943 10263708
-0.162049 -0.315968 1.22693 9803157
0.00719044 -0.317609 1.2187 9408399
0.271614 -0.254681 1.15624 11711154
-0.182652 -0.315033 1.22959 10658466
0.265149 -0.25789 1.1663 12632256
-0.340819 -0.276852 1.25364 8289918
0.168824 -0.303162 1.21792 10855845
0.0949907 -0.270814 1.24033 7763574
-0.314296 -0.182538 1.30748 9408399
-0.233926 -0.294351 1.24944 10132122
-0.161929 -0.293526 1.24635 9276813
-0.0951797 -0.26922 1.25504 7829367
0.169993 -0.326433 1.19188 10724259
0.143936 -0.290296 1.22886 11579568
0.123543 -0.290123 1.23087 11119017
-0.232499 -0.267101 1.25502 8026746
-0.42886 -0.272624 1.26047 8092539
0.0948687 -0.307626 1.19553 9868950
-0.532472 -0.331749 1.39344 11184810
-0.321484 -0.265898 1.25295 8750469
0.294541 0.0435082 1.32548 11974326
0.130831 -0.287714 1.22812 10921638
-0.161871 -0.147213 1.25701 9211020
-0.467831 -0.115178 1.04435 9474192
-0.486071 -0.151882 1.35828 11908533
-0.0906179 -0.244743 1.15745 10066329
-0.154491 -0.314812 1.22385 9342606
0.049618 -0.21227 1.27425 10724259
-0.475386 -0.135117 1.32544 12040119
-0.469372 -0.0940823 1.03586 9145227
0.139873 -0.309924 1.21173 8816262
0.274355 -0.22361 1.33345 12040119
-0.305547 -0.105511 1.29673 10395294
-0.0690641 -0.189531 1.26846 9868950
-0.270759 -0.278746 1.25647 7500402
-0.470462 -0.0897399 1.03982 10329501
-0.282593 -0.313984 1.22701 8816262
-0.056784 -0.285311 1.18892 9737364
0.342488 -0.0682405 1.37134 10395294
-0.117253 -0.0528942 1.32752 8750469
-0.141273 -0.312962 1.22629 10395294
-0.305286 0.00205967 1.29536 10329501
0.328373 0.00982244 1.25028 11711154
-0.206298 -0.290089 1.24748 9211020
-0.235143 -0.276061 1.42885 9276813
-0.240285 -0.266719 1.25562 8421504
0.336465 0.0522747 1.2527 11776947
0.306712 -0.000904575 1.35348 10658466
-0.376323 -0.153677 1.26441 8947848
-0.352268 -0.150335 1.2755 9342606
-0.298491 -0.314043 1.22662 9079434
-0.245872 -0.147611 1.271 9803157
-0.286797 -0.0697183 1.24045 10592673
-0.10154 -0.264027 1.25282 10329501
-0.411921 -0.140677 1.27732 10526880
-0.0329022 -0.142864 1.26433 9803157
-0.261735 -0.315521 1.23087 9737364
0.302506 -0.121623 1.19744 12500670
-0.179553 -0.264335 1.25523 10263708
-0.503216 -0.56376 1.77571 8224125
-0.202401 -0.226604 1.16194 9211020
-0.190669 -0.264293 1.25548 10263708
-0.194323 -0.258219 1.18391 9276813
-0.158144 -0.266936 1.2536 8158332
0.329838 -0.00285958 1.25398 12303291
-0.196817 -0.149402 1.25749 9605778
-0.0765834 -0.274313 1.25099 6381921
0.020605 -0.314565 1.218 8158332
-0.282324 -0.072635 1.16093 8224125
0.201996 -0.294792 1.82029 7829367
0.204588 -0.381767 1.17497 11053224
0.177987 -0.311386 1.20379 8816262
0.309745 -0.0789947 1.23663 12237498
-0.210212 -0.279042 1.25745 7697781
-1.12158 -2.85776 4.64115 8487297
-0.0217669 -0.315159 1.18901 9474192
-0.378042 -0.0776395 1.2938 10921638
0.192545 -0.270111 1.22916 9737364
-0.917319 -2.05841 3.64176 9539985
-0.157161 -0.142439 1.25609 9803157
-0.203582 -0.0790378 1.34011 9145227
-0.254438 -0.0294668 1.11087 8092539
-0.197279 -0.17673 1.30941 10066329
-0.282845 -0.201547 1.12436 10395294
-0.340384 -0.0717676 1.34799 8421504
0.303714 -0.152327 1.19023 11447982
-0.417195 -0.068921 1.34562 8158332
-0.0831747 -0.219501 1.58698 10461087
-0.26713 -0.0680892 1.33682 8618883
0.187551 -0.352667 1.19765 11119017
-0.287464 -1.00222 2.34137 9079434
-0.182462 -0.293269 1.18066 9803157
-0.459971 -0.0546479 1.32006 9079434
-0.411261 -0.0500996 1.29926 8750469
0.00190069 -0.306418 1.16999 9803157
0.258603 -0.0615525 1.33139 10066329
-0.50485 -0.0148183 1.17587 11579568
-0.137124 -0.0516459 1.32278 9013641
0.0706016 -0.119526 1.40536 8224125
-0.0368813 -0.299745 1.17364 9737364
0.238212 -0.268552 1.23019 8684676
-0.242837 -0.311474 1.23176 11579568
-0.127635 -0.256165 1.15315 9868950
-0.237479 -0.288049 1.21452 11711154
-0.0395051 -0.283219 1.16563 9605778
-0.200664 -0.191675 1.32928 9868950
0.237696 -0.261892 1.2348 10197915
0.134715 -0.136483 1.22884 11447982
0.178189 -0.352341 1.1989 9408399
-0.42754 0.0963872 0.933026 11184810
0.083654 -0.283025 1.2322 9276813
0.187334 -0.305989 1.20816 9539985
0.00987953 -0.259201 1.21661 8092539
0.139484 -0.121192 1.2076 11382189
-0.185102 -0.125611 1.26197 11579568
0.0378486 -0.274635 1.25576 6381921
-0.243493 -0.0500538 1.05775 8224125
0.0410537 -0.27368 1.25479 6316128
-0.166536 0.0522377 1.25893 10066329
-0.0703384 -0.161884 1.11602 11119017
-0.418215 0.10383 0.903153 12303291
-0.0988203 -0.186261 1.27858 10132122
0.24607 -0.24169 1.28693 11579568
-0.0436416 -0.314057 1.22356 10197915
0.0373319 -0.315601 1.22033 8947848
-0.0520123 -0.144901 1.25845 9145227
-0.254025 -0.0884172 1.09137 7960953
0.079973 -0.308581 1.2178 12237498
-0.0554413 -0.284456 1.18827 9671571
0.24979 -0.33245 1.12291 11119017
-0.27757 -0.318783 1.22548 8618883
0.195923 -0.27141 1.18814 9803157
-0.0879436 -0.201768 1.24495 9934743
0.13133 -0.165849 1.29514 6908265
-0.0574425 -0.273528 1.18492 9408399
-0.231592 -0.152747 1.27382 8947848
-0.266327 -0.269726 1.24876 7237230
0.230374 -0.202686 1.2898 10987431
-0.257415 -0.278338 1.25575 8092539
0.228823 -0.296877 1.20939 10000536
-0.254907 -0.277346 1.25483 8092539
-0.215388 -0.0439848 1.16523 10790052
-0.175071 -0.301216 1.27234 9145227
-0.0298754 -0.157676 1.2841 6118749
-0.00694352 -0.485243 1.42221 8487297
-0.228017 -0.322344 1.25103 10855845
-0.0151273 -0.269249 1.2401 7039851
-0.0947232 -0.17268 1.24739 9737364
0.207275 -0.264944 1.22915 8026746
0.210813 -0.190839 1.26451 11579568
-0.340596 -0.247939 1.23367 9408399
0.129173 -0.317089 1.23487 11908533
0.0374707 -0.137987 1.16256 9145227
0.0903223 -1.02948 2.20152 9408399
-0.175412 -0.308042 1.27917 8882055
-0.510292 -0.234192 1.25711 11316396
-0.236058 -0.276748 1.2556 7105644
0.239243 -0.238611 1.24381 12434877
-0.202902 -0.257215 1.23794 8224125
-0.207994 -0.319402 1.2341 11184810
0.022589 -0.318851 1.21778 9276813
-0.232428 -0.0485364 1.19945 10395294
-0.146167 -0.278595 1.25523 8026746
-0.290271 -0.295305 1.24579 10855845
-0.142104 -0.279682 1.25603 8553090
-0.274612 -0.298342 1.24754 10921638
-0.0851367 -0.33038 1.29847 7500402
0.19598 -0.318102 1.21155 9211020
-0.0904176 -0.240918 1.22317 6447714
-0.172154 -0.171533 1.14689 9868950
0.0273582 -0.270285 1.24459 5723991
0.178384 -0.276148 1.2162 12171705
0.0368701 -0.270225 1.24424 5855577
-0.0540186 -0.326582 1.29426 7171437
-0.306887 -0.264324 1.25097 8289918
-0.0623907 -0.273936 1.24956 6645093
-0.128407 -0.291204 1.24279 9474192
0.245867 -0.258527 1.28824 10921638
0.00948846 -0.261005 1.21347 9079434
0.105075 -0.271782 1.24342 7105644
-0.292497 -0.282625 1.26817 8026746
-0.28054 -0.306862 1.28974 8158332
0.127789 -0.267959 1.23942 7039851
-0.240837 -0.554772 1.46046 9803157
-0.104777 -0.248976 1.18893 10197915
-0.0464031 -0.290339 1.24094 10790052
-0.213091 -0.124029 1.28256 10197915
0.010787 -0.261043 1.21529 8355711
-0.113466 -0.272421 1.21205 9211020
-0.0109864 -0.27211 1.25344 5921370
-0.0939344 -0.21869 1.37914 10592673
-0.225254 -0.291486 1.24948 9934743
-0.28205 -0.366525 1.34264 8289918
-0.249441 -0.333503 1.31519 9342606
-0.216198 -0.293399 1.25068 10395294
-0.196641 -0.331837 1.31104 8421504
-0.192697 -0.147175 1.1321 9934743
-0.177011 -0.317466 1.29794 8224125
-0.0646523 -0.290972 1.24311 10395294
0.36903 0.156409 1.1932 9539985
0.103633 -0.262303 1.21378 9342606
-0.290004 -0.296434 1.25123 10000536
-0.0393707 -0.192086 1.24921 5987163
-0.00584361 -0.151355 1.29252 8553090
0.0309571 -0.307205 1.25366 8487297
-0.15046 -0.321692 1.30193 9211020
-0.0170311 -0.271411 1.25404 6908265
-0.00422992 -0.157141 1.13108 9211020
0.00624907 -0.271451 1.25338 6447714
-0.0839016 -0.292006 1.24271 9737364
-0.0712327 -0.220488 1.38347 9803157
-0.0369297 -0.0479197 1.31699 10132122
-0.0757957 -0.0789695 1.08775 6447714
-0.210972 -0.343144 1.28948 10000536
-0.0528194 -0.100011 1.10542 6645093
0.0471153 -0.272611 1.25317 6184542
0.0424586 -0.122975 1.19192 8816262
-0.150161 -0.291074 1.24636 10329501
0.0851551 -0.274235 1.25451 6645093
-0.298765 -0.228887 1.20259 9539985
0.258054 -0.2448 1.1751 12171705
-0.142433 -0.26755 1.2519 7895160
-0.0507238 -0.318164 1.30499 9934743
0.0389514 -0.265244 1.24247 7368816
-0.208441 -0.355897 1.33589 10329501
-0.243691 -0.0467144 1.05503 6974058
-0.0786911 -0.264653 1.26823 10921638
0.268852 -0.216736 1.19156 12171705
-0.53104 -0.0707411 1.34447 8947848
-0.242404 -0.02972 1.04216 7368816
-0.265523 -0.0781926 1.18769 11316396
-0.185472 0.118296 1.28411 10526880
-0.0221378 -0.367689 1.37082 9145227
-0.591895 0.0943022 1.51204 10855845
-0.145868 -0.293557 1.24537 9408399
-0.188637 -0.251917 1.22408 9276813
-0.000243306 -0.262485 1.22622 7763574
-0.45491 0.0662126 1.27752 10197915
-0.289798 -0.304476 1.27197 8816262
-0.241429 -0.270678 1.29334 10592673
0.137586 -0.216564 1.63451 8421504
0.225556 -0.218216 1.23338 11842740
-0.311126 -0.267204 1.24541 7566195
-0.498945 0.0987703 1.36219 10790052
-0.102308 0.0643545 1.2435 10921638
0.200425 -0.412821 1.15628 9013641
-0.302436 -0.270101 1.24845 7434609
0.240207 -0.227362 1.26066 11842740
-0.288516 -0.0508951 1.30481 7960953
-0.0451927 -0.219827 1.2586 7105644
-0.510662 0.0861854 1.43821 10263708
-0.272771 -0.139712 1.26183 10197915
0.15642 -0.844228 1.71995 7434609
0.223862 -0.211572 1.25161 11447982
-0.251767 -0.276282 1.25477 7500402
-0.390912 0.0856426 1.32079 9539985
-0.0675913 -0.215756 1.19749 7566195
-0.0270507 -0.229076 1.27408 7566195
-0.154197 -0.278934 1.25578 8158332
-0.346879 -0.257236 1.01369 10592673
-0.313286 -0.215574 1.36002 9671571
0.249185 -0.243573 1.29252 11645361
0.21551 -0.200719 1.25152 11447982
0.336514 -0.0232123 1.22288 12105912
-0.0126744 -0.146292 1.27069 6776679
0.318742 -0.573776 1.2993 11119017
-0.0282296 -0.198884 1.25333 7171437
-0.428685 -0.0556353 1.28712 8355711
0.177117 -0.173693 1.23274 11645361
-0.484698 -0.0289607 1.10205 11316396
-0.227477 -0.139731 1.2001 11053224
0.295941 -0.171016 1.20768 12961221
-0.0751754 -0.21992 1.28683 8026746
-0.0461682 -0.208815 1.27675 5921370
0.243102 -0.294975 1.15496 12500670
-0.0552261 -0.221819 1.29212 6118749
-0.12928 -0.257779 1.15495 10197915
-0.126145 -0.196262 1.26873 9276813
0.233971 -0.222895 1.29771 11316396
-0.278535 -0.315827 1.23145 9934743
0.241539 -0.231508 1.3111 11119017
-0.304657 -0.0680837 1.33815 7960953
-0.10986 -0.237331 1.32607 10921638
0.183826 -0.249134 1.1723 9868950
0.0239614 -0.381347 1.49868 7763574
-0.366853 -0.149476 1.25632 8947848
-0.31176 -0.0705168 1.34188 8684676
-0.00786707 -0.129327 1.24548 5329233
0.0354058 -0.324492 1.22964 9605778
0.224753 -0.196065 1.29075 11447982
-0.433092 -0.0561229 1.28799 8224125
-0.208929 -0.147341 1.2549 9539985
-0.553088 -0.168073 1.33726 11316396
0.0442765 -0.316513 1.21723 9013641
0.193379 -0.188829 1.29691 11382189
0.167518 -0.307517 1.2075 9671571
0.236335 -0.199932 1.31461 10921638
-0.0399099 -0.173654 1.30115 5921370
0.149436 -0.190707 1.34997 9276813
-0.263139 -0.14477 1.27264 10132122
-0.307054 -0.340453 1.51244 9079434
-0.434034 -0.143099 1.28565 10329501
0.315036 -0.105758 1.20363 12105912
0.317092 -0.0896334 1.20476 12500670
-0.732625 -1.37347 2.78538 9079434
-0.328586 -0.106243 1.28523 11447982
-0.227726 -0.14776 1.25496 9539985
-0.514041 -0.075903 1.1918 11316396
-0.302818 -0.11979 1.21998 8158332
-0.55297 -0.114122 1.31167 11513775
0.308972 -0.113704 1.19588 12500670
-0.196377 -0.266268 1.25155 8026746
-0.353558 -0.160686 1.27179 9342606
-0.116689 -0.507528 1.71551 9145227
-0.277352 -0.0605084 1.1464 8947848
0.0971845 -0.252691 1.22244 8026746
-0.184591 -0.148521 1.2584 9145227
0.180933 -0.272742 1.18718 10790052
-0.11787 -0.150155 1.26122 8816262
-0.232008 -0.0203572 1.02289 10724259
-0.282102 -0.266638 1.25564 8882055
-0.2196 0.00128787 1.00716 10724259
0.186427 -0.265073 1.24199 8355711
-0.315691 -0.161033 1.28747 9276813
-0.218979 -0.0204419 1.0264 11579568
0.163064 -0.187543 1.06206 10461087
0.0990489 -0.310665 1.23892 11776947
-0.251305 -0.0304551 1.03657 8026746
-0.108578 -0.158991 1.28165 9013641
-0.0231517 -0.274018 1.25619 6908265
-0.293158 -0.141047 1.25378 9211020
-0.161688 -0.371988 1.18921 10197915
0.198626 -0.19065 1.22751 11316396
-0.250892 -0.0308194 1.03776 8224125
-0.146149 -0.14621 1.2592 8224125
-0.203538 -0.16083 1.27788 8816262
0.107712 -0.262394 1.21802 9211020
-0.0904524 -0.298358 1.15305 10263708
-0.796891 -1.35566 1.80827 10395294
0.0518897 -0.159371 1.27487 6513507
0.0491436 -0.159082 1.27448 6513507
-0.0141067 -0.15174 1.26473 6052956
0.234042 -0.193727 1.31857 10526880
-0.324693 -0.148457 1.25404 8750469
0.0556768 -0.248527 1.21124 7434609
-0.259173 -0.188394 1.30615 8355711
0.616666 -1.54942 3.04761 6381921
-0.0340404 -0.153515 1.26578 6447714
0.185553 -0.369421 1.16917 11184810
0.282956 -0.03905 1.39318 10329501
0.164666 -0.323785 1.157 11316396
0.343002 -0.0200685 1.21476 9934743
0.177137 -0.354871 1.17826 11250603
0.167131 -0.326429 1.16696 10790052
-0.239525 -0.050322 1.30581 8158332
-0.126582 -0.281664 1.16788 10132122
-0.00241247 -0.738779 2.00836 8092539
0.190305 -0.333147 1.21693 10066329
0.243255 0.0909865 1.35579 9276813
-0.140169 -0.2772 1.25528 7566195
-0.084541 -0.321445 1.20283 10461087
-0.0908122 -0.145631 1.26513 9605778
-0.150055 -0.27387 1.17783 10526880
-0.105046 -0.289082 1.18732 10658466
-0.276633 -0.192733 1.13178 9013641
-0.29816 -0.21831 1.15274 9539985
-0.280602 -0.238467 1.16563 8553090
0.241498 -0.226743 1.26802 12171705
0.215168 -0.194243 1.27009 12105912
0.239909 -0.236229 1.28008 11776947
-0.242526 -0.32407 1.23098 9013641
0.335271 0.096987 1.25728 11316396
-0.170112 -0.272598 1.19212 9605778
0.273043 -0.211868 1.1962 12632256
-0.143899 -0.28076 1.19827 9868950
-0.127963 -0.285013 1.20054 9868950
0.184168 -0.378493 1.4189 8553090
-0.048623 -0.28648 1.19955 9671571
0.215768 -0.197565 1.2635 12040119
-0.125101 -0.21551 1.2832 9539985
0.260629 -0.254268 1.29598 11645361
0.233414 -0.224364 1.28787 11908533
-0.0290049 -0.255994 1.30137 6118749
-0.0521964 -0.319325 1.23447 10526880
-0.230998 -0.0267894 0.994072 10066329
-0.232635 -0.0273898 0.997027 10263708
-0.237068 -0.0377791 1.00452 9342606
-0.242395 -0.0445907 1.00991 10790052
-0.0834899 -0.308993 1.23198 10132122
-0.249676 -0.319641 1.24806 11184810
-0.167193 -0.314057 1.24032 10461087
-0.0384723 -0.312561 1.23364 10790052
0.118066 -0.251577 1.18126 11250603
0.262372 -0.388925 1.28019 10000536
-0.295328 -0.165205 1.13867 10658466
-0.153304 -0.0679612 1.02506 9868950
-0.302377 -0.183022 1.15319 10855845
-0.234307 -0.0294963 1.0093 10658466
-0.3181 -0.276949 1.22825 11711154
0.0122158 -0.182897 1.23956 7500402
-0.311924 -0.279861 1.23197 11513775
-0.299349 -0.296265 1.24599 11513775
-0.224905 -0.0101124 0.998784 10724259
-0.256531 -0.294883 1.24595 10066329
-0.000619799 -0.295217 1.23721 10263708
0.23543 -0.226188 1.29841 11053224
-0.142081 -0.293162 1.24487 9342606
0.016155 -0.314595 1.20998 9737364
0.0466634 -0.274327 1.22365 9868950
0.125176 -0.28969 1.23043 10790052
-0.308893 -0.224312 1.19775 8816262
0.0961286 -0.309266 1.21512 10395294
-0.0566463 -0.289802 1.24089 10790052
-0.151658 -0.179912 1.263 10000536
-0.329652 -0.287679 1.18387 10526880
0.0792973 -0.35563 1.17589 9803157
-0.299694 -0.228076 1.20198 9539985
0.117592 -0.310788 1.21592 10197915
-0.223615 -0.254001 1.23589 7434609
-0.0574328 -0.184961 1.15898 9803157
-0.0310274 -0.148607 1.26475 8750469
0.100441 -0.266251 1.21997 9474192
-0.0458015 -0.142065 1.12513 8618883
-0.259046 -0.315783 1.23099 9671571
0.0927531 -0.416715 1.34503 8684676
-0.25712 -0.0685233 1.07725 8289918
-0.30995 -0.267822 1.24589 7434609
0.109968 -0.26516 1.23153 8421504
-0.336793 -0.254477 1.23821 7566195
-0.0994638 -0.282373 1.25396 8750469
-0.16822 -0.225556 1.20909 8882055
-0.242858 -0.276502 1.25561 7303023
-0.222247 8.54209e-05 1.00639 11250603
0.202924 -0.264949 1.23866 7303023
-0.0291582 -0.271445 1.25341 6381921
0.0216092 -0.272744 1.25405 6381921
0.158511 -0.266833 1.24481 7960953
-0.0262696 -0.271003 1.24195 7237230
-0.0890302 -0.288221 1.27191 8882055
-0.0964312 -0.280402 1.25219 8487297
-0.00490549 -0.0769558 1.08441 7631988
-0.172903 -0.0164573 1.01401 11250603
-0.0692904 -0.325101 1.31054 10658466
-0.126931 -0.219351 1.15966 11382189
0.185954 -0.44625 1.41283 7303023
-0.232041 -0.0316775 1.03362 11579568
0.243338 -0.252572 1.24909 11513775
-0.299022 -0.284206 1.25831 8816262
-0.183021 -0.150421 1.26031 9408399
-0.320251 -0.274497 1.25092 7566195
0.255739 -0.263459 1.27967 11513775
0.230598 -0.221569 1.24183 11579568
-0.0779386 -0.203311 1.23381 9474192
-0.0607976 0.040419 0.975446 9868950
-0.0259192 -0.311503 1.22062 10066329
0.363264 -0.360189 1.38455 11184810
-0.0839796 -0.19395 1.22842 9934743
-0.48748 -0.648875 1.69371 10724259
0.263536 -0.257565 1.30186 11513775
-0.0904049 -0.209197 1.20275 9145227
-0.0263345 -0.224735 1.27719 7303023
0.252573 -0.261403 1.2742 11184810
0.0783663 -0.0787164 1.12606 12105912
0.218997 -0.202527 1.259 11316396
-0.132656 -0.182046 1.24711 10395294
-0.121418 -0.190777 1.26366 10197915
-0.184512 -0.288128 1.25095 8618883
-0.142607 -0.170324 1.25375 10263708
-0.141982 -0.177189 1.27737 10724259
0.195001 -0.363075 1.20196 10724259
-0.25668 0.0841526 1.18747 9013641
-0.207093 -0.10937 1.13996 11250603
-0.294416 -0.145825 1.25278 8553090
-0.229645 -0.144985 1.25244 8684676
-0.221228 -0.146757 1.25476 9145227
-0.186143 -0.322957 1.30299 8355711
-0.18563 -0.122534 1.25057 11184810
-0.0963331 -0.148035 1.25984 7434609
-0.269186 -0.363309 1.33945 8224125
-0.176234 -0.141419 1.25352 10066329
-0.237177 -0.855217 2.14851 9342606
-0.284623 -0.281719 1.26714 8092539
-0.286687 -0.281086 1.26665 8289918
-0.00906518 -0.316838 1.21834 8947848
-0.0419721 -0.366523 1.39497 9605778
0.0626209 -0.0829416 1.18472 7039851
-0.245523 -0.143495 1.25922 9539985
-0.255834 -0.155428 1.2776 10132122
-0.176613 -0.227728 1.38961 10987431
-0.334706 -0.253166 1.40495 9408399
-0.2943 -0.250836 1.23988 8224125
-0.185985 -0.0983069 1.20609 10066329
0.3131 -0.0425579 1.25562 11908533
-0.276211 -0.146188 1.27032 10132122
-0.320738 -0.265671 1.25165 8092539
-0.236369 -0.14612 1.27831 11250603
0.0910391 -0.273836 1.05172 9934743
-0.0794975 -0.123758 1.25248 9408399
0.175847 -0.183787 1.3391 9079434
0.0538297 -0.198975 1.02396 12040119
0.0853142 -0.1747 1.3329 10000536
0.241605 -0.282373 1.16982 11776947
0.282128 -0.129581 1.31324 11974326
0.192594 -0.185015 1.36283 10592673
0.264594 -0.176519 1.35729 10855845
0.369829 0.123805 1.22456 10592673
0.0648764 -0.215638 1.40885 9868950
0.146468 -0.196156 1.38493 10790052
-0.171009 -0.121484 1.27035 10658466
-0.0300874 -0.189323 1.37996 9276813
0.0288692 -0.180044 1.3698 8487297
0.401981 -1.06189 1.36058 11776947
0.149634 -0.230711 1.45541 9079434
0.320465 0.10238 1.36216 10066329
0.185569 -0.150801 1.36135 10526880
-0.553994 0.0843099 1.49484 9605778
-0.274539 -0.205749 1.04952 10132122
-0.0792651 -0.113208 1.3071 9145227
0.140077 -0.156666 1.3905 9079434
0.206877 -0.147446 1.28007 9342606
0.152288 -0.287515 1.22707 11513775
0.0319899 -0.243814 0.992491 11645361
-0.0822858 -0.132411 1.3652 9079434
-0.290282 -0.0672868 1.24207 10724259
-0.317613 -0.278141 1.2548 8421504
-0.121425 -0.154301 1.41016 10263708
0.234877 0.0802931 1.28559 8882055
-0.199649 -0.0716217 1.26748 9803157
0.139169 -0.131529 1.40033 8026746
-0.0735784 -0.0750465 1.33209 10329501
0.181165 -0.397735 1.16474 9868950
-0.439822 -0.264128 1.2403 8684676
-0.0896683 0.075535 1.30465 8816262
-1.79257 -5.09131 3.24012 8947848
-0.0189238 -0.143941 0.982676 11513775
-0.0989252 -0.0837756 1.36121 10197915
-0.310693 -0.26658 1.2537 8553090
-0.324336 -0.145481 1.29641 11842740
-0.277804 -0.266228 1.25425 8553090
0.309325 -0.698874 1.22986 11645361
-0.250995 -0.266971 1.25412 8026746
0.47682 -0.958095 1.33113 12434877
-0.205074 -0.989521 2.31577 9934743
-0.159486 -0.385936 1.23079 9868950
-0.21723 -0.0821259 1.34644 9276813
0.0821395 -0.365478 1.18031 10263708
-0.176133 -0.266866 1.25258 8158332
-0.26903 -0.975877 2.29204 10066329
0.356071 0.0550813 1.21301 9539985
0.251979 -0.326665 1.12773 11053224
0.180631 -0.269684 1.236 8224125
-0.0195616 -0.347742 1.38889 6776679
-0.0715667 -0.264265 1.24734 8947848
-0.00553454 -0.17152 0.972 10921638
-0.0990243 0.073597 0.944803 12040119
0.19584 -0.45446 1.13662 10790052
0.448489 -1.01991 1.28811 10987431
0.299473 -1.12179 1.94114 8947848
-0.113523 0.0554323 0.927309 11184810
-0.224753 -0.245705 1.20862 10526880
-0.0321824 -0.147811 1.25589 9408399
0.191343 -0.263287 1.23925 9079434
-0.0597713 -0.382815 1.27396 10000536
-0.0173741 -0.14766 0.979463 11842740
0.3295 0.0418892 1.26318 11316396
-0.00341329 -0.172527 0.992208 11447982
0.00396697 -0.589592 1.41552 10263708
-0.0819265 0.0115966 0.942987 11776947
0.252172 -0.252644 1.24104 12105912
-0.053896 -0.242608 1.22889 7039851
0.317883 -0.0184861 1.25686 11908533
-0.220392 -0.274913 1.24972 8487297
-0.233788 0.0113683 1.25152 10395294
0.127234 -0.110884 1.20383 10921638
-0.360658 -0.520689 1.17201 11119017
-0.103667 -0.478101 1.63305 11316396
0.824368 -1.33557 1.87099 10592673
0.12818 -0.298279 1.0737 10066329
-0.308569 -0.38032 1.11476 11447982
1.09064 -1.63779 2.06554 10329501
-0.16299 -0.362285 1.33504 7697781
1.06596 -1.62406 2.05695 10395294
-0.083553 0.0156637 0.94356 11053224
0.209202 -0.458733 1.14071 9342606
0.214678 -0.197983 1.25842 11842740
-0.191041 -0.203522 1.25077 10658466
0.269859 -0.536154 1.19947 11250603
0.0853543 -0.0594898 1.32202 8158332
0.338109 -0.809465 1.29005 9737364
-0.562946 -0.927186 1.63118 9868950
0.190533 -0.446951 1.13757 8882055
0.235695 -0.57617 1.19357 9145227
0.103313 -0.264411 1.08017 12171705
-0.156941 -1.02802 1.66782 10526880
0.279275 -0.783359 1.28503 9079434
-0.109446 0.0594459 0.933045 10724259
-0.10772 -0.418401 1.49795 11119017
0.288848 -0.775471 1.28249 8947848
-0.109145 0.0596606 0.933465 10724259
0.267284 -0.189696 1.33168 11974326
0.236804 -0.474137 1.12583 10790052
-0.0984326 -0.175574 1.26684 10592673
0.157923 -0.340498 1.1291 11908533
0.436119 -0.880255 1.28396 10987431
0.48882 -1.62407 1.67331 9474192
0.132072 -0.30351 1.10562 11513775
0.66428 -2.14126 1.90176 9605778
-0.109082 0.0607282 0.934227 12040119
0.620173 -2.37018 2.0099 9408399
0.603379 -2.0388 1.85429 8750469
0.189167 -0.395842 1.09807 12434877
0.568216 -2.025 1.84996 8816262
0.544569 -1.98791 1.8343 8882055
0.236729 -0.226241 1.25655 12500670
0.58081 -2.1446 1.90421 8947848
0.499093 -1.1043 1.43082 9079434
0.609356 -2.48412 2.0586 9013641
0.189146 -0.40768 1.12855 9342606
0.196334 -0.394692 1.16121 11842740
1.58942 -3.20828 2.20113 11908533
0.529979 -2.06122 1.86509 8421504
0.720223 -1.34929 1.46943 12632256
0.556188 -2.30598 1.97566 8553090
0.198547 -0.397355 1.16351 11842740
0.366768 -0.556706 1.39924 11316396
-0.150272 -0.388097 1.36108 10066329
0.505114 -1.12708 1.44313 9605778
0.592413 -1.12636 1.43776 9408399
-0.0574392 0.0693845 1.2824 10197915
0.512642 -1.03554 1.40252 10132122
-0.108356 0.0615254 0.935086 11382189
0.0555976 -0.216401 1.04958 8487297
-0.108817 0.0622127 0.934743 10724259
-0.111284 0.0598008 0.931276 10921638
-0.10898 0.0623225 0.934795 11579568
-0.132948 -0.267463 1.25183 7566195
0.08184 -0.227949 1.03991 12500670
0.0809432 -0.231894 1.05779 11316396
0.256925 -0.479749 1.21494 11908533
-0.197375 -0.328245 1.3846 11250603
-0.109258 0.0633274 0.934799 11513775
0.244559 -0.489321 1.17051 10197915
-0.101972 0.0540288 0.939851 11382189
-0.0218241 -0.141397 0.955842 11316396
0.108042 -0.273331 1.11346 11974326
-0.0134398 -0.157822 0.962574 11645361
0.495571 -2.37361 1.98237 8684676
-0.0111853 -0.323975 1.14899 11053224
-0.00757712 -0.16881 0.968108 11842740
0.318287 -0.625748 1.23603 10329501
0.331079 -0.584948 1.28023 12105912
0.336616 -0.652176 1.24764 10132122
-0.107337 0.0618726 0.936189 11513775
0.278973 -0.540592 1.19751 11250603
0.357628 -0.621626 1.30262 12105912
0.308401 -0.620485 1.2354 10000536
-0.100337 0.0529931 0.941126 11579568
0.0954873 -0.253107 1.07097 11974326
-0.192762 -0.197897 1.26852 9934743
0.792154 -2.64954 2.12115 8618883
-0.10053 0.0538056 0.941196 11842740
0.505265 -1.1139 1.42026 9211020
0.21012 -0.430691 1.13463 10066329
0.278944 -0.5392 1.19924 11908533
-0.0995798 0.0529487 0.941779 12105912
1.1824 -4.41307 2.9176 9474192
-0.107115 0.0628184 0.936655 11382189
1.15903 -4.18096 2.81172 9342606
0.580861 -0.936535 1.48799 11974326
0.884401 -3.01249 2.28819 9276813
-0.106706 0.0628034 0.936981 11184810
0.753644 -2.44166 2.03218 9145227
-0.0655108 -0.146031 1.26419 9934743
0.775404 -2.40182 2.01242 9013641
-0.327879 -0.154381 1.27096 8750469
-0.106472 0.0630454 0.937289 11316396
-0.283439 -0.223245 1.36498 9737364
-0.100674 0.0559149 0.941661 11513775
-0.244069 -0.333262 1.50293 9605778
0.642947 -1.68446 1.68881 8684676
0.524915 -0.865294 2.17245 7434609
0.63259 -1.61855 1.65893 8684676
0.99889 -1.52222 1.85094 11447982
0.63428 -1.60155 1.65098 8750469
-0.100155 0.0592059 0.940164 11579568
0.632586 -1.57118 1.63702 8750469
1.11604 -1.68779 1.95759 11645361
0.633919 -1.53531 1.62035 8750469
-0.0980618 0.0543308 0.943573 12040119
-0.100086 0.0619609 0.941923 10855845
0.310955 -0.600229 1.20134 7303023
0.609011 -1.31296 1.519 8684676
-0.099238 0.058452 0.941217 10395294
-0.147475 -0.0809499 1.34942 9737364
-0.274141 -0.319594 1.30058 7368816
-0.00413357 -2.62515 4.49304 10197915
-0.27528 -0.296896 1.24827 10461087
2.33701 -8.95739 4.96399 10000536
-0.0360226 -0.00514961 1.0016 8553090
-0.0945989 0.058028 0.945427 11316396
0.0400857 -0.120733 1.09322 11711154
-0.0889976 0.0580429 0.945237 10592673
-0.333961 -0.349502 1.23062 10724259
-0.0379486 -0.00421875 1.00246 9145227
0.858051 -1.42787 1.92618 10461087
-0.0550474 -0.133417 1.10941 9276813
-0.0781697 0.0432801 0.955077 9934743
0.0273927 -0.0677331 1.05508 9671571
0.706896 -1.27996 1.5002 8487297
-0.0498594 -0.144263 1.11943 8816262
-0.0777398 0.0447186 0.954591 9934743
-0.0391419 -0.0148417 1.01338 11579568
2.96663 -23.1199 11.342 8618883
0.00541659 -0.0411003 1.03415 9803157
0.173166 -0.306499 1.19278 10790052
-0.214069 -0.100573 1.08686 11184810
0.902868 -5.59415 3.45197 8553090
-0.089938 0.0538002 0.949787 11447982
1.0084 -2.70992 2.1505 10000536
-0.00764434 -0.539761 1.36658 11513775
-0.0355332 -0.0171597 1.01663 12040119
0.885771 -2.09962 1.87366 9803157
0.86562 -4.72165 3.05508 8355711
0.859985 -4.47046 2.94039 8289918
-0.024234 -0.0282398 1.0264 11711154
0.872683 -1.93572 1.79809 9803157
-0.0353271 -0.0980597 1.08521 8618883
-0.142877 -0.352431 1.1879 10461087
-0.237784 -0.0561569 1.05353 11974326
-0.232886 -0.00432926 0.997974 10592673
-0.238107 -0.0575008 1.05466 11908533
-0.210566 0.0182585 0.980906 10790052
-0.260921 -0.136643 1.12123 11842740
-0.245705 -0.110634 1.09923 11776947
0.816967 -3.89562 2.68702 8750469
-0.236937 -0.0971436 1.08782 11316396
-0.304277 -0.166749 1.11893 10724259
-0.226512 -0.102115 1.09184 11053224
-0.295969 -0.156915 1.1115 10790052
-0.225476 -0.116134 1.10356 10921638
-0.107174 -0.289856 1.20385 10395294
0.176418 -0.366205 1.14794 11974326
-0.0472236 -0.121619 1.10565 8355711
-0.0136818 -0.0754997 1.06658 10461087
-0.197789 0.042466 0.963204 11053224
-0.104888 -0.308232 1.21818 10132122
0.239373 -0.509643 1.18983 11053224
-0.0734228 0.0428623 0.959676 10132122
-0.0310966 -0.0878777 1.07772 9408399
-0.0722552 0.0426114 0.959833 10724259
-0.0170606 -0.0886496 1.07818 9605778
0.140893 -0.476625 1.33952 11053224
-0.0071748 -0.077348 1.06854 10592673
-0.5103 -0.0767885 1.14685 11382189
-0.0153728 -0.0601185 1.05419 11053224
-0.0282949 -0.0369667 1.03494 11776947
0.256308 -0.476705 1.21983 12105912
1.54621 -5.26215 3.9136 9868950
0.0463984 -0.252745 1.216 8947848
0.0692661 -0.967481 1.51934 11053224
-0.0379327 -0.0869632 1.07756 8618883
0.256283 -4.72879 4.17354 11579568
-0.0204417 -0.0490787 1.04544 11250603
0.385913 -4.67452 4.13208 11711154
-0.015562 -0.0354173 1.03387 11842740
0.0214575 -0.0650675 1.0603 11316396
-0.0410187 0.019774 0.987743 10592673
-0.0425269 -0.0785753 1.0731 7105644
0.452115 -0.755707 1.38193 12105912
-0.0448538 -0.0730698 1.06843 7500402
-0.324436 -0.276297 1.25067 8355711
-0.0568699 -0.0326627 1.03407 8224125
-0.0327872 -0.158863 1.13871 8355711
-0.185692 -0.368357 1.34591 10263708
-0.0596636 -0.0247135 1.02583 9145227
-0.0324649 -0.290953 1.25643 8750469
0.0734551 -0.116983 1.10198 11119017
-0.0419775 -0.109655 1.10081 7763574
-0.0297406 -0.00702051 1.01049 11776947
-0.0272633 -0.0620466 1.06071 8618883
-0.0319391 -0.00267321 1.00718 12105912
0.240906 -0.290665 1.22105 9868950
0.0315586 -0.342246 1.29505 8618883
-0.220296 -0.129813 1.12253 9408399
-0.0459637 -0.106777 1.09606 8092539
-0.0241784 -0.0470332 1.04859 9671571
-0.034133 -0.111263 1.09974 8092539
-0.12861 -0.188814 1.17361 10066329
-0.171687 -0.17028 1.15228 9934743
-0.125524 -0.201288 1.18447 9803157
-0.0743504 -0.123103 1.11091 8553090
-0.0197563 -0.067563 1.06688 8816262
-0.0663032 -0.132612 1.1189 8092539
-0.020547 -0.0570155 1.0577 8947848
-0.0668829 -0.123789 1.1114 8289918
-0.028378 -0.0590339 1.06 7631988
-0.0389799 -0.145317 1.12938 7895160
-0.0298361 -0.0564544 1.05776 7829367
-0.263127 -0.284168 1.26877 9211020
-0.244766 -0.238116 1.22726 9342606
-0.14595 -0.13933 1.1326 9342606
-0.243553 -0.300496 1.28332 9474192
-0.208209 -0.243131 1.22527 9539985
-0.175658 -0.284634 1.2686 9539985
-0.239013 -0.106009 1.10579 8882055
-0.160859 -0.262583 1.24868 9868950
-0.0141057 -0.045849 1.05058 9342606
-0.150215 -0.256043 1.24273 9934743
-0.233386 -0.0371056 1.04539 9737364
-0.145975 -0.245752 1.23345 9934743
-0.237632 -0.0561061 1.06237 9408399
-0.0302537 -0.22077 1.25995 8355711
-0.237716 -0.0569463 1.06312 9276813
-0.453827 -0.0559977 1.32553 9013641
-0.238368 -0.0624739 1.06804 9211020
-0.11947 -0.266226 1.25167 9605778
0.185706 -0.269863 1.23606 8618883
-0.0458095 -0.451923 1.31322 10461087
-0.117886 -0.266223 1.25166 9671571
-0.0145527 -0.584779 1.40844 10461087
-0.111505 -0.266472 1.25184 9671571
0.000232652 -0.0470501 1.05245 10000536
-0.108291 -0.266693 1.25201 9671571
-0.00901927 -0.024284 1.03223 10921638
-0.26777 -0.112967 1.07534 10526880
-0.0126069 -0.0411644 1.04774 9013641
-0.0622748 -0.493299 1.34641 10855845
-0.00797969 -0.0449453 1.0511 9145227
-0.0675484 -0.177418 1.17148 7303023
0.00154929 -0.0407675 1.04729 10395294
0.00510357 -0.296054 1.27764 6447714
0.0625587 -0.759946 1.53676 10395294
0.0337674 -0.331327 1.30914 6645093
-0.230174 -0.0224751 1.03299 9671571
-0.266401 -0.155127 1.15346 9013641
-0.231029 -0.0269845 1.03705 9408399
-0.265692 -0.212121 1.20483 9474192
-0.224059 -0.25982 1.24569 9013641
-0.261214 -0.221492 1.21325 9211020
-0.196938 -0.24743 1.2344 9605778
-0.256412 -0.222533 1.21416 9868950
-0.198958 -0.279228 1.26292 9671571
-0.253383 -0.220904 1.21268 9671571
-0.185682 -0.259546 1.24516 9605778
-0.25124 -0.220141 1.21199 9803157
-0.175923 -0.274732 1.25871 9408399
-0.242493 -0.245329 1.23462 9737364
-0.152421 -0.265823 1.25056 9408399
-0.250713 -0.296373 1.2807 9539985
-0.0987154 -0.179403 1.17271 8421504
-0.0831685 -0.126776 1.11344 9276813
-0.0951223 -0.166961 1.16154 8092539
-0.0209832 -0.0535947 1.0383 12632256
-0.221475 0.00349021 1.00993 10263708
-0.226649 -0.0118295 1.02373 9671571
-0.226812 -0.0125504 1.02439 9605778
-0.260789 -0.179426 1.17463 9276813
-0.156227 -0.27283 1.25986 10658466
-0.464851 0.0715891 1.2555 9803157
-0.026341 -0.00264931 1.00577 10855845
0.0278907 -0.106739 1.08207 11974326
-0.0345246 0.00778259 0.996873 10855845
-0.0535497 0.0100988 0.989575 8750469
-0.0419218 -0.0169269 1.01173 11447982
-0.0817627 -0.269793 1.25663 9605778
-0.0502596 -0.204317 1.19643 7500402
0.299909 -0.172436 1.19106 12237498
-0.0095719 -0.200022 1.19224 6974058
-0.0634464 -0.113239 1.09281 9079434
0.0314838 -0.230855 1.21982 6579300
0.0154162 -0.229967 1.22 6645093
0.0182314 -0.200904 1.19287 6447714
-0.163372 -0.159702 1.13526 10526880
-0.0079625 -0.0218557 1.03164 10197915
0.102361 -0.235262 1.22425 7500402
-0.0493329 0.0204849 0.993744 10461087
-0.267987 -0.154802 1.15451 9539985
-0.216601 0.0140637 1.00088 9803157
-0.252744 -0.138401 1.13954 10197915
-0.252824 -0.102549 1.10654 9276813
-0.0786769 -0.127082 1.11547 8092539
-0.264444 -0.19748 1.19241 10066329
-0.0437235 -0.0780689 1.07229 7631988
-0.258118 -0.211286 1.20483 10197915
0.105541 -0.225742 1.2166 7895160
-0.252602 -0.215766 1.20885 10066329
0.110707 -0.226062 1.21684 7829367
-0.247957 -0.231657 1.2232 10263708
-0.237976 -0.215363 1.20843 10197915
0.0812166 -0.166818 1.16331 8421504
-0.246966 -0.279572 1.26656 10263708
-0.210968 0.0273126 0.989296 9605778
-0.237524 -0.301958 1.28672 10132122
-0.0385372 -0.104144 1.0966 7829367
-0.0553647 0.0289961 0.986887 10526880
-0.19994 -0.179911 1.17612 10592673
-0.249772 -0.0811065 1.08857 9934743
-0.19237 -0.166163 1.16363 10790052
-0.207576 0.0353665 0.982344 9868950
-0.196963 -0.246833 1.23659 10395294
-0.248049 -0.0707878 1.07961 10132122
-0.200541 -0.433899 1.40572 10592673
0.116364 -0.190482 1.18718 9605778
-0.204024 0.0429397 0.975588 10329501
-0.231965 -0.0201471 1.03355 9079434
-0.247505 -0.0628487 1.07278 9934743
0.0906312 -0.147682 1.14893 9737364
0.0876762 -0.14381 1.1454 9934743
0.0459037 -0.0906966 1.0969 9474192
0.0176529 -0.0542386 1.0641 9474192
-0.00953396 -0.0194616 1.03225 10329501
-0.0679471 0.0439429 0.974228 10526880
-0.23591 -0.0279304 1.04141 9605778
0.0637125 -0.104404 1.11066 9671571
-0.0743892 0.0510816 0.968081 10592673
-0.227625 -0.11583 1.11253 9934743
-0.0330455 -0.312398 1.22078 9605778
-0.196673 0.0575531 0.962987 10263708
-0.0230146 0.000151008 1.01601 11250603
-0.16612 -0.259444 1.2478 10790052
0.0490043 -0.311824 1.21732 9803157
-0.0220424 -0.000827372 1.01726 11711154
-0.165358 -0.259263 1.24764 10855845
0.0148379 -0.105449 1.08993 11513775
-0.032204 -0.0334073 1.03167 11776947
-0.0895055 0.0661235 0.955002 10263708
-0.164666 -0.101078 1.09265 9474192
0.00986616 -0.0960602 1.08424 10395294
-0.278456 -0.211004 1.19818 8224125
-0.209282 0.033949 0.985654 9145227
-0.110875 -0.242098 1.22413 8750469
-0.221499 -0.116647 1.00353 10855845
0.183898 -0.15032 1.26112 10000536
0.0394913 -0.265019 1.24545 8224125
