VERSION .7
FIELDS x y z rgb
SIZE 4 4 4 4
TYPE F F F F
COUNT 1 1 1 1
WIDTH 1285
HEIGHT 1
VIEWPOINT 0 0 0 1 0 0 0
POINTS 1285
DATA ascii
-0.372566 -0.045683 1.28872 9671571
-0.372566 -0.0456828 1.28804 9342606
-0.319221 -0.0457702 1.29237 6710886
-0.319222 -0.0457701 1.29152 7566195
-0.319222 -0.0457702 1.29262 7631988
-0.319221 -0.0457702 1.29264 9145227
-0.319222 -0.0457701 1.29229 9079434
-0.319221 -0.0457705 1.29349 9211020
-0.319222 -0.0457704 1.2935 9539985
-0.319222 -0.0457699 1.29156 9276813
-0.299448 -0.0458074 1.29088 6645093
-0.299448 -0.045808 1.29357 7566195
-0.299448 -0.0458081 1.29414 7566195
-0.299448 -0.0458075 1.29137 9145227
-0.299448 -0.0458082 1.29456 9276813
-0.299448 -0.0458081 1.29424 9276813
-0.299448 -0.0458078 1.29257 9605778
-0.299448 -0.0458074 1.29132 9211020
-0.275645 -0.0458482 1.29502 6776679
-0.275645 -0.0458483 1.29486 7566195
-0.275645 -0.045848 1.29372 7566195
-0.275645 -0.0458485 1.29539 9342606
-0.275645 -0.0458483 1.29524 9342606
-0.275645 -0.0458483 1.29536 9342606
-0.275645 -0.0458477 1.29191 9605778
-0.275645 -0.0458482 1.29478 9211020
-0.0944284 -0.0464818 1.3101 6842472
-0.0944284 -0.0464824 1.31242 8158332
-0.0944284 -0.0464822 1.31108 8158332
-0.0944283 -0.0464821 1.31146 9342606
-0.0944283 -0.0464818 1.30999 9342606
-0.0944282 -0.0464824 1.31274 9342606
-0.0944284 -0.0464823 1.31243 10000536
-0.0944283 -0.0464824 1.31286 9934743
-0.0843192 -0.0465136 1.31156 6908265
-0.0843192 -0.0465139 1.31238 8224125
-0.0843192 -0.0465139 1.31281 8224125
-0.0843191 -0.0465143 1.31434 9474192
-0.0843192 -0.0465138 1.31231 9474192
-0.0843191 -0.046514 1.31275 9474192
-0.0843192 -0.0465138 1.31232 10066329
-0.0843191 -0.0465139 1.31258 10000536
-0.0802054 -0.0464879 1.31096 6908265
-0.0802055 -0.046488 1.3111 8224125
-0.0802054 -0.0464883 1.31262 8158332
-0.0802055 -0.046488 1.31089 9474192
-0.0802055 -0.0464878 1.31071 9474192
-0.0802055 -0.046488 1.31053 9671571
-0.0802055 -0.046488 1.3116 10066329
-0.0802055 -0.0464878 1.30995 10000536
0.0503168 -0.0468331 1.32343 7368816
0.0503167 -0.0468331 1.32335 8487297
0.0503168 -0.0468332 1.32339 8421504
0.0503168 -0.0468331 1.32289 9737364
0.0503167 -0.0468331 1.32293 9671571
0.0503167 -0.0468332 1.32354 9671571
0.0503167 -0.0468328 1.32188 10132122
0.0503168 -0.0468332 1.32338 10000536
0.295233 -0.0457308 1.29128 9539985
0.295233 -0.0457309 1.29233 11250603
0.295233 -0.0457305 1.29018 9868950
0.295233 -0.0457307 1.29162 11908533
0.295233 -0.0457307 1.29137 10197915
0.295233 -0.0457301 1.28892 10132122
0.295233 -0.0457305 1.29077 10921638
0.295233 -0.0457308 1.29237 10000536
-0.48719 -0.0355455 1.0461 9145227
-0.48719 -0.0355452 1.0447 8092539
-0.48719 -0.0355457 1.04722 11382189
-0.48719 -0.0355458 1.04751 7829367
-0.48719 -0.0355456 1.04646 9868950
-0.48719 -0.0355453 1.04539 12040119
-0.48719 -0.0355454 1.04589 8684676
-0.48719 -0.0355458 1.04737 10855845
-0.225658 -0.042917 1.31853 9539985
-0.225657 -0.0429165 1.3166 9408399
-0.225658 -0.0429165 1.31674 9408399
-0.225657 -0.042917 1.31943 9408399
-0.225657 -0.0429165 1.31731 9408399
-0.225657 -0.0429169 1.31852 9408399
-0.225657 -0.042917 1.31955 9934743
-0.225658 -0.0429165 1.3171 9737364
-0.0111765 -0.0431504 1.32546 9803157
-0.0111766 -0.0431506 1.32654 9737364
-0.0111765 -0.0431498 1.32356 9605778
-0.0111764 -0.0431502 1.32474 10132122
-0.0111763 -0.0431507 1.32643 10263708
-0.0111765 -0.0431505 1.32589 10197915
-0.0111764 -0.0431502 1.32447 10132122
-0.0111763 -0.0431503 1.32502 10000536
-0.495642 -0.0340092 1.0935 11184810
-0.495642 -0.0340092 1.0939 9539985
-0.495642 -0.0340089 1.09218 11579568
-0.495642 -0.0340089 1.09241 8618883
-0.495642 -0.0340092 1.09412 11579568
-0.495642 -0.0340092 1.09397 11579568
-0.495642 -0.0340089 1.09217 10395294
-0.495642 -0.034009 1.09248 11579568
-0.423236 -0.0421857 1.35654 9539985
-0.423236 -0.0421851 1.35337 9539985
-0.423236 -0.0421851 1.35413 9408399
-0.423236 -0.0421853 1.35499 9605778
-0.423236 -0.0421854 1.35462 9605778
-0.423236 -0.0421858 1.35602 9408399
-0.423236 -0.0421852 1.35461 9934743
-0.423236 -0.0421859 1.35718 9868950
-0.166968 -0.0406581 1.3077 9408399
-0.166967 -0.0406578 1.30647 9934743
-0.166967 -0.0406579 1.30757 9934743
-0.166968 -0.0406574 1.30492 9671571
-0.166968 -0.0406574 1.30489 9671571
-0.166968 -0.040658 1.307 9737364
-0.166968 -0.0406578 1.30597 9539985
-0.166967 -0.0406579 1.30705 9934743
0.0567222 -0.0413155 1.32734 10000536
0.0567223 -0.0413156 1.32743 9934743
0.0567222 -0.041316 1.32971 9868950
0.0567222 -0.0413152 1.32639 10132122
0.0567223 -0.0413151 1.32594 10066329
0.0567222 -0.0413153 1.3268 10066329
0.0567221 -0.0413156 1.32815 10066329
0.0567222 -0.0413157 1.32824 9934743
-0.516557 -0.0351352 1.18568 9803157
-0.516557 -0.035135 1.18501 9145227
-0.516557 -0.035135 1.18535 11908533
-0.516557 -0.035135 1.18472 10526880
-0.516557 -0.0351348 1.18389 10461087
-0.516557 -0.0351344 1.18228 12105912
-0.516557 -0.0351352 1.18565 8882055
-0.516557 -0.0351346 1.18309 11053224
0.121507 -0.0397256 1.33667 9868950
0.121507 -0.0397256 1.33708 9605778
0.121507 -0.0397261 1.33918 9671571
0.121507 -0.0397258 1.338 9868950
0.121507 -0.0397263 1.33981 10000536
0.121507 -0.0397264 1.34051 10132122
0.121507 -0.0397258 1.33772 10066329
0.121507 -0.039726 1.33896 9868950
0.312782 -0.0366012 1.2335 12237498
0.312782 -0.0366008 1.23197 10526880
0.312782 -0.0366013 1.23443 12171705
0.312782 -0.0366012 1.23388 11316396
0.312782 -0.0366014 1.23435 11776947
0.312782 -0.0366008 1.23201 12434877
0.312782 -0.036601 1.23248 9737364
0.312782 -0.0366008 1.23212 11184810
0.308437 -0.0347669 1.2316 10921638
0.308437 -0.0347666 1.23038 12763842
0.308437 -0.0347666 1.23076 10000536
0.308437 -0.034767 1.2319 11250603
0.308437 -0.0347668 1.23148 11382189
0.308437 -0.0347672 1.2331 11579568
0.308437 -0.0347667 1.23051 12566463
0.308437 -0.0347668 1.23132 11316396
0.337387 -0.0324709 1.21279 8750469
0.337387 -0.0324705 1.21059 10329501
0.337387 -0.0324705 1.21074 8289918
0.337387 -0.0324705 1.21081 10526880
0.337387 -0.0324704 1.21072 9079434
0.337387 -0.0324704 1.21056 8618883
0.337387 -0.0324707 1.21177 10987431
0.337387 -0.0324705 1.21093 9671571
-0.480258 -0.0259589 1.02356 7960953
-0.480258 -0.0259588 1.02301 7763574
-0.480258 -0.0259592 1.02458 10329501
-0.480258 -0.0259589 1.02297 7697781
-0.480258 -0.0259588 1.02296 8750469
-0.480258 -0.0259594 1.02558 11974326
-0.480258 -0.0259591 1.02491 7960953
-0.480258 -0.0259591 1.02446 9737364
0.276128 -0.034338 1.35591 10329501
0.276128 -0.0343375 1.35352 10000536
0.276128 -0.0343373 1.35234 10197915
0.276128 -0.0343378 1.35462 9079434
0.276128 -0.0343376 1.35386 9211020
0.276128 -0.0343377 1.35321 9803157
0.276128 -0.0343379 1.35509 8421504
0.276128 -0.0343382 1.35605 8553090
0.309369 -0.0313163 1.23533 11382189
0.309369 -0.0313159 1.23359 12566463
0.309369 -0.0313164 1.23561 9539985
0.309369 -0.0313158 1.23336 10724259
0.309369 -0.0313167 1.23709 11316396
0.309369 -0.0313165 1.23651 10855845
0.309369 -0.0313161 1.23507 12105912
0.309369 -0.0313165 1.23591 12237498
-0.510346 -0.0285883 1.19684 11250603
-0.510346 -0.028588 1.1956 12369084
-0.510346 -0.0285882 1.19649 9079434
-0.510346 -0.0285876 1.19365 12369084
-0.510346 -0.028588 1.19596 10066329
-0.510346 -0.0285878 1.19433 9342606
-0.510346 -0.0285877 1.19438 12237498
-0.510346 -0.0285883 1.1969 9539985
-0.114464 0.0636588 0.932162 9539985
-0.114444 0.0635906 0.932254 10987431
-0.114482 0.0637 0.932105 8750469
-0.114461 0.0636532 0.932176 11776947
-0.114446 0.0636089 0.932236 9737364
-0.11445 0.0636128 0.932229 9079434
-0.114435 0.0635815 0.932273 11053224
-0.114449 0.0636116 0.932228 9737364
-0.145523 0.0903381 0.908435 10724259
-0.145524 0.0903394 0.908431 11184810
-0.145518 0.0903244 0.908457 10329501
-0.145513 0.0903108 0.908473 11645361
-0.145517 0.0903229 0.908458 10724259
-0.145523 0.0903368 0.908438 9868950
-0.145514 0.0903119 0.908473 11119017
-0.145506 0.0902922 0.908499 10526880
-0.132557 0.082449 0.914409 10263708
-0.132557 0.0824516 0.914405 10132122
-0.132534 0.0823907 0.914478 10790052
-0.132556 0.0824504 0.914406 9671571
-0.132535 0.0823839 0.914487 10197915
-0.132551 0.0824356 0.914425 10987431
-0.132538 0.0823944 0.914472 9934743
-0.132537 0.0823889 0.91448 10461087
-0.488146 -0.0208789 1.06736 8816262
-0.488146 -0.0208787 1.06645 9342606
-0.488146 -0.020879 1.06748 10658466
-0.488146 -0.0208786 1.06635 10395294
-0.488146 -0.0208789 1.0673 9803157
-0.488146 -0.0208784 1.06507 11645361
-0.488146 -0.0208788 1.06619 9145227
-0.488146 -0.0208784 1.06511 10921638
-0.491453 -0.0218378 1.11323 10132122
-0.491453 -0.0218382 1.11499 11053224
-0.491453 -0.0218382 1.1152 8882055
-0.491453 -0.0218384 1.11578 11645361
-0.491453 -0.021838 1.11395 9474192
-0.491453 -0.0218381 1.11501 11513775
-0.491453 -0.021838 1.11474 10461087
-0.491453 -0.021838 1.11427 9079434
-0.478729 -0.016945 1.01495 7829367
-0.478729 -0.0169452 1.01565 7697781
-0.478729 -0.0169452 1.01589 9145227
-0.478729 -0.0169446 1.01299 7763574
-0.478729 -0.0169446 1.0129 8158332
-0.478729 -0.0169449 1.01452 11382189
-0.478729 -0.0169453 1.01581 7763574
-0.478729 -0.0169447 1.01352 8882055
0.248455 -0.023 1.37595 10329501
0.248455 -0.0230002 1.37661 10395294
0.248455 -0.0229998 1.37464 9868950
0.248455 -0.023 1.37591 10461087
0.248455 -0.0229995 1.37388 9539985
0.248454 -0.0229996 1.374 8289918
0.248455 -0.0229999 1.37559 9342606
0.248455 -0.0229996 1.37371 8158332
-0.126402 0.0630446 0.944299 9671571
-0.126412 0.0630967 0.944251 9539985
-0.126407 0.0630614 0.944285 9276813
-0.126403 0.0630549 0.94429 8947848
-0.126405 0.0630552 0.944295 9079434
-0.126423 0.0631273 0.944226 8947848
-0.126433 0.0631723 0.944179 8487297
-0.126441 0.0631928 0.944151 7895160
-0.0699004 0.0146423 0.996512 10395294
-0.0698383 0.0143858 0.996769 10658466
-0.0698468 0.0143839 0.996777 9737364
-0.0698741 0.0145364 0.99662 10855845
-0.0698701 0.0145125 0.996649 10000536
-0.0698823 0.0145332 0.996628 9408399
-0.0698492 0.0143906 0.99675 10461087
-0.0698981 0.0146112 0.996539 9934743
-0.067478 0.012205 0.998559 10461087
-0.0674542 0.0120478 0.998727 10526880
-0.0674837 0.01224 0.998528 9934743
-0.0674724 0.0122 0.998576 10921638
-0.0674737 0.0121995 0.998568 9934743
-0.067495 0.0122565 0.998518 9342606
-0.0674593 0.0121287 0.99866 10132122
-0.0674963 0.012295 0.998467 9605778
-0.0870789 0.0291925 0.968077 11447982
-0.0870092 0.0289571 0.968328 11513775
-0.0870317 0.0290112 0.968263 11053224
-0.0870662 0.0291382 0.96814 11513775
-0.087069 0.029149 0.968133 11184810
-0.0870582 0.02911 0.968167 10658466
-0.0870442 0.0290916 0.968186 11184810
-0.0870685 0.0291591 0.968108 10987431
-0.131076 0.0824992 0.917053 10329501
-0.1311 0.0825598 0.916981 9803157
-0.131106 0.0825798 0.916954 10790052
-0.131081 0.0825094 0.917042 9408399
-0.13109 0.0825209 0.917027 10197915
-0.131101 0.0825661 0.91697 10987431
-0.131082 0.0825081 0.917042 9539985
-0.131085 0.0825164 0.917034 9737364
-0.0888695 0.0415267 0.95324 10592673
-0.0888258 0.0413893 0.953425 9868950
-0.0888602 0.0415041 0.953283 11184810
-0.0888394 0.0414396 0.953368 9145227
-0.0888614 0.0415057 0.953265 10592673
-0.0888052 0.0413393 0.95349 11776947
-0.0888335 0.0414043 0.953406 9803157
-0.0888431 0.0414513 0.953353 10461087
-0.475127 -0.00812204 1.00758 9803157
-0.475127 -0.00812216 1.0079 8289918
-0.475127 -0.00812207 1.00765 11513775
-0.475127 -0.00812172 1.00551 8026746
-0.475127 -0.00812165 1.00532 10526880
-0.475127 -0.00812185 1.00631 11513775
-0.475127 -0.00812179 1.00564 8750469
-0.475127 -0.00812165 1.00543 11184810
-0.494344 -0.00899343 1.11273 10263708
-0.494344 -0.00899388 1.11465 11250603
-0.494344 -0.00899336 1.11275 8882055
-0.494344 -0.00899366 1.11351 11711154
-0.494344 -0.00899337 1.11247 9474192
-0.494344 -0.00899379 1.11428 11316396
-0.494344 -0.00899373 1.11407 10658466
-0.494344 -0.00899345 1.11243 8947848
-0.504005 -0.00923658 1.1415 10263708
-0.504005 -0.00923715 1.14397 8882055
-0.504005 -0.00923669 1.14171 12369084
-0.504005 -0.00923713 1.14407 9474192
-0.504005 -0.00923728 1.14466 11316396
-0.504005 -0.00923651 1.14128 12237498
-0.504005 -0.00923692 1.14334 9671571
-0.504005 -0.00923731 1.14479 11974326
-0.496018 -0.0076053 1.14589 12566463
-0.496018 -0.00760529 1.146 12500670
-0.496018 -0.00760508 1.14504 11513775
-0.496018 -0.00760544 1.14637 12632256
-0.496018 -0.00760538 1.14594 12434877
-0.496018 -0.00760485 1.14383 9737364
-0.496018 -0.00760496 1.1444 12763842
-0.496018 -0.00760516 1.14513 12171705
-0.123507 0.0779258 0.92397 11250603
-0.123509 0.0779193 0.923984 10263708
-0.123485 0.0778643 0.924053 11513775
-0.123509 0.0779215 0.923977 9276813
-0.123495 0.0778798 0.924032 10790052
-0.123482 0.077849 0.924074 11711154
-0.123504 0.0779136 0.923988 9868950
-0.123477 0.0778475 0.924079 10526880
0.0632019 -0.0831671 1.07113 10263708
0.0631702 -0.0830748 1.071 11184810
0.0631407 -0.0829954 1.07091 9474192
0.0632535 -0.0833138 1.07132 11579568
0.0631407 -0.0829688 1.07083 10395294
0.0630947 -0.0828536 1.0707 8947848
0.0631072 -0.0828945 1.07076 11250603
0.0631379 -0.0829797 1.0709 10592673
0.287608 -0.00668067 1.28485 10987431
0.287608 -0.00668021 1.28262 11776947
0.287608 -0.00667994 1.282 10197915
0.287608 -0.00668063 1.28468 11645361
0.287608 -0.00668021 1.28264 10790052
0.287608 -0.00668067 1.28433 10132122
0.287608 -0.0066806 1.28465 11447982
0.287608 -0.00667994 1.28158 10526880
-0.0940914 0.0475406 0.950218 10066329
-0.0941139 0.0475767 0.950176 9145227
-0.0940634 0.0474695 0.950324 10526880
-0.0941109 0.0475884 0.950159 8684676
-0.0941032 0.0475472 0.950214 10132122
-0.0941176 0.0475864 0.950152 11316396
-0.0940855 0.0474916 0.950289 9145227
-0.0940971 0.047541 0.950219 10000536
-0.472441 -0.00234392 1.01386 10790052
-0.472441 -0.00234394 1.01404 10790052
-0.472441 -0.00234398 1.01458 9737364
-0.472441 -0.00234436 1.01534 10855845
-0.472441 -0.00234379 1.01333 10461087
-0.472441 -0.00234424 1.01507 9737364
-0.472441 -0.00234414 1.01473 10855845
-0.472441 -0.00234419 1.01542 9737364
-0.502047 -0.00263531 1.1336 10592673
-0.502047 -0.00263593 1.13631 9013641
-0.502047 -0.00263568 1.13551 11974326
-0.502047 -0.00263559 1.1346 9803157
-0.502047 -0.00263519 1.13313 10987431
-0.502047 -0.00263587 1.13612 12237498
-0.502047 -0.00263576 1.13583 9605778
-0.502047 -0.0026359 1.13614 12171705
-0.491882 -0.00264719 1.13863 10855845
-0.491882 -0.0026478 1.14131 12171705
-0.491882 -0.00264764 1.14047 9408399
-0.491882 -0.00264742 1.1397 12829635
-0.491882 -0.00264748 1.14035 10132122
-0.491882 -0.00264749 1.1398 9408399
-0.491882 -0.00264744 1.13983 11447982
-0.491882 -0.00264717 1.13857 9474192
0.315136 -0.00290623 1.25198 12040119
0.315136 -0.00290581 1.25047 9934743
0.315136 -0.00290578 1.25038 12171705
0.315136 -0.00290571 1.2499 10197915
0.315136 -0.00290598 1.25135 11119017
0.315135 -0.00290562 1.24948 11776947
0.315136 -0.00290617 1.25181 9868950
0.315135 -0.00290549 1.24877 10263708
0.0859891 -0.237133 1.08255 10395294
0.0859668 -0.23693 1.08235 10724259
0.0860572 -0.237295 1.08279 9737364
0.0860352 -0.237261 1.08271 10855845
0.0859014 -0.23671 1.08208 10000536
0.0860062 -0.236966 1.08243 9474192
0.0859933 -0.237098 1.08258 10263708
0.0859406 -0.236887 1.08228 9803157
-0.47417 0.00199923 0.994739 7960953
-0.47417 0.0019994 0.994515 7960953
-0.47417 0.00199909 0.995906 9474192
-0.47417 0.00199931 0.994983 8158332
-0.47417 0.00199945 0.994302 8026746
-0.47417 0.00199912 0.995435 11842740
-0.47417 0.00199934 0.994789 7829367
-0.47417 0.00199931 0.995012 9145227
0.248721 0.00266654 1.34266 8158332
0.248721 0.00266686 1.3408 8487297
0.248721 0.00266687 1.34019 8289918
0.248721 0.00266661 1.34149 9671571
0.248721 0.00266634 1.34314 9408399
0.248721 0.0026665 1.34256 9474192
0.248721 0.00266653 1.34238 10066329
0.248721 0.00266639 1.34261 10132122
0.332457 0.00245286 1.22713 10987431
0.332457 0.00245296 1.22688 11974326
0.332457 0.00245217 1.23042 10592673
0.332457 0.00245232 1.22982 11579568
0.332457 0.00245274 1.22773 11250603
0.332457 0.00245239 1.22977 11316396
0.332457 0.00245222 1.22998 11645361
0.332457 0.00245227 1.23009 12040119
-0.477101 0.00639507 1.01 11645361
-0.477101 0.00639478 1.0116 12237498
-0.477101 0.0063949 1.01148 11053224
-0.477101 0.00639502 1.01035 11579568
-0.477101 0.00639514 1.00991 11513775
-0.477101 0.00639502 1.01028 10658466
-0.477101 0.00639481 1.01137 11579568
-0.477101 0.00639482 1.01131 10987431
-0.480291 0.00656392 1.03868 11184810
-0.480291 0.00656403 1.03803 9671571
-0.480291 0.00656426 1.03701 11447982
-0.480291 0.00656372 1.03966 8947848
-0.480291 0.00656431 1.03697 11316396
-0.480291 0.00656394 1.03849 11447982
-0.480291 0.00656403 1.03816 10790052
-0.480291 0.00656382 1.0391 11579568
-0.127483 0.0814757 0.92177 10066329
-0.127492 0.0815003 0.921741 10724259
-0.127503 0.0815393 0.921697 9737364
-0.127491 0.0814983 0.921745 11382189
-0.127503 0.0815379 0.921701 10329501
-0.127486 0.0814807 0.921764 9474192
-0.127499 0.0815302 0.921703 11053224
-0.127498 0.0815232 0.921712 10592673
-0.469748 0.00907491 0.986614 9408399
-0.469748 0.00907543 0.984808 8355711
-0.469748 0.00907549 0.98456 11711154
-0.469748 0.00907558 0.984405 7829367
-0.469748 0.0090755 0.98423 10461087
-0.469748 0.00907554 0.984156 11382189
-0.469748 0.00907497 0.987139 9079434
-0.469748 0.00907531 0.984852 11250603
-0.496634 0.0102823 1.11927 11974326
-0.496635 0.0102823 1.11905 10132122
-0.496635 0.0102825 1.11867 12698049
-0.496635 0.0102822 1.11988 8816262
-0.496635 0.0102823 1.12007 12434877
-0.496635 0.0102827 1.11742 12698049
-0.496635 0.0102826 1.11857 11184810
-0.496635 0.0102823 1.11891 12500670
0.347861 0.0146788 1.21648 8684676
0.347861 0.0146788 1.21653 10461087
0.347861 0.0146789 1.21624 8355711
0.347861 0.0146788 1.217 9211020
0.347861 0.0146791 1.21506 8947848
0.347861 0.0146793 1.21437 8487297
0.347861 0.0146788 1.21623 10724259
0.347861 0.0146792 1.21439 9803157
-0.479908 0.0148645 1.10058 11776947
-0.479908 0.0148644 1.10093 12829635
-0.479908 0.0148646 1.1007 9605778
-0.479908 0.0148644 1.10129 12500670
-0.479908 0.0148646 1.10015 10987431
-0.479908 0.0148643 1.10155 9408399
-0.479908 0.0148648 1.09899 12500670
-0.479908 0.0148648 1.09954 10395294
-0.382043 0.0146699 0.979194 10724259
-0.382043 0.0146697 0.979706 10066329
-0.382043 0.0146697 0.980042 11513775
-0.382043 0.0146698 0.979322 10000536
-0.382043 0.0146697 0.97976 10790052
-0.382043 0.0146697 0.980024 11447982
-0.382043 0.0146696 0.980068 10066329
-0.382043 0.0146698 0.978951 10197915
0.320199 0.0185395 1.23872 10855845
0.320199 0.0185393 1.23834 11974326
0.320199 0.0185394 1.23828 9671571
0.320199 0.0185393 1.23859 11184810
0.320199 0.0185391 1.23912 11513775
0.320199 0.018539 1.24033 10526880
0.320199 0.0185389 1.24102 11842740
0.320199 0.0185386 1.24168 10855845
-0.466438 0.0160042 0.974704 10132122
-0.466438 0.0160041 0.975009 8684676
-0.466438 0.0160039 0.976139 11579568
-0.466438 0.016004 0.975574 7829367
-0.466438 0.0160041 0.975327 10921638
-0.466438 0.0160041 0.974927 11250603
-0.466438 0.0160039 0.975907 9211020
-0.466439 0.0160042 0.974343 11579568
-0.494815 0.0182023 1.10905 11776947
-0.494815 0.0182021 1.10993 10395294
-0.494815 0.0182016 1.11219 12500670
-0.494815 0.0182018 1.11093 9013641
-0.494815 0.0182021 1.10979 12369084
-0.494815 0.0182022 1.10946 12566463
-0.494815 0.0182017 1.1122 11645361
-0.494815 0.018202 1.11043 12369084
0.325697 0.0220908 1.23933 11974326
0.325697 0.0220909 1.23897 10066329
0.325697 0.0220907 1.23993 11776947
0.325697 0.0220905 1.24077 10197915
0.325697 0.0220906 1.24074 11908533
0.325697 0.0220912 1.23792 11974326
0.325697 0.0220912 1.23734 9737364
0.325697 0.0220912 1.23741 11184810
-0.471875 0.0208544 1.00562 8618883
-0.471875 0.0208545 1.0051 9276813
-0.471875 0.0208544 1.00541 10790052
-0.471875 0.0208542 1.00636 10395294
-0.471875 0.0208541 1.00682 9539985
-0.471875 0.0208539 1.00769 11447982
-0.471875 0.0208542 1.00607 9276813
-0.471875 0.0208539 1.00755 10000536
-0.472079 0.0216464 1.04402 10921638
-0.472079 0.0216466 1.04355 11250603
-0.472079 0.0216463 1.04448 9145227
-0.472079 0.0216461 1.04544 11513775
-0.472079 0.0216464 1.04454 10263708
-0.472079 0.0216459 1.04653 10395294
-0.472079 0.0216461 1.04581 10987431
-0.472079 0.0216463 1.04481 9013641
0.350329 0.0252211 1.21728 8684676
0.350329 0.0252209 1.21892 10461087
0.350329 0.0252213 1.21637 8224125
0.350329 0.0252209 1.2184 8355711
0.350329 0.0252206 1.21968 9145227
0.350329 0.0252213 1.21636 8421504
0.350329 0.0252213 1.21646 10921638
0.350329 0.0252209 1.21802 9868950
-0.47122 0.022272 1.00525 9276813
-0.47122 0.0222717 1.00612 9211020
-0.47122 0.022272 1.00497 10987431
-0.47122 0.022272 1.00503 10329501
-0.47122 0.0222723 1.00361 9671571
-0.47122 0.0222721 1.0051 11579568
-0.47122 0.022272 1.00521 9211020
-0.47122 0.0222722 1.00432 10526880
-0.478622 0.0234695 1.05964 10658466
-0.478622 0.0234694 1.06008 11119017
-0.478622 0.0234693 1.06014 8882055
-0.478622 0.0234697 1.05837 11513775
-0.478622 0.0234694 1.05972 9605778
-0.478622 0.0234698 1.05808 10921638
-0.478622 0.0234699 1.05787 10790052
-0.478622 0.0234693 1.06046 8421504
0.278753 0.0289427 1.30592 11119017
0.278753 0.0289424 1.30683 10000536
0.278753 0.0289424 1.30718 11776947
0.278753 0.0289424 1.30748 10132122
0.278753 0.0289425 1.30683 10790052
0.278753 0.0289425 1.30628 11908533
0.278753 0.0289428 1.30533 10197915
0.278753 0.0289422 1.3082 11184810
0.281384 0.0302383 1.28044 11842740
0.281384 0.0302383 1.2808 12171705
0.281384 0.0302381 1.28178 10855845
0.281384 0.0302384 1.28035 11974326
0.281384 0.0302383 1.28117 11711154
0.281384 0.030238 1.28226 10395294
0.281384 0.0302379 1.28247 12105912
0.281384 0.0302378 1.2834 11579568
-0.476552 0.0271472 1.08404 12171705
-0.476552 0.0271474 1.08298 12500670
-0.476552 0.0271473 1.08382 10066329
-0.476552 0.0271472 1.08414 12434877
-0.476552 0.0271471 1.0847 11513775
-0.476552 0.0271468 1.08566 9342606
-0.476552 0.027147 1.08501 12369084
-0.476552 0.0271474 1.08326 10263708
-0.472137 0.0265759 1.00378 9211020
-0.472137 0.0265762 1.00325 9145227
-0.472137 0.0265762 1.00307 10526880
-0.472136 0.0265764 1.00254 10395294
-0.472137 0.0265762 1.00356 9605778
-0.472137 0.0265761 1.00318 11645361
-0.472137 0.0265759 1.0051 8487297
-0.472137 0.0265761 1.00411 10263708
-0.0726429 0.0171887 0.994072 11119017
-0.0726773 0.0172679 0.993959 11382189
-0.0726867 0.0173501 0.993874 10329501
-0.0726897 0.0173631 0.993848 11513775
-0.0726556 0.0171883 0.994057 10724259
-0.0726882 0.0173437 0.99389 9868950
-0.0726215 0.0171492 0.994124 10987431
-0.0726307 0.0171923 0.99408 10263708
-0.188097 0.0374199 1.34106 10000536
-0.188097 0.03742 1.34063 10132122
-0.188097 0.0374196 1.34275 9539985
-0.188097 0.0374196 1.342 10987431
-0.188097 0.0374195 1.34271 9539985
-0.188097 0.0374199 1.34089 8882055
-0.188097 0.0374199 1.3411 10329501
-0.188097 0.0374201 1.33995 9145227
-0.470224 0.0293468 0.999127 9605778
-0.470224 0.0293465 1.00006 8487297
-0.470224 0.0293466 0.999501 11250603
-0.470224 0.0293464 1.00078 9276813
-0.470224 0.0293466 0.999494 10263708
-0.470224 0.0293468 0.998345 11447982
-0.470224 0.0293464 1.0011 9276813
-0.470224 0.0293464 1.00112 10987431
-0.476621 0.0310706 1.05839 9803157
-0.476621 0.0310707 1.05783 8421504
-0.476621 0.0310708 1.05729 11974326
-0.476621 0.0310703 1.05988 9408399
-0.476621 0.0310704 1.05892 11053224
-0.476621 0.0310708 1.05713 11908533
-0.476621 0.0310705 1.05867 9079434
-0.476621 0.0310706 1.05804 11908533
-0.478305 0.0342381 1.06231 11053224
-0.478306 0.034238 1.06305 9079434
-0.478306 0.0342381 1.06223 12171705
-0.478306 0.0342384 1.06134 8618883
-0.478305 0.0342377 1.0638 11908533
-0.478306 0.0342381 1.06183 12105912
-0.478305 0.0342378 1.0638 10592673
-0.478305 0.0342382 1.06168 12237498
-0.057971 -0.00248922 0.969662 10000536
-0.0579733 -0.00252954 0.969695 9605778
-0.0579498 -0.00256869 0.969764 10526880
-0.0579986 -0.00241107 0.969583 9408399
-0.0580338 -0.0023123 0.969472 10066329
-0.0580287 -0.00238455 0.969549 11184810
-0.0580107 -0.00244628 0.96961 9671571
-0.0579981 -0.00241242 0.969585 10132122
0.344167 0.0411631 1.22428 11711154
0.344167 0.0411631 1.22432 11053224
0.344167 0.0411634 1.22177 11579568
0.344167 0.0411636 1.22221 10461087
0.344167 0.0411629 1.22463 11513775
0.344167 0.0411636 1.22167 11382189
0.344167 0.0411635 1.22212 10790052
0.344167 0.0411634 1.2225 11513775
-0.461364 0.0334541 0.952429 9211020
-0.461364 0.0334541 0.952296 8092539
-0.461364 0.0334543 0.95196 11513775
-0.461364 0.0334544 0.951238 8092539
-0.461364 0.0334542 0.952447 9934743
-0.461364 0.0334538 0.953498 11711154
-0.461364 0.0334542 0.952215 8816262
-0.461364 0.0334538 0.953894 10987431
-0.0803887 0.0246426 0.954331 10329501
-0.0803626 0.0245799 0.954423 11119017
-0.0804106 0.0247273 0.954223 9737364
-0.0803836 0.0246542 0.954312 11645361
-0.0804127 0.0247183 0.954238 10329501
-0.0804213 0.0247396 0.954208 9408399
-0.0803653 0.0245917 0.954398 11119017
-0.0803642 0.0245866 0.9544 10395294
-0.464206 0.0370088 0.974913 10263708
-0.464206 0.0370088 0.974497 10658466
-0.464206 0.0370092 0.972935 8947848
-0.464206 0.0370087 0.974973 10921638
-0.464206 0.0370087 0.975241 9803157
-0.464206 0.0370088 0.974256 9605778
-0.464206 0.0370092 0.973024 10724259
-0.464206 0.0370087 0.974884 9276813
-0.467867 0.0376663 0.99129 10592673
-0.467867 0.0376664 0.991044 9145227
-0.467867 0.0376665 0.990214 11382189
-0.467867 0.0376663 0.991214 8750469
-0.467867 0.0376662 0.991638 11184810
-0.467867 0.0376663 0.991176 11447982
-0.467867 0.0376661 0.99248 10263708
-0.467867 0.0376666 0.989979 11316396
-0.472605 0.0404298 1.06551 12632256
-0.472604 0.0404303 1.06323 12566463
-0.472605 0.0404304 1.06304 11447982
-0.472605 0.0404303 1.06374 12434877
-0.472605 0.0404298 1.06594 12369084
-0.472604 0.0404302 1.06432 9539985
-0.472605 0.0404303 1.0636 12500670
-0.472605 0.0404301 1.06442 11974326
-0.459713 0.0374335 0.948692 10790052
-0.459713 0.0374333 0.948926 9145227
-0.459713 0.0374336 0.947685 11776947
-0.459713 0.0374333 0.949277 8224125
-0.459713 0.0374333 0.949205 11184810
-0.459713 0.0374332 0.949986 11316396
-0.459713 0.0374334 0.948676 10197915
-0.459713 0.0374335 0.948618 11645361
-0.0790029 0.0299067 0.961357 10395294
-0.0790066 0.0298932 0.961365 11250603
-0.0790214 0.0299771 0.961272 9934743
-0.07901 0.0299277 0.961332 11711154
-0.0790321 0.0299892 0.961249 10724259
-0.0790119 0.0299317 0.961316 9539985
-0.0790262 0.0299781 0.961277 11447982
-0.0789996 0.0298785 0.96138 10855845
0.355102 0.0513867 1.21565 8816262
0.355102 0.0513872 1.214 10329501
0.355102 0.0513865 1.21672 8421504
0.355102 0.0513871 1.21411 8816262
0.355102 0.0513868 1.21566 9145227
0.355102 0.0513866 1.21621 8421504
0.355102 0.051387 1.21429 10197915
0.355102 0.0513868 1.21511 9342606
-0.456075 0.0410733 0.937245 10197915
-0.456075 0.0410732 0.938505 8816262
-0.456075 0.0410729 0.939756 11645361
-0.456075 0.0410734 0.937205 7960953
-0.456075 0.0410728 0.939942 10921638
-0.456075 0.0410733 0.937649 11119017
-0.456075 0.0410731 0.938732 9276813
-0.456075 0.0410733 0.938046 11579568
0.322892 0.0534136 1.22158 10658466
0.322892 0.0534136 1.2214 11842740
0.322892 0.0534134 1.22255 9934743
0.322892 0.0534139 1.21978 11579568
0.322892 0.0534138 1.22059 11184810
0.322892 0.0534138 1.22006 10987431
0.322892 0.0534137 1.221 11974326
0.322892 0.0534135 1.2223 11776947
-0.0767229 0.0223198 0.958561 10461087
-0.0767254 0.0223498 0.958538 11119017
-0.07675 0.0224471 0.958406 9934743
-0.0767139 0.0223043 0.958581 11776947
-0.0767038 0.0222711 0.958625 10461087
-0.0767445 0.0224088 0.958447 9474192
-0.076737 0.0224068 0.958447 11119017
-0.0767295 0.0223313 0.95854 10526880
-0.0782383 0.0249848 0.958636 10658466
-0.0782568 0.0250392 0.958552 11382189
-0.0782086 0.0248967 0.958726 10066329
-0.0782535 0.0250488 0.958553 11908533
-0.0782661 0.0250705 0.958513 10790052
-0.0782557 0.0250535 0.958551 9605778
-0.0782155 0.0249236 0.958719 11579568
-0.0782604 0.025076 0.95853 11053224
-0.0731094 0.0212858 0.961616 9868950
-0.0731197 0.0212789 0.96162 9539985
-0.0731482 0.0214179 0.961464 10395294
-0.0731172 0.021297 0.961604 9013641
-0.0731043 0.0212415 0.961669 10000536
-0.0731168 0.0212791 0.961616 10855845
-0.0730989 0.0212172 0.961687 9539985
-0.0731436 0.021328 0.961543 10000536
-0.0805386 0.0275881 0.956781 10066329
-0.0804937 0.0274684 0.956934 10790052
-0.0805107 0.0275132 0.956873 9605778
-0.080511 0.0275226 0.956878 11579568
-0.0805468 0.0276481 0.956713 10329501
-0.08055 0.0276424 0.956723 9211020
-0.0805286 0.0275675 0.956816 11053224
-0.0805015 0.0274877 0.956891 10526880
-0.07296 0.0234394 0.967395 10724259
-0.0729721 0.0234596 0.96736 10132122
-0.0729856 0.0234768 0.967337 11119017
-0.0729713 0.0234559 0.967359 9737364
-0.0729567 0.0233797 0.967444 10724259
-0.0729648 0.0234041 0.967429 11842740
-0.0730083 0.0235565 0.967251 10066329
-0.0729899 0.0234871 0.967316 10592673
0.335477 0.0599184 1.2452 11974326
0.335477 0.0599184 1.24527 10658466
0.335477 0.059918 1.24763 11974326
0.335477 0.0599184 1.24582 10592673
0.335477 0.0599182 1.24633 11513775
0.335477 0.0599181 1.24707 11974326
0.335477 0.0599184 1.24654 10066329
0.335477 0.0599185 1.24529 11119017
-0.0573036 0.00356846 0.975859 11053224
-0.0572735 0.00347639 0.975971 10724259
-0.057275 0.00342339 0.976026 11579568
-0.0573192 0.00358615 0.975822 10066329
-0.057299 0.00355334 0.97588 10987431
-0.0572655 0.0034247 0.976017 11908533
-0.0572673 0.00345206 0.976007 10395294
-0.0572775 0.00347296 0.975981 11053224
-0.454522 0.0473643 0.929754 9079434
-0.454522 0.0473645 0.928974 7895160
-0.454522 0.0473645 0.928741 11250603
-0.454522 0.0473642 0.929836 7763574
-0.454522 0.0473644 0.929143 10066329
-0.454522 0.0473642 0.929882 11382189
-0.454522 0.0473644 0.928996 8816262
-0.454522 0.0473646 0.92811 11119017
-0.461504 0.0493387 0.967357 9145227
-0.461504 0.0493382 0.969201 8684676
-0.461504 0.0493384 0.968526 11316396
-0.461504 0.0493388 0.966852 9079434
-0.461504 0.0493385 0.96848 10461087
-0.461504 0.0493384 0.969002 11382189
-0.461504 0.0493385 0.968058 9013641
-0.461504 0.0493384 0.968655 10855845
-0.0641143 0.0115027 0.971701 11250603
-0.0641613 0.0116938 0.971466 10724259
-0.0640991 0.0114859 0.971698 11776947
-0.0641572 0.0116747 0.97148 10132122
-0.0641141 0.0115443 0.971642 11119017
-0.0641562 0.0116514 0.971508 12105912
-0.0641624 0.0116556 0.971513 10526880
-0.0640848 0.0114658 0.971735 10921638
-0.0661476 0.0138635 0.97054 11053224
-0.0661129 0.013826 0.970591 10461087
-0.066187 0.0140721 0.970321 11447982
-0.0661863 0.014039 0.970326 10132122
-0.0661458 0.0138846 0.970509 10921638
-0.0661376 0.0138626 0.970528 11776947
-0.0661373 0.01387 0.970525 10329501
-0.066176 0.0139978 0.97038 10724259
-0.0803539 0.0290994 0.958302 10197915
-0.0803644 0.0291216 0.958277 10790052
-0.0803031 0.0289176 0.958528 9605778
-0.0803267 0.0290119 0.958402 11382189
-0.0803173 0.0289855 0.958454 10197915
-0.0803381 0.0290661 0.95834 9408399
-0.0803268 0.0290109 0.958411 10790052
-0.0803109 0.0289371 0.958495 10197915
-0.0749412 0.0240659 0.964213 11382189
-0.0749498 0.0240536 0.964218 10855845
-0.0748807 0.0238712 0.964436 11711154
-0.0749179 0.0239281 0.964372 10197915
-0.0748962 0.0238752 0.964426 11382189
-0.074927 0.0240174 0.964265 11645361
-0.0749258 0.0240267 0.964254 10658466
-0.0749085 0.0239274 0.964369 11184810
-0.0812319 0.0329555 0.960228 10197915
-0.081251 0.033024 0.960146 10987431
-0.0811968 0.0328638 0.960337 9737364
-0.0811854 0.0328124 0.960398 11645361
-0.0812366 0.0329712 0.960207 10461087
-0.0811878 0.0328107 0.960399 9474192
-0.0811947 0.0328266 0.960376 11250603
-0.0812459 0.0330062 0.960161 10658466
0.268996 0.0682063 1.34143 10592673
0.268996 0.0682071 1.33746 10197915
0.268996 0.0682068 1.33853 10461087
0.268996 0.0682065 1.34039 9605778
0.268996 0.0682065 1.34086 9671571
0.268996 0.0682071 1.33772 9737364
0.268996 0.0682072 1.33765 8553090
0.268996 0.0682064 1.34144 7368816
0.277492 0.0682541 1.33881 10263708
0.277492 0.0682543 1.3384 10526880
0.277492 0.0682538 1.34036 10395294
0.277492 0.0682535 1.34162 9737364
0.277492 0.0682539 1.33959 10329501
0.277492 0.0682542 1.33843 10790052
0.277492 0.0682535 1.341 8289918
0.277492 0.068254 1.33989 7303023
-0.0850242 0.0370708 0.957413 10132122
-0.0850006 0.0369922 0.957509 10855845
-0.085031 0.0370995 0.957381 9803157
-0.0849748 0.0368925 0.957621 11579568
-0.0849854 0.0369314 0.957572 10395294
-0.0850147 0.0370513 0.957438 9539985
-0.0849981 0.0369746 0.957524 11053224
-0.0850199 0.0370724 0.957409 10461087
-0.0806697 0.0309139 0.959378 10132122
-0.0806737 0.0309058 0.9594 10855845
-0.0806806 0.0309578 0.959339 9605778
-0.0806512 0.0308524 0.959455 11382189
-0.0806622 0.0309028 0.959393 10197915
-0.0806894 0.0309711 0.959312 9342606
-0.0806399 0.0308227 0.959483 10855845
-0.0806654 0.0309076 0.959395 10263708
-0.122501 0.0748798 0.923812 10066329
-0.122478 0.0747843 0.923924 10395294
-0.1225 0.0748794 0.923813 9934743
-0.122477 0.0747934 0.923921 10724259
-0.122503 0.0748819 0.923815 10132122
-0.122502 0.0748733 0.923827 9539985
-0.122474 0.0747928 0.923919 10395294
-0.122501 0.0748653 0.923831 10066329
-0.0753677 0.0252607 0.964821 10921638
-0.0753367 0.0252084 0.964888 10263708
-0.0753726 0.0253059 0.964772 11382189
-0.0753443 0.0251831 0.964918 9934743
-0.0753422 0.0251895 0.964899 10987431
-0.075322 0.0251457 0.964967 11645361
-0.0753056 0.0250839 0.965031 10197915
-0.0753243 0.0251688 0.964954 10724259
-0.0827725 0.0674713 1.28746 9276813
-0.0827726 0.0674708 1.29038 9803157
-0.0827726 0.067471 1.28898 9737364
-0.0827726 0.0674715 1.28659 9539985
-0.0827725 0.0674714 1.28737 9474192
-0.0827726 0.0674714 1.28733 8882055
-0.0827726 0.0674714 1.28715 8421504
-0.0827726 0.0674711 1.28856 7039851
-0.0834013 0.035562 0.959202 10987431
-0.0834156 0.0356296 0.959138 11711154
-0.0834288 0.03567 0.959082 10461087
-0.0833868 0.0354869 0.959298 11908533
-0.0834163 0.0356134 0.959147 11119017
-0.0833832 0.0355123 0.959258 9868950
-0.0834223 0.0356312 0.959127 11513775
-0.0834199 0.0355956 0.959172 11711154
-0.0765301 0.0304098 0.966899 11053224
-0.0765631 0.0305165 0.966785 10526880
-0.0765581 0.0305129 0.966789 11447982
-0.0765185 0.0303947 0.966928 9934743
-0.0765515 0.0304672 0.966829 10987431
-0.0765627 0.0305271 0.966771 11711154
-0.0765795 0.0305772 0.966708 10197915
-0.0765326 0.0304221 0.966897 10724259
-0.121308 0.0738207 0.924896 10395294
-0.121332 0.0738879 0.924819 10724259
-0.121325 0.0738707 0.924838 10132122
-0.121326 0.0738752 0.924834 11119017
-0.121305 0.0738113 0.924909 10395294
-0.121327 0.0738774 0.924832 9671571
-0.121306 0.0738036 0.924914 10790052
-0.121334 0.0738928 0.924812 10395294
-0.396508 0.0669885 1.24394 9474192
-0.396508 0.0669881 1.24515 9474192
-0.396508 0.0669885 1.24355 9605778
-0.396508 0.0669881 1.24477 8947848
-0.396508 0.0669879 1.24594 9408399
-0.396508 0.0669883 1.24417 9605778
-0.396508 0.0669878 1.24675 8158332
-0.396508 0.0669883 1.24425 6645093
-0.087526 0.0397991 0.956009 10921638
-0.0875576 0.0399087 0.955876 11711154
-0.0875449 0.0398664 0.955913 10263708
-0.0875077 0.0397211 0.956088 11908533
-0.0875084 0.0397461 0.95607 11053224
-0.0875305 0.0398159 0.955981 9934743
-0.0875376 0.0398447 0.955948 11645361
-0.0875178 0.0397924 0.956012 11119017
-0.0871967 0.0409419 0.957255 10263708
-0.087208 0.0409646 0.957224 11119017
-0.087219 0.0410172 0.957162 9803157
-0.0872347 0.041035 0.957135 11711154
-0.0872483 0.0411115 0.957054 10526880
-0.0872101 0.0410017 0.957186 9474192
-0.0872347 0.0410964 0.957076 11316396
-0.087198 0.0409545 0.957241 10790052
-0.0881632 0.0407339 0.955574 10395294
-0.0881845 0.0407889 0.955499 11053224
-0.0882042 0.0408693 0.955413 10066329
-0.088167 0.0407659 0.955537 11645361
-0.0881691 0.0407429 0.955561 10658466
-0.0881539 0.0406841 0.955636 9737364
-0.088173 0.0407436 0.955558 11316396
-0.088158 0.040698 0.955611 10724259
-0.234383 0.0675451 1.25517 9737364
-0.234383 0.0675449 1.25626 9539985
-0.234383 0.0675454 1.25446 9671571
-0.234383 0.0675454 1.25411 9803157
-0.234383 0.0675446 1.25731 9474192
-0.234383 0.0675453 1.25422 9605778
-0.234383 0.0675452 1.25524 8092539
-0.234383 0.067545 1.25561 7500402
-0.0866345 0.0692199 1.28546 9803157
-0.0866344 0.0692195 1.2872 9605778
-0.0866344 0.0692197 1.28638 9539985
-0.0866345 0.06922 1.28472 8816262
-0.0866345 0.0692199 1.28506 8355711
-0.0866343 0.0692194 1.28769 8289918
-0.0866345 0.0692195 1.28706 6974058
-0.0866346 0.0692192 1.28832 7039851
-0.0149246 0.0696205 1.29393 10132122
-0.0149245 0.0696209 1.29229 9605778
-0.0149246 0.0696207 1.29315 9539985
-0.0149245 0.0696205 1.29395 9211020
-0.0149245 0.0696204 1.29445 9145227
-0.0149245 0.0696206 1.29351 9079434
-0.0149244 0.0696207 1.29299 8618883
-0.0149247 0.0696207 1.29314 8158332
0.0234963 0.0705487 1.31235 10197915
0.0234964 0.0705492 1.31032 9737364
0.0234964 0.0705488 1.31255 10197915
0.0234962 0.070549 1.31083 9013641
0.0234964 0.0705493 1.31 9276813
0.0234963 0.0705489 1.31099 9408399
0.0234964 0.0705491 1.31016 7368816
0.0234963 0.0705488 1.31181 8026746
0.0683817 0.0707224 1.31307 10132122
0.0683817 0.070722 1.31443 10526880
0.0683817 0.0707218 1.31572 10395294
0.0683817 0.0707223 1.31305 9605778
0.0683817 0.0707219 1.31525 9474192
0.0683818 0.0707222 1.31353 9934743
0.0683818 0.0707219 1.31531 8026746
0.0683818 0.0707216 1.31618 7368816
-0.0929476 0.0515851 0.955708 9868950
-0.092988 0.0517295 0.955532 10526880
-0.0929447 0.0515815 0.955716 9474192
-0.0929911 0.0517551 0.955513 11184810
-0.0929451 0.0515807 0.955713 10132122
-0.0929668 0.0516481 0.95563 9211020
-0.0929948 0.051763 0.955499 11053224
-0.0929714 0.051683 0.9556 10790052
-0.0745979 0.0297562 0.969241 10987431
-0.0746172 0.0298491 0.969134 10461087
-0.0745807 0.0296943 0.969321 11645361
-0.0746311 0.0298476 0.969129 9803157
-0.0745992 0.0297516 0.969245 10987431
-0.0746301 0.0298749 0.969101 11908533
-0.0746142 0.0297742 0.969212 10263708
-0.0746205 0.02981 0.96918 10790052
-0.0958886 0.0543031 0.953322 10461087
-0.0958954 0.0543126 0.953307 11382189
-0.0958739 0.054226 0.953403 10066329
-0.0958815 0.054264 0.95336 11974326
-0.0958741 0.0542302 0.953399 10921638
-0.0959119 0.0543762 0.953242 9671571
-0.0959017 0.0543346 0.953284 11776947
-0.0958612 0.0542053 0.953435 11447982
-0.0888601 0.0432214 0.956318 10395294
-0.0888893 0.0433211 0.956205 11250603
-0.0888791 0.0433153 0.956217 9868950
-0.0888692 0.0432909 0.956246 11842740
-0.0888674 0.0432687 0.95627 10592673
-0.0888422 0.0431699 0.956388 9539985
-0.0888852 0.043305 0.956227 11447982
-0.0888639 0.0432856 0.956254 10790052
-0.0977052 0.0560401 0.951607 10066329
-0.0976932 0.0560155 0.951632 10921638
-0.0976834 0.0559802 0.95168 9671571
-0.0976557 0.0558691 0.951808 11776947
-0.0976658 0.0559063 0.951756 10724259
-0.0976851 0.055975 0.95168 9474192
-0.0976793 0.0559682 0.95169 11447982
-0.0976843 0.0559678 0.951689 10987431
-0.121022 0.0746766 0.926247 11250603
-0.121037 0.074711 0.926207 11579568
-0.121021 0.0746694 0.926247 10987431
-0.121038 0.0747106 0.926208 11842740
-0.121026 0.0746887 0.926229 11316396
-0.121032 0.0747208 0.926197 10526880
-0.121017 0.0746601 0.926264 11447982
-0.121012 0.074641 0.926289 11053224
-0.121605 0.0752178 0.925723 10921638
-0.121604 0.0752183 0.92572 11316396
-0.121608 0.0752201 0.92572 10592673
-0.121612 0.0752371 0.925702 11645361
-0.121605 0.075212 0.925732 10921638
-0.121596 0.0751918 0.925756 10132122
-0.121611 0.0752415 0.925702 11053224
-0.121616 0.0752607 0.925678 10790052
-0.0645469 0.00875571 1.00225 10790052
-0.0644884 0.00856934 1.00249 11119017
-0.0644892 0.00858074 1.00246 10197915
-0.0645137 0.00863014 1.00238 11250603
-0.0645031 0.00861052 1.00242 10526880
-0.0644723 0.00851328 1.00252 9868950
-0.0644803 0.00854422 1.0025 10987431
-0.064506 0.00859529 1.00241 10132122
0.0686644 0.0729135 1.32136 10461087
0.0686645 0.0729143 1.31787 9737364
0.0686644 0.0729139 1.31957 9671571
0.0686644 0.0729137 1.32026 8224125
0.0686645 0.0729139 1.31935 7697781
0.0686644 0.0729135 1.32123 8092539
0.0686644 0.0729134 1.32191 7566195
0.0686644 0.0729141 1.31797 7895160
0.074683 0.0727976 1.31644 10329501
0.0746831 0.0727973 1.31853 9934743
0.074683 0.0727975 1.31729 9671571
0.074683 0.0727972 1.31861 7829367
0.074683 0.0727969 1.31962 8289918
0.0746829 0.0727977 1.31648 8618883
0.0746829 0.0727972 1.31856 7895160
0.074683 0.0727972 1.31824 8224125
-0.453303 0.052409 0.925011 9408399
-0.453303 0.0524093 0.92357 8355711
-0.453303 0.0524095 0.922922 11447982
-0.453303 0.0524092 0.924221 7829367
-0.453303 0.0524094 0.923336 10395294
-0.453303 0.0524092 0.924277 11711154
-0.453303 0.0524091 0.925048 9079434
-0.453303 0.0524094 0.923354 11382189
-0.0900608 0.0499127 0.959647 11316396
-0.0900382 0.049875 0.959696 10526880
-0.0900294 0.0498268 0.959749 11711154
-0.0900289 0.0498231 0.959751 9737364
-0.0900628 0.0499281 0.959628 10921638
-0.0900565 0.0498949 0.959665 11776947
-0.09006 0.0499336 0.959622 10197915
-0.0900196 0.0497556 0.959831 10592673
-0.302121 0.0715296 1.26102 8882055
-0.302121 0.0715296 1.26193 7829367
-0.302121 0.0715296 1.26212 7434609
-0.302121 0.0715295 1.26244 8092539
-0.302121 0.0715297 1.26124 8487297
-0.302121 0.0715295 1.26207 7763574
-0.302121 0.0715294 1.26254 9342606
-0.302121 0.0715296 1.26189 10132122
-0.104124 0.062022 0.946404 10592673
-0.104137 0.0620463 0.946366 11447982
-0.104132 0.0620222 0.946397 10132122
-0.104126 0.0620264 0.946389 12040119
-0.10413 0.0620183 0.9464 10987431
-0.104101 0.0619102 0.946527 9803157
-0.104104 0.0619281 0.946506 11842740
-0.10413 0.0620486 0.946367 11316396
-0.313639 0.0737538 1.26778 8618883
-0.313639 0.0737532 1.2704 8684676
-0.313639 0.0737535 1.2693 8158332
-0.313639 0.0737536 1.26873 9474192
-0.313639 0.0737536 1.26871 9539985
-0.313639 0.0737537 1.26867 9737364
-0.313639 0.0737534 1.26971 9934743
-0.313639 0.0737536 1.26941 10066329
-0.103802 0.0618451 0.946958 10987431
-0.103823 0.0619283 0.946862 11842740
-0.103823 0.0619399 0.94685 10395294
-0.103794 0.0618333 0.94698 12105912
-0.10381 0.0618853 0.94691 11316396
-0.103822 0.0619277 0.946865 9934743
-0.103799 0.0618373 0.94697 12171705
-0.103791 0.0618425 0.946957 11382189
-0.0935965 0.0533611 0.957029 10790052
-0.0936189 0.0534343 0.956934 9934743
-0.0936151 0.0534268 0.956943 11316396
-0.0936402 0.0534918 0.956876 9605778
-0.0935894 0.0533406 0.95706 10526880
-0.093646 0.0534942 0.956867 11645361
-0.0936151 0.0533966 0.956983 9671571
-0.0936256 0.0534889 0.956876 10329501
-0.104284 0.0635442 0.946994 10461087
-0.104249 0.0634388 0.947122 11250603
-0.10428 0.0635214 0.947032 10197915
-0.104276 0.0635099 0.947031 11579568
-0.104257 0.0634607 0.947099 10855845
-0.104284 0.063556 0.946983 9737364
-0.104272 0.063511 0.947041 11250603
-0.104249 0.0634281 0.947134 10855845
-0.104739 0.0639896 0.946663 10197915
-0.104739 0.0639877 0.946666 10855845
-0.104763 0.0640892 0.946546 9737364
-0.104769 0.0640809 0.946558 11250603
-0.104771 0.0640818 0.946562 10329501
-0.104735 0.063977 0.946671 9474192
-0.104735 0.0639832 0.946668 10855845
-0.104774 0.0641082 0.946519 10461087
-0.202009 0.0746641 1.28369 8026746
-0.202009 0.0746642 1.28334 7039851
-0.202009 0.0746643 1.28284 7237230
-0.202009 0.0746636 1.2859 8092539
-0.202009 0.0746639 1.28457 7697781
-0.202009 0.0746636 1.28626 8092539
-0.202009 0.0746638 1.28516 8816262
-0.202009 0.0746642 1.28378 8947848
-0.189587 0.0744785 1.28066 8355711
-0.189587 0.0744788 1.27973 7237230
-0.189587 0.0744784 1.28105 6974058
-0.189587 0.0744785 1.28037 7829367
-0.189587 0.0744786 1.28008 7434609
-0.189587 0.0744787 1.27947 7303023
-0.189587 0.0744786 1.2809 8618883
-0.189587 0.0744786 1.28052 9408399
-0.165081 0.0741784 1.2774 7500402
-0.165081 0.0741785 1.27686 6447714
-0.165081 0.0741784 1.27659 6776679
-0.165081 0.0741785 1.27603 6842472
-0.165081 0.0741785 1.27704 6776679
-0.165081 0.0741782 1.27794 7237230
-0.165081 0.0741788 1.27542 7960953
-0.165081 0.0741785 1.27666 9211020
-0.105406 0.0650057 0.946347 10066329
-0.105418 0.0650519 0.946298 10592673
-0.105405 0.0649924 0.946365 9803157
-0.105438 0.065111 0.946228 11053224
-0.105422 0.0650565 0.946292 10526880
-0.105406 0.0650017 0.946354 9737364
-0.105432 0.0650863 0.946252 11250603
-0.105411 0.0650144 0.946339 10855845
-0.109624 0.0696079 0.942967 10197915
-0.109607 0.069561 0.943022 10921638
-0.109597 0.0695257 0.94306 9803157
-0.109601 0.069539 0.943048 11316396
-0.109611 0.0695746 0.943006 10395294
-0.109613 0.0695842 0.943001 9342606
-0.109593 0.0694949 0.943094 10921638
-0.109599 0.0695318 0.943058 10592673
-0.110744 0.0704909 0.941868 9671571
-0.110742 0.0705002 0.941847 10329501
-0.110719 0.0704141 0.941946 9342606
-0.110735 0.0704642 0.941889 10987431
-0.110745 0.0704986 0.941846 9803157
-0.110747 0.0705044 0.941841 9079434
-0.11072 0.0704266 0.941932 10461087
-0.110711 0.0703869 0.941975 10132122
-0.163536 0.0762171 1.28091 6776679
-0.163536 0.0762176 1.27888 6776679
-0.163536 0.0762175 1.27938 7237230
-0.163536 0.0762174 1.27969 7960953
-0.163536 0.0762176 1.27856 8421504
-0.163536 0.0762172 1.2805 8355711
-0.163536 0.0762177 1.2781 9211020
-0.163536 0.0762178 1.27794 9474192
-0.105768 0.0659163 0.947009 10921638
-0.10578 0.0659479 0.946961 10526880
-0.105783 0.0659124 0.947 11250603
-0.105753 0.0658268 0.947103 10066329
-0.105746 0.0658152 0.947126 10724259
-0.105762 0.0658691 0.947065 11250603
-0.10577 0.0658643 0.947071 10263708
-0.105751 0.0658034 0.947132 10526880
-0.110178 0.0697645 0.942415 9868950
-0.110213 0.0698732 0.942293 10526880
-0.110196 0.0698328 0.942338 9539985
-0.11021 0.0698708 0.942296 11119017
-0.110201 0.0698396 0.942331 10197915
-0.110202 0.0698603 0.942304 9276813
-0.110188 0.069789 0.942395 10921638
-0.110188 0.0697962 0.942381 10395294
-0.115553 0.074721 0.937723 9539985
-0.11555 0.0747048 0.93774 10263708
-0.115561 0.0747567 0.937675 9079434
-0.115543 0.0746924 0.937751 10921638
-0.115542 0.0746827 0.937764 9868950
-0.115535 0.0746631 0.937782 9211020
-0.115545 0.0746944 0.93775 10592673
-0.115548 0.0747073 0.937736 10066329
-0.117613 0.0769816 0.936252 10132122
-0.117617 0.0769943 0.936237 10790052
-0.117616 0.0769963 0.936235 9803157
-0.117605 0.0769575 0.936286 11250603
-0.117591 0.0769046 0.936336 10526880
-0.117616 0.076983 0.93625 9474192
-0.117607 0.0769482 0.936295 11250603
-0.117615 0.0769967 0.936234 10855845
0.102031 0.0791011 1.32698 8224125
0.102031 0.0791007 1.32906 8553090
0.102031 0.0791004 1.3297 8947848
0.102031 0.0791011 1.3266 8684676
0.102031 0.079101 1.3273 8816262
0.102031 0.0791007 1.32802 9276813
0.102031 0.0791014 1.32641 8816262
0.102031 0.079101 1.32707 9079434
-0.118073 0.0773383 0.935777 9671571
-0.118083 0.0773473 0.935759 10329501
-0.118083 0.0773661 0.93575 9408399
-0.118097 0.0774083 0.935698 11053224
-0.118073 0.0773162 0.935801 10000536
-0.11809 0.0773886 0.935719 9211020
-0.118068 0.0773162 0.935798 10724259
-0.118091 0.0773774 0.935727 10395294
-0.453851 0.0577421 0.947201 9145227
-0.453851 0.0577427 0.94473 8618883
-0.453851 0.0577426 0.944719 11053224
-0.453851 0.0577423 0.946523 9342606
-0.453851 0.0577421 0.947387 9934743
-0.453851 0.0577421 0.946705 11053224
-0.453851 0.0577424 0.945295 8618883
-0.453851 0.0577425 0.945056 10790052
-0.135086 0.0788194 1.29336 7566195
-0.135086 0.0788199 1.29137 8487297
-0.135086 0.0788196 1.2924 8092539
-0.135086 0.0788196 1.29259 9211020
-0.135086 0.0788198 1.29213 9013641
-0.135086 0.0788201 1.29035 9079434
-0.135086 0.0788195 1.29292 9539985
-0.135086 0.0788195 1.29304 9671571
0.338048 0.076214 1.25036 11119017
0.338048 0.076214 1.24957 10066329
0.338048 0.0762139 1.25064 11974326
0.338048 0.0762145 1.24766 11645361
0.338048 0.0762146 1.24755 10987431
0.338048 0.0762138 1.25098 12105912
0.338048 0.0762142 1.24862 10132122
0.338048 0.076214 1.25018 10461087
-0.0885831 0.0434647 0.956717 9934743
-0.0885708 0.0434045 0.956789 10790052
-0.0885598 0.0433983 0.956799 9408399
-0.0885888 0.0435016 0.956684 11447982
-0.0886134 0.0435571 0.956612 10197915
-0.0885803 0.0434256 0.956758 9276813
-0.0885756 0.0434308 0.956763 11053224
-0.0885551 0.0433773 0.956819 10395294
-0.454156 0.0591437 0.947367 9342606
-0.454156 0.0591436 0.947368 8421504
-0.454156 0.0591438 0.94696 11184810
