# .PCD v0.7 - Point Cloud Data file format
VERSION 0.7
FIELDS x y z rgb
SIZE 4 4 4 4
TYPE F F F U
COUNT 1 1 1 1
WIDTH 1103
HEIGHT 1
VIEWPOINT 0 0 0 1 0 0 0
POINTS 1103
DATA ascii
-0.17192701 -0.360401 1.36695 1268612963
0.0112372 -0.383059 1.4525599 1267560020
-0.31266499 -0.33113101 1.26148 1267562334
-0.276997 -0.34040099 1.2975 1268219749
-0.24909399 -0.342767 1.3063101 1268482922
-0.14239199 -0.370226 1.41298 1268678498
-0.051915102 -0.37767899 1.44069 1268481632
-0.0135891 -0.381933 1.45678 1268481382
0.0486692 -0.39020199 1.48829 1268153189
0.101249 -0.39582601 1.5095201 1268218725
-0.29440701 -0.33589301 1.28722 1268747123
-0.268437 -0.34023499 1.304 1269272952
0.124617 -0.40279901 1.54539 1269667196
0.20282 -0.41717899 1.60112 1268154475
-0.33940899 -0.323338 1.2451299 1268353134
-0.589113 -0.36064199 1.4322799 1267498599
-0.368532 -0.327299 1.2909499 1268287349
-0.115798 -0.32429501 1.28087 1267692633
-0.67648602 -0.415016 1.6966701 1269605266
-0.44393101 -0.31079799 1.2615 1268287862
0.20169701 -0.214259 0.85007399 1268615803
0.19304 -0.224003 0.90290302 1268617344
-0.43942299 -0.30516899 1.28378 1268551034
-0.32547 -0.30825499 1.29484 1268945018
-0.29637101 -0.31395701 1.3192199 1268615026
-0.276703 -0.31731799 1.3335299 1268680562
-0.14309999 0.083145604 0.55654001 1267498344
-0.35036099 -0.304501 1.28693 1269142652
-1.09276 1.84128 3.7873199 1267302764
-0.127004 0.0311823 0.56290698 1268486015
-0.10883 0.023250001 0.58104002 1269210771
-0.110647 0.019311599 0.58112901 1267763062
-0.104813 0.018060399 0.58460498 1267631731
-0.095564097 0.0153299 0.58141798 1268750210
-0.102692 0.0155051 0.58709598 1268092282
-0.092904903 0.0141544 0.58370697 1268223867
-0.102609 0.0151194 0.58729798 1268026489
-0.088503703 0.0122471 0.58748299 1267171180
-0.081643298 0.0154242 0.60541099 1268026487
-0.066379897 0.0128318 0.60342699 1267433581
-0.0788422 0.0133065 0.60614097 1268618624
-0.092078499 0.0109565 0.60341197 1269999507
-0.0347545 0.0149633 0.626342 1269604749
0.0448194 0.023669699 0.680224 1268288891
0.0539071 0.018574299 0.686625 1267171178
0.063142098 0.0178333 0.696293 1268618622
-0.0192378 0.0027735999 0.65900999 1266841443
0.0712495 0.0164677 0.70254499 1268027000
-0.00154689 0.0010547 0.67381603 1268025719
0.127793 0.017522501 0.74007797 1267433578
0.072549403 -0.0026175 0.73850501 1268552061
0.095809199 -0.00138514 0.74692398 1267697520
0.30339399 0.0176039 0.89591599 1268552833
1.49509 0.096495397 1.76648 1268552063
0.29635099 -0.38450199 1.74675 1267297106
0.30849299 -0.36541599 1.65596 1267363159
-0.19335701 -0.27301899 1.26334 1267228986
-0.150353 -0.278099 1.2870899 1267556670
-0.053643599 -0.28552601 1.32103 1267294007
-0.0487541 -0.28657401 1.32602 1267228471
0.0071145701 -0.29249001 1.35355 1267426111
0.0515544 -0.29565701 1.36795 1267360318
0.119503 -0.30215901 1.39805 1266768692
0.196997 -0.19981501 0.897322 1269406090
-0.25186899 -0.26949501 1.25622 1268084552
-0.232767 -0.26952001 1.2559 1268216138
-0.096004397 -0.282547 1.31662 1268873040
-0.076482601 -0.284713 1.3268 1269136213
0.150435 -0.298619 1.3897099 1269136476
0.160881 -0.29845899 1.38868 1269136476
0.289536 -0.30829799 1.4339499 1269009782
-0.18145201 -0.27331799 1.28227 1269596510
-0.64069003 -0.316493 1.51726 1267497827
0.200982 -0.21441101 1.01037 1270129294
0.19774801 -0.191358 0.89315802 1269800847
-0.64862901 -0.30585599 1.52938 1268221555
0.0149067 -0.209059 1.0095299 1269729116
0.200482 -0.18316101 0.87671602 1270262428
0.20297401 -0.173014 0.829647 1269472653
-0.72330999 -0.33917201 1.75647 1270064277
0.20354199 -0.167594 0.825764 1269012101
0.20653901 -0.176332 0.89400399 1270130842
0.19931 -0.17094401 0.885176 1269472137
0.20133799 -0.193285 1.02947 1269997449
0.1989 -0.168127 0.88343102 1269274758
0.204739 -0.154622 0.818335 1268287349
-0.148463 0.0092217298 0.80046803 1268283740
0.13475101 0.0297275 0.73063397 1267631729
-0.092983499 0.0135701 0.59561402 1267894899
-0.40976799 -0.21042 1.19463 1269207161
0.18963601 -0.171205 0.94036001 1270129294
-0.59087902 -0.28156799 1.64496 1269668489
-0.47321701 -0.23581 1.3619699 1269537929
-0.0481437 -0.20135 1.1394399 1269531220
0.078842901 -0.209407 1.18514 1269729118
-0.36630899 -0.00900234 0.73088402 1266905686
0.061373599 -0.203467 1.1594 1269729631
-0.347518 -0.011579 0.72058803 1267957093
0.16964801 0.0040150699 0.89787799 1268552831
-0.206907 -0.021041799 0.69891697 1267034962
-0.20383701 -0.022146899 0.69435501 1267561306
3.06407 0.274104 2.7534201 1266908006
-0.29136699 0.0126945 0.82896501 1269075315
-0.0113165 -0.189037 1.14261 1268280901
-0.13649499 0.081157401 0.57651502 1268355711
-0.35470301 0.00037464499 0.75191599 1267827825
-0.0221527 -0.185735 1.14259 1267492169
-0.081503503 -0.0053700199 0.68277502 1268354171
0.027981 -0.00216627 0.70452702 1267893872
-0.398606 0.0023264401 0.68431503 1269079177
-0.30996701 0.0144118 0.73648798 1269076088
-0.280283 0.0112155 0.80588299 1268549490
0.0142717 -0.00176738 0.69316101 1268552059
-0.135276 -0.0125508 0.63970399 1269934231
0.0247526 0.000298247 0.694745 1267895412
-0.158356 0.0044929199 0.79093802 1267891303
0.0474266 0.0040865098 0.70796102 1267499886
1.25565 0.18121 1.43425 1249339467
-0.40868101 0.016362 0.71436501 1268553090
0.0236302 0.0047026402 0.69266599 1268815231
-0.096923098 -0.025631901 0.66500902 1249670238
-0.0125238 0.00035493099 0.67120498 1268617852
-0.191275 -0.0043315399 0.64379501 1269734795
0.183676 -0.142831 0.92855501 1270195859
-0.13945299 -0.0118845 0.604267 1268025719
-0.098872699 -0.0246152 0.66267598 1248091463
0.62764502 0.0530672 1.09008 1268092280
-0.41106001 0.020617999 0.70786703 1269079177
0.067195602 0.016707201 0.69976598 1268158073
0.063256897 0.0165233 0.69687802 1267894901
-0.406611 0.0113419 0.66373998 1269079177
0.118845 0.020360701 0.73573703 1267894901
-0.135602 0.077554099 0.57579899 1268485501
-0.106473 0.086625703 0.59838599 1249537116
-0.35976401 0.0043543102 0.634489 1268682620
-0.224471 0.053156201 0.46587399 1268157816
-0.18751 0.206064 0.61013502 1246113047
-0.188493 0.205736 0.61010301 1246178583
-0.203076 0.20537101 0.61484802 1246573085
-0.361379 0.0098589296 0.649396 1268681848
-0.23651201 0.200059 0.62100297 1246573083
-0.40436101 0.060330901 0.801202 1269077892
-0.41276401 0.0077881301 0.64000499 1268684417
-0.38455001 0.19722199 0.66698903 1249207380
-0.41849101 0.18873499 0.67240798 1267103588
-0.186802 0.068528898 0.51274198 1268814722
-0.13680799 0.081032403 0.57612801 1268223098
-0.067474797 0.0077106599 0.62429202 1269341577
-0.37516001 0.070666701 0.87650001 1269670541
-0.29584399 0.024261501 0.67873299 1269140085
-0.110904 0.0035526799 0.61331499 1269012099
-0.097316504 0.011212 0.62680501 1269670542
-0.44171101 0.0697807 0.81577802 1270000790
-0.254922 0.057529401 0.67203498 1267295808
-0.107421 0.0391718 0.68663102 1270063758
-0.087456502 0.0079817502 0.60848701 1268881026
0.0294805 0.0022098599 0.70341098 1268684417
-0.064319797 0.0097565698 0.60664499 1268552831
-0.406499 0.0180413 0.73247802 1268750208
-0.13191099 -0.13737699 1.13572 1267230786
0.0530238 0.00697219 0.70963699 1268816003
-0.40986401 0.0119015 0.62055099 1268552831
-0.40597799 0.012331 0.62138599 1268222835
-0.087049603 0.0146358 0.60258198 1270329244
0.0118369 0.0024141001 0.68346602 1266840930
-0.393058 0.0149252 0.62548399 1268288630
-0.38464001 0.0173696 0.63032401 1268287858
-0.262045 0.0088072503 0.59681398 1267693407
-0.37542999 0.0169363 0.62660301 1267693921
-0.36678699 0.0137461 0.61756802 1267561821
-0.288472 0.0164956 0.61808401 1268810090
-0.262306 0.0190288 0.62245798 1268483695
-0.20817199 0.015773401 0.60939699 1268022117
-0.37751001 0.017294601 0.62680501 1267628385
-0.36138999 0.0141948 0.61738002 1267298394
0.000532687 0.0110557 0.67715502 1269012610
-0.345276 0.0128223 0.61153603 1267364692
-0.27730399 0.0160229 0.61386299 1268285544
-0.213585 0.029321199 0.64264297 1266970453
-0.220626 0.021092299 0.62200397 1249732430
-0.332656 0.0112384 0.60544699 1267692633
-0.32520401 0.0106253 0.60320902 1268349793
-0.32205799 0.0117075 0.60571498 1268415586
-0.18092901 0.0249849 0.62736601 1267694435
-0.0971312 0.0104488 0.58253199 1269013638
-0.40907899 0.024388 0.696998 1269144196
-0.32482499 0.011411 0.60429603 1267757656
-0.32411399 0.0117318 0.60505497 1267955034
-0.284417 0.0148303 0.60942698 1268546917
-0.151436 -0.10771 1.03941 1269796977
-0.31400201 0.0126612 0.60560602 1268152670
-0.097842999 0.0110219 0.58170098 1268882052
-0.31099799 0.0117701 0.60214502 1267757394
-0.25833601 0.0114513 0.59646398 1266705220
-0.22598401 0.0112774 0.59302902 1249864271
0.198863 -0.084305197 0.81201798 1269209480
-0.41484001 0.0147041 0.65244299 1269736852
-0.50163698 -0.0224507 1.43367 1268157303
-0.29805499 0.0153733 0.60916001 1267955030
-0.44218901 -0.0569763 0.99408001 1267960694
-0.421105 -0.035702799 0.65114999 1268947590
-0.42065099 -0.064952098 0.79833698 1269276554
-0.42105901 -0.063799202 0.80366701 1269079175
-0.40521801 0.024292 0.63824099 1267366758
-0.53874898 0.29967201 1.17395 1267433578
-0.41949701 0.042055801 0.68864602 1270460830
-0.48824799 0.15617 0.92920899 1267630959
-0.106244 0.0112793 0.575109 1267894129
-0.38602999 0.031683601 0.65286797 1267365984
-0.19275799 0.0141 0.589733 1267760228
-0.34247199 0.035513401 0.65690798 1267296845
-0.36571801 0.033055101 0.65222502 1267363927
-0.35122699 0.034362599 0.65394199 1267297103
-0.209084 0.0146657 0.58974898 1249468228
-0.19035099 0.0120692 0.58042198 1268156276
-0.18911 0.0103266 0.57603401 1268617856
-0.181187 -0.00249432 0.54387701 1269540498
-0.33613199 0.033612698 0.64747298 1268349533
-0.335493 0.033856198 0.64799702 1268152154
-0.18611699 0.0084841102 0.57024902 1268421247
-0.178819 0.0049012401 0.56074703 1269144200
-0.174345 0.00288197 0.555354 1269210761
-0.174879 0.0028102701 0.55431199 1269144969
-0.39409 0.0147611 0.62329298 1267892591
-0.19446599 0.0108678 0.57500398 1267366505
-0.186783 0.0070312298 0.56489402 1268091512
-0.170725 0.0043538702 0.55666798 1269013384
-0.230323 0.0145572 0.60638499 1249665611
-0.35969299 0.0118449 0.61189699 1267431005
-0.29586199 0.032405298 0.63710499 1268414547
-0.295389 0.0323283 0.63686699 1268414547
-0.19474199 0.0103422 0.57280803 1267234150
-0.416926 0.017588099 0.66284299 1269538956
-0.51005101 -0.086177103 1.52491 1267762797
-0.478113 -0.085310698 1.25404 1267959922
-0.285541 0.027328299 0.62175798 1267821640
-0.43262199 -0.088015802 0.936436 1267960694
-0.426548 -0.088675402 0.93605602 1270198169
-0.176102 0.204447 0.605133 1246442267
0.21318699 0.0532711 0.790564 1268487038
0.203972 0.048228901 0.78562897 1267894900
-0.122861 0.0144764 0.56135798 1267959924
-0.40198499 0.030344799 0.63109303 1268813946
-0.125688 0.0142757 0.55927497 1267894131
-0.224033 0.0068537602 0.55403799 1267628392
-0.31965199 0.0103553 0.60249001 1268941411
-0.12506101 0.0194484 0.567949 1267630957
-0.35353401 -0.098283596 0.79567701 1268022117
-0.287806 -0.106458 0.77114803 1268087128
-0.23449799 -0.11262 0.76857299 1268612957
-0.090769202 -0.130623 0.71019602 1268288884
-0.376802 -0.094509803 0.81855297 1268091251
-0.340965 -0.098551497 0.80223298 1267364956
-0.26498899 -0.107773 0.78125298 1267889495
-0.40808299 0.0082679102 0.60962403 1249866074
-0.162287 -0.0039755902 0.57399899 1268354423
-0.399445 0.0119992 0.61969697 1267169633
-0.394705 0.0125908 0.62066603 1267169628
-0.394326 0.0129428 0.62177199 1267235422
-0.39244801 0.0141018 0.624448 1266774870
-0.382193 0.0154436 0.62773401 1267496802
-0.38179401 0.0154323 0.627702 1267562595
-0.29109901 0.0156541 0.62918001 1269075058
-0.159385 0.0079921996 0.52905399 1249668438
-0.33927801 -0.0904814 0.92819798 1267761257
-0.33001301 0.0121367 0.61480701 1267956574
0.115197 0.128473 0.97306401 1268813685
-0.090804502 0.038690299 0.69529098 1270855586
-0.37230101 0.019246301 0.63438398 1249797193
-0.35947201 0.0186416 0.63254499 1266837835
-0.35828701 0.076496698 0.681373 1268219237
-0.172378 -0.114208 0.75664699 1267759448
-0.36482099 0.016595799 0.62531501 1249402175
-0.34480399 0.0150136 0.620489 1266969933
-0.161266 -0.111429 0.74994898 1267627610
-0.37192899 -0.085978404 0.79085702 1268025206
-0.36593699 -0.0867116 0.78867197 1268222837
-0.336739 -0.090407103 0.77573597 1269274755
-0.269337 0.015911801 0.62193 1268747890
-0.30965999 0.0120454 0.60936701 1267363924
-0.103972 -0.117397 0.69983798 1267169379
-0.404255 0.0261511 0.65119302 1266773849
-0.25727701 0.0193012 0.62970799 1268285542
-0.116266 -0.115533 0.70184302 1267564137
-0.102895 -0.117104 0.69805503 1267103586
-0.28785199 0.0136699 0.61198199 1268218971
-0.28757599 0.0131389 0.61039698 1268284764
-0.18435501 -0.105858 0.72459 1268679526
-0.37218899 0.258535 0.67735797 1245125142
-0.41236499 0.078506798 0.77554899 1268421756
-0.28805 0.014048 0.60781598 1266704958
-0.246218 0.024698799 0.63825703 1267758677
-0.381623 0.0302631 0.65567303 1267693407
-0.40134099 -0.071896002 0.74147302 1269275525
-0.26228899 -0.088036597 0.695804 1268283998
-0.29977301 0.0182824 0.61825299 1249663541
-0.127212 -0.101993 0.64652002 1268222069
-0.40273401 -0.069982797 0.73510301 1269276554
-0.17969599 0.0233438 0.62927002 1267628382
-0.25556099 0.0145101 0.60428602 1267098687
-0.177118 0.024457199 0.63112098 1268154213
-0.304755 0.12506101 0.828668 1268613220
-0.28595299 0.099084601 0.75089198 1268942183
-0.40124801 0.068992801 0.68228501 1268355450
-0.36804101 0.088034101 0.71693403 1268153955
-0.353046 0.0808746 0.69454002 1268482408
-0.395199 0.083473302 0.69507498 1267234910
-0.18414199 0.093565099 0.69418597 1267626323
-0.32305399 0.112403 0.75176603 1267627097
-0.40138301 0.076398298 0.67312902 1268025203
-0.38349 0.0740491 0.66571498 1268353137
-0.37323901 0.082644001 0.68341899 1267892584
-0.119519 0.060093701 0.60308897 1269078405
-0.120989 0.059209701 0.601215 1268552061
-0.39417601 0.083772503 0.687334 1268748411
-0.363168 0.102879 0.72773802 1267694953
-0.270419 0.099467099 0.70943999 1268876905
-0.259453 0.100954 0.710325 1268745318
-0.184523 0.00851236 0.575634 1268223094
-0.103213 0.105295 0.696585 1268088680
-0.172362 0.0029039299 0.55658603 1267894903
-0.124032 0.087273099 0.65701598 1267826539
-0.123185 0.085601501 0.65315002 1267826539
-0.125081 0.081881799 0.64374501 1267826535
-0.116458 0.074361898 0.62343401 1268025717
-0.119508 0.072385103 0.61822599 1267564909
-0.114439 0.069889903 0.61090302 1266972768
-0.158806 0.068024203 0.60688102 1267497570
-0.15122201 0.069630101 0.609402 1267563878
-0.110109 0.0724658 0.61027497 1249340506
-0.29905099 0.095898896 0.68461102 1269666933
-0.147829 0.075364202 0.62033403 1267563363
-0.139111 0.073738798 0.61566901 1267234659
-0.406077 0.073253103 0.64848202 1268617852
-0.096113503 0.087582 0.63763797 1267235172
-0.120887 0.072019704 0.60289502 1266908006
-0.118686 0.072723597 0.60299498 1249341274
-0.34193599 0.09623 0.67929798 1269601402
-0.412824 0.0829257 0.65963 1269275784
-0.147553 0.063757896 0.58193099 1267105385
-0.125881 0.072198503 0.59223002 1266972516
-0.118876 0.074000597 0.59491301 1266906723
-0.113308 0.077368602 0.59779298 1267301735
-0.12698001 0.075659104 0.59530002 1268881026
-0.26935801 0.0609686 0.58271199 1269270633
-0.22939099 0.069815002 0.59423703 1268021080
-0.228578 0.069914699 0.593418 1268086874
-0.33552101 0.077578999 0.621894 1269338230
-0.14169 0.066822901 0.57004303 1248354377
-0.17518 0.066218697 0.57326001 1267958382
-0.41576701 0.077279702 0.63249099 1269473163
-0.14995 0.063260503 0.56076503 1249274450
-0.17234799 0.067799397 0.57231301 1268485757
-0.129289 0.079707101 0.58441699 1269342347
-0.14338601 0.069643199 0.56750202 1248353607
-0.30380699 0.080656096 0.61432898 1269864051
-0.14851999 0.068703897 0.56209701 1249536350
-0.32794601 0.080481701 0.61315697 1267430234
-0.145264 0.069718897 0.56168199 1248879442
-0.26290199 0.100914 0.63451201 1268744543
-0.222811 0.116198 0.65554202 1268480853
-0.322166 0.089567602 0.62326199 1268877421
-0.154779 0.068557702 0.555143 1268814720
-0.32777101 0.089236699 0.622823 1267563100
-0.15582199 0.068085998 0.55362397 1268814720
-0.36918899 0.077798501 0.60856098 1271182754
-0.42008701 0.074277498 0.60728502 1269605521
-0.420044 0.074069701 0.60625798 1269934486
-0.162091 0.069841601 0.54489797 1268024690
-0.113698 0.108735 0.60035902 1268616312
-0.16420899 0.070527002 0.54026002 1268551548
-0.42272899 0.070157997 0.58779901 1269933972
-0.372307 0.084891804 0.600519 1269801099
-0.17638201 0.065905303 0.528283 1249471579
-0.173333 0.069043197 0.53213602 1268551550
-0.185844 0.067299299 0.521474 1267761516
-0.42114699 0.071512803 0.57374799 1270460060
-0.174078 0.073607601 0.52270502 1268617341
-0.396263 0.082208 0.58252603 1269737107
-0.37107599 0.0847077 0.58081299 1269405830
-0.201542 0.061453901 0.50816 1268617343
-0.41314399 0.083801702 0.66001898 1269408140
-0.37544599 0.081381403 0.57553101 1269274495
-0.390692 0.082913801 0.58006197 1268814204
-0.19702201 0.064623497 0.50953799 1269472650
-0.42041099 0.079856299 0.580419 1269474192
-0.43021399 0.084207997 0.58747101 1268158333
-0.203013 0.062894002 0.50469398 1268221556
-0.428381 0.082616404 0.58416098 1268618884
-0.42298299 0.080497198 0.57927901 1267763313
-0.42179501 0.0833214 0.58317202 1267829106
-0.35821101 0.082467496 0.56751299 1268418157
-0.414419 0.0796367 0.57554102 1267958897
-0.40460101 0.081428804 0.57540399 1267826540
-0.35406199 0.083526596 0.56697297 1269800580
-0.256221 0.083578996 0.54477799 1267493701
-0.19868299 0.063406698 0.50212598 1267300967
-0.41578799 0.081548601 0.57759202 1266971741
-0.39995599 0.083769999 0.57722503 1267103073
-0.39435199 0.0850477 0.577254 1249799256
-0.319585 0.087529697 0.56376499 1269732213
-0.40829599 0.081415102 0.57461798 1249272908
-0.41095999 0.082578897 0.57638502 1248680770
-0.33876601 0.088834003 0.568847 1268285027
-0.35503501 0.079858102 0.55903101 1267694173
-0.385791 0.084714301 0.57258099 1248745536
-0.375523 0.085878201 0.57188499 1249337925
-0.33929199 0.081294701 0.55691099 1268614246
-0.37166899 0.085731797 0.57021898 1248746049
-0.31713599 0.089690402 0.56327403 1268350561
-0.29510099 0.101393 0.57497901 1267297356
-0.32270601 0.079415001 0.54924202 1268350561
-0.25184801 0.083363801 0.53844601 1267099977
-0.221678 0.082893498 0.53076702 1267694435
-0.32931301 0.079059102 0.54970902 1267429972
-0.31536201 0.082821198 0.551835 1268152667
-0.23152199 0.079529203 0.52762097 1267956324
-0.41879299 0.097829103 0.59675902 1249471061
-0.41701099 0.099113397 0.59817201 1248812361
-0.341443 0.082533799 0.55693197 1267364179
-0.272825 0.104726 0.572528 1249139514
-0.414361 0.100111 0.59838498 1249075533
-0.40635899 0.107449 0.606933 1248088381
-0.27971601 0.102686 0.56988102 1249138228
-0.275722 0.083790801 0.54218799 1249139257
-0.191571 0.069831997 0.50269598 1266972516
-0.254365 0.079116203 0.529971 1249732166
-0.437152 0.080135301 0.57386398 1249208918
-0.39612499 0.103927 0.59770298 1249732945
-0.37706801 0.104493 0.59401202 1248218678
-0.30157399 0.093491897 0.56074202 1249334837
-0.40340701 0.105421 0.60091102 1249601107
-0.27368999 0.099726997 0.56229699 1248545323
-0.275711 0.084260203 0.54105699 1248480557
-0.35843199 0.104783 0.58876997 1248941884
-0.19114 0.070964403 0.50183803 1267564653
-0.42717499 0.11493 0.61861199 1249472862
-0.35258201 0.10495 0.58698899 1249665347
-0.346028 0.105251 0.58585501 1249533761
-0.25559899 0.083074898 0.53285199 1248546350
-0.21086299 0.080817699 0.519077 1268484726
-0.189243 0.074817397 0.505584 1269801869
-0.32488501 0.104073 0.577281 1266769729
-0.324312 0.104283 0.57743502 1266703936
-0.238488 0.083381496 0.52800602 1248941625
-0.335751 0.10326 0.578125 1267428942
-0.427246 0.146448 0.59148401 1248483658
-0.314125 0.102516 0.57129103 1266835776
-0.308676 0.099850297 0.56569302 1249663544
-0.249469 0.084111102 0.529854 1248348460
-0.234153 0.080631502 0.52139598 1248612916
-0.226372 0.080964103 0.51998198 1249075014
-0.421377 0.12783501 0.63053203 1267432553
-0.322483 0.101772 0.57103002 1268020050
-0.431501 0.087103203 0.59772098 1269342349
-0.29635999 0.094035 0.55234599 1249070891
-0.205294 0.067389399 0.49409199 1270130580
-0.22007699 0.081648 0.51644403 1249008968
-0.219862 0.081437498 0.51610702 1249272396
-0.21457499 0.072035201 0.50098902 1267300965
-0.21317101 0.0710456 0.498768 1267170150
-0.196428 0.071279198 0.49498701 1268486268
-0.213669 0.045708202 0.46487701 1249075782
-0.21038 0.075107597 0.50297701 1249668956
-0.200524 0.071746998 0.49606299 1267959411
-0.121388 0.088082902 0.66036701 1268484724
-0.222192 0.0808644 0.513004 1247627055
-0.243662 0.115115 0.73889601 1269207158
-0.205035 0.075038597 0.500453 1249208661
-0.120248 0.0777409 0.63417101 1268748411
-0.119775 0.074152097 0.62553602 1268552061
-0.115238 0.068273701 0.61092198 1267894901
-0.113208 0.068770699 0.611857 1268421245
-0.128491 0.082482196 0.64524698 1267629160
-0.123442 0.076760098 0.630983 1268156274
-0.21608099 0.055236802 0.47349101 1266710627
-0.24155 0.083888397 0.66166699 1269272437
-0.119983 0.069030501 0.61095798 1267761002
-0.22379801 0.0441375 0.45716199 1249471574
-0.43444499 0.081638299 0.55799598 1266973285
-0.121292 0.070878603 0.613141 1267300704
-0.40514499 0.073915102 0.65603101 1268354169
-0.115549 0.070324399 0.607575 1249340245
-0.43342099 0.092841901 0.56493002 1266776166
-0.42101601 0.16358 0.647874 1249537624
-0.433025 0.092674099 0.564165 1249735264
-0.41993999 0.16774 0.65194798 1249207889
-0.214394 0.065380603 0.473692 1249405786
-0.21989 0.053227499 0.460365 1249406814
-0.43352801 0.093366504 0.56468099 1267565681
-0.120106 0.072416201 0.60157198 1266842213
-0.237077 0.075986698 0.52339101 1267167318
-0.419523 0.17239299 0.65388298 1246114602
-0.38474101 0.083749399 0.66008002 1270394012
-0.41520101 0.166288 0.64472699 1247825979
-0.351255 0.093970597 0.67481202 1269931911
-0.40556499 0.163866 0.638587 1248550730
-0.119191 0.073888399 0.59367698 1267434348
-0.36880699 0.168191 0.633991 1249666902
-0.39873099 0.080717899 0.64751297 1269671314
-0.39981601 0.165087 0.63782197 1248352836
-0.136347 0.067833297 0.57397401 1266907233
-0.37424701 0.16651399 0.63201398 1248087616
-0.175209 0.068145998 0.57612801 1268419962
-0.14052901 0.070220999 0.57477999 1249866846
-0.34689799 0.167666 0.62609899 1249797710
-0.21540999 0.060442999 0.46397999 1266907753
-0.43204501 0.100112 0.56821197 1249669984
-0.41918799 0.172894 0.65083402 1245390873
-0.132319 0.088524401 0.60519898 1268946306
-0.377767 0.165297 0.63080698 1247231795
-0.37329701 0.16597 0.63041002 1247824187
-0.14905 0.071901403 0.56822598 1269013382
-0.21047699 0.072214797 0.476147 1249471835
-0.36783299 0.166168 0.62848002 1247363634
-0.36164701 0.166409 0.62711197 1247364397
-0.16907901 0.071051903 0.56819201 1268354169
-0.30407101 0.080912903 0.61084503 1269864313
-0.149543 0.068228401 0.5582 1249274456
-0.394696 0.17337599 0.64343798 1247559732
-0.31036001 0.0790499 0.605753 1269207412
-0.35255399 0.16454799 0.62178302 1248350011
-0.351946 0.164773 0.621885 1247889460
-0.32424799 0.0858851 0.61838502 1267233884
-0.323982 0.086778499 0.61923999 1267101785
-0.25893301 0.105036 0.64290297 1269074283
-0.150672 0.056505602 0.52850801 1269670799
-0.325003 0.16714901 0.616745 1249007422
-0.168281 0.095965698 0.60659599 1268681848
-0.33200899 0.16583399 0.61636603 1248020015
-0.32575601 0.088546403 0.62047601 1267101015
-0.35162899 0.077639602 0.60346401 1270392977
-0.318483 0.16669101 0.61301601 1248283698
-0.309459 0.180272 0.62566298 1248019245
-0.305125 0.16791099 0.61011899 1248612401
-0.42087799 0.070812397 0.59551901 1269934484
-0.224941 0.085007899 0.52152801 1248811843
-0.36400899 0.149041 0.62247503 1249206601
-0.26167101 0.191504 0.62503803 1248610605
-0.255274 0.182569 0.612948 1248545325
-0.16691899 0.069043703 0.535501 1267696239
-0.21247 0.065785304 0.46594101 1267039595
-0.439174 0.092552803 0.55771202 1267960696
-0.42967701 0.13692001 0.60646802 1248746827
-0.26686499 0.195261 0.62996799 1247822118
-0.34612 0.088575304 0.59812802 1269799808
-0.171582 0.071497701 0.530159 1267301481
-0.16929901 0.073685899 0.52971399 1267564653
-0.225927 0.19085801 0.61381602 1247690532
-0.19745401 0.0482211 0.488168 1268354684
-0.31773001 0.181677 0.62723702 1246505243
-0.421345 0.071997397 0.57490802 1270526368
-0.29156199 0.21279401 0.65605402 1247491619
-0.42084101 0.079840399 0.58602297 1270526619
-0.27332801 0.20244899 0.63918602 1247427108
-0.43064001 0.082295299 0.59108198 1269474193
-0.390466 0.085982397 0.588036 1269670544
-0.401072 0.082133502 0.582968 1270132122
-0.16726799 0.0614332 0.49582499 1249405266
-0.42688099 0.069285199 0.56646901 1270131864
-0.35777801 0.086760901 0.57811397 1269801099
-0.430785 0.104115 0.56788701 1249735264
-0.28188199 0.20125499 0.63928801 1247228702
-0.361698 0.086137898 0.57614797 1268748150
-0.32689601 0.080046304 0.55844402 1270062206
-0.183663 0.063689001 0.499412 1268222583
-0.35617501 0.081782803 0.56735897 1269800586
-0.368938 0.080713801 0.56803501 1268352879
-0.210752 0.067354701 0.465958 1249077334
-0.42910299 0.083459698 0.58577102 1268750983
-0.42715001 0.082642898 0.584032 1269275782
-0.40610701 0.0828171 0.57770801 1267761259
-0.35489401 0.082822099 0.56570798 1269405307
-0.42382601 0.081805199 0.57973599 1266841698
-0.41906199 0.080570102 0.57669401 1267169381
-0.375451 0.0817727 0.56831402 1267629156
-0.361375 0.081756398 0.56497997 1268024169
-0.35380599 0.079402402 0.55953902 1269011064
-0.41607299 0.081505299 0.57689703 1266708315
-0.34484699 0.0821127 0.561055 1268416617
-0.41104999 0.084043197 0.57908797 1249732951
-0.25482199 0.085238002 0.54403001 1266902602
-0.41444099 0.082185701 0.57646698 1248878411
-0.40475401 0.081949599 0.57380903 1249469521
-0.40153 0.083182901 0.574947 1249798484
-0.38890201 0.088569 0.58026397 1266772568
-0.328352 0.081694499 0.55532199 1269404537
-0.269234 0.080624603 0.53967202 1249533764
-0.15622801 0.15497001 0.54466701 1247694391
-0.15279999 0.156174 0.54507101 1248023102
-0.387687 0.090059698 0.58167702 1249074502
-0.34019101 0.086332202 0.56466901 1268153443
-0.340514 0.080069304 0.55511397 1268548201
-0.305444 0.0911538 0.56383502 1268877418
-0.29750499 0.098467097 0.57319701 1268087391
-0.39347199 0.084101498 0.57332098 1249402697
-0.330194 0.082890697 0.55640501 1268417128
-0.44034401 0.109313 0.56901199 1267171178
-0.26375699 0.104831 0.57423902 1267824219
-0.385353 0.086888202 0.57508099 1248810560
-0.37252599 0.090303302 0.57724297 1248548417
-0.36971399 0.088083997 0.57317901 1248811843
-0.366597 0.087544203 0.57160997 1249140808
-0.32894701 0.080893598 0.552459 1267890527
-0.45839101 0.167697 0.56351799 1270395807
-0.249183 0.084522001 0.53897798 1249862988
-0.25162101 0.081988603 0.53568602 1266969169
-0.448291 0.16712099 0.561414 1248549451
-0.42302001 0.098254398 0.60023499 1249339477
-0.37660801 0.086368702 0.57103902 1248284216
-0.29608101 0.100978 0.573259 1267231052
-0.284334 0.102514 0.57276398 1267297356
-0.26258501 0.113388 0.58402401 1249534274
-0.43700001 0.13774499 0.59355599 1267236718
-0.41827101 0.097755902 0.59713399 1248681032
-0.191984 0.0705764 0.501544 1267762032
-0.450937 0.15101101 0.55876201 1268025464
-0.266307 0.081462897 0.53528702 1249336385
-0.40845999 0.109018 0.61049199 1248416833
-0.40261799 0.114018 0.61592001 1249139273
-0.37609401 0.110208 0.60377598 1248020532
-0.191541 0.073707797 0.50430399 1269933455
-0.417698 0.0932886 0.58793402 1267169381
-0.441286 0.16782799 0.58078802 1249405273
-0.43974301 0.16684499 0.58241498 1248482632
-0.444987 0.15448201 0.57384199 1269934486
-0.34374899 0.111386 0.59562302 1249335615
-0.34192401 0.110201 0.59273601 1249730114
-0.337616 0.110111 0.59154701 1249663553
-0.36999699 0.104048 0.58985198 1248942401
-0.33161101 0.109808 0.58894598 1249729601
-0.230786 0.083536699 0.525388 1249336643
-0.427605 0.118072 0.62404603 1266907753
-0.322528 0.109741 0.58593202 1266769470
-0.321538 0.109177 0.58417499 1267164230
-0.31259301 0.110139 0.58338398 1249794619
-0.226944 0.082192697 0.52121502 1248877123
-0.31192499 0.109054 0.58094102 1266966853
-0.307421 0.108215 0.57859898 1266834753
-0.212339 0.046930999 0.465325 1267169119
-0.214486 0.086357899 0.52297902 1249535314
-0.22101299 0.073338002 0.50557399 1267432296
-0.213699 0.072510198 0.502554 1267892846
-0.196054 0.070870802 0.49579099 1269802386
-0.216369 0.044974498 0.46298599 1249799765
-0.235467 0.031173 0.44755 1246970156
-0.33795401 0.10358 0.57806402 1268415584
-0.32642299 0.104362 0.57634097 1268086362
-0.30238599 0.105089 0.571437 1267032387
-0.228222 0.082535498 0.52017999 1248349496
-0.201892 0.070313103 0.495841 1269209738
-0.200578 0.0707976 0.49622101 1269736852
-0.19926099 0.068769798 0.49294001 1268551548
-0.21487901 0.051392902 0.47150001 1268355452
-0.32170501 0.102885 0.57237202 1268086361
-0.234267 0.085808203 0.52582401 1247888169
-0.31648999 0.104178 0.57230198 1268611935
-0.16812199 0.056152601 0.56283998 1269934223
-0.249689 0.083705701 0.525397 1247821863
-0.426568 0.129328 0.63477898 1267631478
-0.30096 0.091809198 0.54930001 1267032381
-0.28877199 0.095451303 0.55087101 1249663030
-0.220884 0.083645299 0.51688701 1247889206
-0.20369001 0.0829781 0.51161599 1248812618
-0.199571 0.077567004 0.50281101 1249801055
-0.20134801 0.0786082 0.50355101 1248747597
-0.41517201 0.077600002 0.63167298 1270460056
-0.41705 0.106741 0.59218901 1267892850
-0.22701301 0.043721799 0.455818 1266907236
-0.193902 0.035057399 0.50329101 1269276547
-0.41602799 0.073187202 0.61704803 1270066070
-0.181224 0.063404702 0.55885202 1268749183
-0.198587 0.050207902 0.53305101 1268947069
-0.226742 0.0442858 0.45567 1249471577
-0.26002601 0.131796 0.71255898 1270391171
-0.175358 0.066886298 0.563447 1268749182
-0.197216 0.0511203 0.53396797 1269012862
-0.417308 0.081843399 0.63236201 1270789793
-0.28126201 0.133725 0.71872902 1269601404
-0.41820699 0.085115097 0.638524 1270395292
-0.19964001 0.13476899 0.48427501 1246245153
-0.41898099 0.080512501 0.623797 1270920611
-0.36387399 0.091391496 0.63587499 1271578541
-0.20318501 0.13121399 0.68967599 1269864312
-0.43394101 0.094413102 0.56787801 1267104617
-0.187994 0.0438569 0.50657099 1268157303
-0.42071801 0.075604796 0.60849702 1269671314
-0.42102799 0.081970401 0.620453 1270724003
-0.443142 0.094021603 0.56794202 1267237484
-0.32870099 0.082893699 0.60620701 1269404021
-0.154799 0.072008297 0.55177099 1269144450
-0.19265901 0.045050099 0.504933 1268816001
-0.42116499 0.073108099 0.59830701 1270262934
-0.16851 0.075380899 0.55557698 1268748411
-0.42231601 0.077082403 0.60352802 1270066070
-0.420632 0.170636 0.654571 1248154437
-0.405148 0.163598 0.64146 1266906725
-0.39064601 0.164611 0.63876098 1267432040
-0.211906 0.066378601 0.46600801 1267038825
-0.422728 0.070987098 0.58636802 1271053478
-0.417207 0.168117 0.64973098 1248878415
-0.17624401 0.067174502 0.53018999 1268947841
-0.42353901 0.069636397 0.58103299 1270592674
-0.37124899 0.085783601 0.60054803 1270327445
-0.173553 0.069736801 0.53130603 1268025715
-0.424584 0.071255401 0.582425 1270329242
-0.154782 0.068098098 0.52311701 1268749696
-0.358722 0.168028 0.62982303 1248877636
-0.204201 0.082227103 0.48072401 1249208407
-0.19475301 0.064473599 0.51390898 1268748413
-0.21907599 0.037412699 0.47198299 1267762283
-0.37368399 0.167468 0.63181001 1247363637
-0.197871 0.063734099 0.51059598 1269472134
-0.40531299 0.080763601 0.58210802 1270591644
-0.39148501 0.0835144 0.58388001 1270197400
-0.20956901 0.0500741 0.48844701 1268947071
-0.40085199 0.048087601 0.52455598 1270789023
-0.37154299 0.083978496 0.57918102 1269998478
-0.352898 0.083553702 0.57449901 1270326924
-0.192022 0.064937301 0.50875598 1268946306
-0.37581 0.083587296 0.57879198 1269867408
-0.195767 0.066580102 0.50967699 1268946563
-0.34156799 0.168106 0.62219101 1247954740
-0.428969 0.083900303 0.58594298 1269210761
-0.42603099 0.083447702 0.58397502 1268948360
-0.41903499 0.084729701 0.58455402 1269012353
-0.31293899 0.169213 0.61557001 1249665347
-0.193775 0.065539397 0.50360799 1267038309
-0.30204201 0.17200901 0.61596203 1266903628
-0.420551 0.059175201 0.541866 1267829367
-0.41590601 0.085441902 0.58327001 1267827309
-0.36153701 0.080707103 0.56352597 1269075828
-0.226521 0.082135499 0.53602701 1269075060
-0.184288 0.072191797 0.51045799 1267498860
-0.41083199 0.086371399 0.58307302 1267563624
-0.402417 0.0795044 0.57002699 1268023659
-0.408618 0.086299099 0.58187199 1267102561
-0.331864 0.168165 0.61881602 1247821614
-0.41550499 0.0660014 0.54995501 1249404753
-0.277136 0.0766747 0.53639901 1267231828
-0.207167 0.055080298 0.485845 1268157560
-0.179162 0.075526103 0.51202202 1267170149
-0.39022601 0.0845863 0.57322699 1267100755
-0.38926801 0.086734697 0.57647002 1266969169
-0.385795 0.089740098 0.58052999 1249731409
-0.295479 0.100454 0.57753402 1268877417
-0.26390299 0.084374301 0.54457498 1267101007
-0.220072 0.108348 0.57334203 1267823449
-0.39937499 0.086658999 0.57802099 1249336903
-0.37734199 0.087680899 0.57471001 1267101268
-0.36994499 0.0881062 0.57372999 1266969684
-0.33035299 0.082526401 0.55587697 1268483689
-0.31670201 0.081588 0.55130202 1269601654
-0.20773301 0.056736398 0.48692399 1268091510
-0.42411599 0.078493297 0.569938 1249143125
-0.42972699 0.13878199 0.60723698 1248747088
-0.385389 0.0878653 0.57621002 1248810811
-0.37516499 0.089061096 0.57582003 1249271363
-0.33021 0.083893701 0.557419 1267891039
-0.33014101 0.078139 0.54819298 1268482919
-0.32500601 0.077712901 0.54635298 1268745579
-0.233629 0.136443 0.61975801 1268021604
-0.22913399 0.082106397 0.53177899 1268023397
-0.149978 0.177286 0.57328802 1247691562
-0.36956501 0.087272398 0.57108599 1249007681
-0.223253 0.102013 0.56154799 1267298645
-0.276106 0.076859601 0.53272998 1249139263
-0.26207599 0.086448602 0.54481101 1249600068
-0.29907101 0.0909523 0.55969602 1268217947
-0.26322001 0.121573 0.60013902 1267758424
-0.27731299 0.102078 0.57168001 1267297873
-0.18433601 0.073721498 0.50562799 1266972770
-0.422694 0.101631 0.60346198 1267170155
-0.41810301 0.094214998 0.59071201 1249603163
-0.23027401 0.0319837 0.44874701 1247168551
-0.410153 0.107464 0.607813 1249140812
-0.40846699 0.107976 0.60822499 1248811846
-0.40377399 0.111006 0.61188501 1248877639
-0.37738299 0.114785 0.61172003 1248283959
-0.37534299 0.115632 0.61257398 1248218167
-0.216383 0.060123201 0.48913601 1269274756
-0.208101 0.058847401 0.48523301 1268552061
-0.424564 0.107719 0.61088097 1268222586
-0.408923 0.107522 0.60696101 1249536084
-0.40847799 0.107185 0.60633302 1249338705
-0.37262499 0.110193 0.60274798 1247889206
-0.37194401 0.111348 0.60439301 1247691570
-0.367006 0.112414 0.60491598 1247164714
-0.15005399 0.15670501 0.54106998 1245852198
-0.219745 0.044892799 0.46558899 1267564905
-0.206899 0.059990801 0.48560801 1268815233
-0.34484699 0.117207 0.60580301 1249269820
-0.35878801 0.107409 0.59315902 1249861961
-0.34337401 0.116178 0.60313499 1249796164
-0.233165 0.085969798 0.53077 1249534275
-0.23651201 0.031643901 0.44752601 1248876604
-0.222844 0.072556697 0.507016 1268156274
-0.43005699 0.13601001 0.58836699 1268092027
-0.32320699 0.112167 0.58936799 1267428681
-0.31702399 0.112331 0.58816701 1267163717
-0.31385401 0.113422 0.58908898 1267032131
-0.30514401 0.114052 0.58800602 1249860409
-0.222316 0.080003202 0.51647002 1266971740
-0.31525701 0.103516 0.57359099 1267427142
-0.300531 0.114253 0.58649403 1266835263
-0.20289899 0.069520101 0.49527699 1269605521
-0.35078701 0.106188 0.58537102 1268942698
-0.34202901 0.104706 0.58104903 1268810597
-0.33427101 0.106298 0.58163702 1268481632
-0.33165199 0.106784 0.58175802 1268284253
-0.29867601 0.111074 0.58049101 1266966592
-0.298112 0.111138 0.58045501 1266900799
-0.236248 0.085496403 0.52685201 1248414512
-0.22134501 0.080926001 0.51638198 1249733972
-0.23532701 0.031854901 0.44507 1245195298
-0.323255 0.106567 0.57876199 1268677469
-0.30326501 0.097437099 0.560184 1267098174
-0.23006301 0.083263099 0.52135801 1247758127
-0.229056 0.083264202 0.52112198 1248021298
-0.283512 0.10599 0.56707603 1266768182
-0.204365 0.088371798 0.52167797 1249667416
-0.28276801 0.100373 0.55775702 1249662005
-0.21449 0.076722801 0.50591302 1249469778
-0.170009 0.144329 0.50419301 1248878929
-0.202663 0.077794597 0.50408202 1249536341
-0.19904099 0.074836403 0.498781 1267696752
-0.19543099 0.074294902 0.49710599 1268420475
-0.424523 0.113142 0.60948497 1267828338
-0.27803001 0.083501197 0.53005999 1248479015
-0.21039499 0.075210899 0.501454 1249272910
-0.203225 0.074440204 0.49858299 1249866587
-0.17387401 0.11415 0.468326 1267366504
-0.42634299 0.11643 0.61418599 1268091510
-0.20926701 0.0618378 0.48064601 1267894131
-0.20243201 0.082311399 0.50889099 1248219454
-0.20783199 0.0638832 0.482797 1268420475
-0.21459199 0.0575318 0.47498301 1267433580
-0.192573 0.082237497 0.50577003 1248680775
-0.187306 0.082216702 0.50446701 1249273171
-0.20693199 0.064637303 0.48314601 1268420475
-0.225926 0.042891901 0.45549601 1249339216
-0.21818499 0.054945201 0.47098801 1268552061
-0.44535899 0.121406 0.61967701 1267169897
-0.22358599 0.047320802 0.45776701 1267236203
-0.435018 0.080263801 0.55702698 1268421247
-0.42538899 0.116797 0.60745698 1267433067
-0.165058 0.107322 0.52887499 1248417349
-0.22507 0.047237001 0.45618701 1249274200
-0.220073 0.052133199 0.460076 1267236975
-0.43535301 0.091265 0.56890398 1267433582
-0.24815799 0.030671701 0.43631899 1248087861
-0.34853101 -0.092299901 0.81554198 1268416878
-0.21984001 0.0529208 0.46019301 1267039594
-0.37029499 0.13854399 0.61795801 1267693152
-0.43446499 0.0904743 0.565561 1267763062
-0.434167 0.090623498 0.56569397 1267105132
-0.10552 -0.126587 0.740264 1268284267
-0.44738501 0.10385 0.58644098 1268289921
-0.262045 0.26386201 0.76051199 1268085845
-0.217475 0.056660999 0.46151099 1249867361
-0.247486 0.0325789 0.435514 1246970157
-0.215841 0.0586951 0.46294299 1267170410
-0.24184801 -0.105209 0.78386301 1269072740
-0.421828 0.1516 0.642658 1268486270
-0.43331099 0.094012201 0.56617099 1267302764
-0.434836 0.108074 0.58250701 1267038309
-0.21354 0.063301601 0.46474499 1267236971
-0.246859 0.034813501 0.43511799 1246313247
-0.21241 -0.107074 0.77923298 1268547164
-0.179518 0.17236 0.59708899 1248346920
-0.247307 0.035663702 0.434201 1245852190
-0.20497701 0.0789482 0.47975001 1249800544
-0.43034801 0.065267302 0.52076203 1269210763
-0.43232501 0.10157 0.56901598 1267960953
-0.419835 0.16591699 0.65032202 1267235690
-0.204842 0.079600297 0.48003599 1249405786
-0.20919199 0.068244599 0.466254 1249603416
-0.41572601 0.167455 0.65050697 1266972002
-0.41812399 0.167713 0.64849699 1246905137
-0.211522 0.069172204 0.465626 1249537627
-0.184304 -0.105665 0.72368902 1269533037
-0.43871599 0.097967997 0.56306201 1268618624
-0.43156499 0.106138 0.57120597 1267697269
-0.41173699 0.166425 0.64364898 1248484168
-0.41023701 0.167257 0.643583 1248549702
-0.402679 0.166842 0.64102298 1248944717
-0.33839399 0.17084999 0.62894398 1268022109
-0.33031201 0.16984899 0.62549102 1268415837
-0.44370899 0.093737401 0.55754298 1269606032
-0.39400601 0.168669 0.64029998 1248943947
-0.37745801 0.167164 0.63392502 1248548935
-0.32655799 0.174384 0.62951601 1268415837
-0.206214 0.074124403 0.46860799 1249735262
-0.398534 -0.074877404 0.75264102 1269670544
-0.43928999 0.096492097 0.55941999 1267894899
-0.423307 0.185038 0.66837299 1247035437
-0.39147899 0.16562399 0.63497901 1247298610
-0.38316101 0.16692799 0.63441002 1247627065
-0.372453 0.167807 0.63265198 1248548419
-0.36219701 0.168062 0.63021898 1249073734
-0.36160401 0.168175 0.63020498 1249007941
-0.199653 0.087215498 0.48308501 1249735264
-0.422708 0.184218 0.66637897 1245258774
-0.383275 0.16690899 0.63367301 1246771499
-0.37889099 0.16643301 0.63188499 1246706218
-0.372578 0.167842 0.63198 1247495475
-0.362492 0.167253 0.62851 1248086583
-0.36139899 0.16701899 0.62791699 1248020791
-0.41507199 0.171859 0.64781398 1246771749
-0.40637499 0.172846 0.64672202 1247824698
-0.36811399 0.16840599 0.63074398 1247363116
-0.35153499 0.16831701 0.62615502 1249073219
-0.33265001 0.16882899 0.62170702 1249402176
-0.40806299 0.171829 0.64514101 1246903339
-0.40148801 0.17357101 0.64557302 1247297840
-0.392014 0.173024 0.64231598 1247823413
-0.34141001 0.167726 0.62190801 1248547128
-0.43462601 0.100682 0.56159401 1268158332
-0.43044701 0.109282 0.57134098 1267105387
-0.32863399 0.169607 0.62006801 1248414515
-0.322932 0.167226 0.61551201 1249203516
-0.34992301 -0.063081503 0.689008 1269206642
-0.31487399 0.168505 0.61417502 1249072184
-0.386464 -0.056249801 0.70722902 1270130063
-0.424523 0.18284599 0.66126001 1247232048
-0.341683 0.17080601 0.62358999 1247625516
-0.30076501 0.171937 0.61388803 1249334329
-0.20093399 0.089071997 0.48249501 1249867620
-0.246672 0.039760198 0.43289199 1245720867
-0.30498999 0.170003 0.611826 1248807474
-0.29417899 0.174463 0.61447799 1249399355
-0.29029 0.166247 0.60311002 1249727550
-0.27674401 0.189207 0.628227 1249793599
-0.3168 0.176164 0.621984 1247754279
-0.26872399 0.190626 0.62696099 1248807731
-0.26491201 0.184268 0.61796701 1248874290
-0.26259199 0.177165 0.608446 1249269561
-0.204684 0.0793733 0.470294 1266710881
-0.43899801 0.108424 0.570068 1269079175
-0.43181801 0.124039 0.58758903 1249735262
-0.25446901 0.181996 0.61143798 1248282667
-0.244721 0.18427099 0.61161202 1248151594
-0.227338 0.19875699 0.62493801 1248414511
-0.21549401 0.205633 0.63028002 1248348972
-0.21454801 0.20587 0.63031697 1248283179
-0.20013499 0.20452499 0.62470102 1248413223
-0.19925 0.091705702 0.48368901 1249801313
-0.43015799 0.113144 0.57302499 1267630959
-0.29904699 0.177856 0.61765599 1247753760
-0.292355 0.17852999 0.61666399 1247950112
-0.26950699 0.190373 0.62514502 1247689250
-0.257644 0.19282199 0.62494498 1248413232
-0.258461 0.181575 0.61117297 1247295521
-0.25575501 0.18054999 0.60915798 1247492898
-0.249221 0.181225 0.60820901 1247625251
-0.230055 0.19452401 0.61950999 1247624997
-0.202814 0.198064 0.616458 1248150311
-0.20015401 0.091728203 0.48341399 1249472092
-0.24426401 0.042137399 0.43378201 1246575910
-0.238282 0.187558 0.61223698 1247296548
-0.226797 0.17698599 0.59596801 1247361055
-0.204863 0.17641 0.58840698 1247426594
-0.241832 0.0441898 0.43493801 1247299116
-0.232922 0.181631 0.60173899 1246244124
-0.20009901 0.175978 0.58573198 1247164708
-0.44241801 0.099696003 0.55780298 1267631727
-0.247436 0.043354198 0.43436801 1247232813
-0.192085 0.173324 0.57778901 1246375968
-0.427028 0.180856 0.65123802 1247035698
-0.173406 0.172794 0.57115299 1245916440
-0.165252 0.173737 0.57004601 1246639393
-0.161338 0.171444 0.566163 1246573346
-0.156252 0.16286799 0.553491 1246969389
-0.15520801 0.154713 0.54327399 1247233076
-0.141862 0.15394101 0.53863198 1248484427
-0.071764 -0.0264508 0.67693901 1268025462
-0.385187 -0.00042981701 0.76605302 1268220776
-0.17505699 0.168874 0.56521499 1245455639
-0.16802999 0.169543 0.56407398 1245783831
-0.156783 0.166425 0.55716401 1245983011
-0.15571199 0.158041 0.54668897 1246771758
-0.19142701 0.101712 0.48823199 1266840933
-0.34493899 0.00251459 0.76667398 1268614246
-0.233512 0.0531426 0.44096401 1247759411
-0.42954901 0.123612 0.57991302 1267368047
-0.162677 0.163462 0.55362898 1244996375
-0.428233 0.179749 0.645886 1247035703
-0.157029 0.157023 0.54275203 1244864791
-0.15424199 0.148624 0.53188699 1245917989
-0.44279701 0.113483 0.569902 1269079175
-0.160623 0.147631 0.53175002 1245523232
-0.31824899 -0.020843299 0.69194299 1269797740
-0.057787798 -0.27448499 0.777457 1269735819
-0.440413 0.116942 0.57287401 1267762547
-0.43123701 0.140239 0.59811997 1267169897
-0.168093 0.135371 0.51847899 1248286278
-0.184551 0.100868 0.481893 1267434352
-0.056715999 0.0032656901 0.73696798 1266773597
-0.186251 0.11007 0.49217999 1249472092
-0.240449 0.048025001 0.43374601 1244145178
-0.37582201 -0.0571661 0.710186 1269340799
-0.39721799 -0.000420108 0.72905898 1249865817
-0.42545801 0.155999 0.61342198 1244468496
-0.18497001 0.097815402 0.47671801 1266906976
-0.38714701 0.0048988 0.72622001 1268419698
-0.178343 0.103272 0.47793701 1249274198
-0.15926901 0.145064 0.52050602 1247300160
-0.18278401 0.11716 0.494782 1249339224
-0.188655 0.10647 0.484034 1249801574
-0.44707501 0.106024 0.556701 1268882055
-0.182253 0.118288 0.495341 1249010259
-0.238341 0.050780602 0.433119 1246379817
-0.24225 0.048358999 0.43142799 1244867094
-0.398027 0.0062473998 0.72429001 1268683388
-0.44744501 0.107245 0.55777001 1269605778
-0.275576 0.13939001 0.54455298 1245453843
-0.187516 0.115821 0.492221 1249273173
-0.19069 0.100665 0.47571099 1266775139
-0.42839301 0.13899501 0.587349 1268617852
-0.14551701 -0.23418701 0.81561899 1268941665
-0.17682099 -0.229802 0.84802997 1268151384
-0.160624 0.23418801 0.615753 1245060377
-0.18724699 0.125686 0.50042403 1246970423
-0.070598803 -0.245194 0.79187298 1268088931
-0.43112901 0.13696299 0.58255702 1270131865
-0.198662 -0.224306 0.898112 1267955809
-0.40164 0.0054626898 0.71507299 1269012349
-0.208949 -0.0294248 0.62053502 1249665869
-0.17743599 0.117063 0.48548901 1249735009
-0.17838 -0.021701699 0.63002402 1249733974
-0.17670099 0.129915 0.499071 1249208665
-0.18521599 0.105654 0.473876 1267631211
-0.17453501 0.133551 0.50063199 1249076819
-0.062214099 -0.243568 0.87363601 1268483437
-0.43730101 0.16645899 0.61266297 1269934744
-0.42896801 0.16148899 0.60474002 1247627580
-0.33950901 -0.19092201 0.87858301 1269866894
-0.042380001 -0.24486101 0.856556 1268221293
-0.44755301 0.124796 0.56922001 1268354684
-0.429499 0.165062 0.60822803 1247758908
-0.178877 0.107659 0.47155699 1267695725
-0.237087 0.056743901 0.431889 1245262112
-0.43796101 0.164408 0.60819101 1269342607
-0.21444499 0.49257001 0.89883399 1247817502
-0.179254 0.136492 0.50090998 1247760192
-0.17760199 0.119403 0.48182401 1249537885
-0.39748901 -0.16276599 0.81687999 1269472650
-0.452618 0.225026 0.67635697 1267763062
-0.434138 0.17536999 0.61651599 1269605778
-0.28512099 -0.109016 0.78406501 1269730399
-0.158719 0.159336 0.51696002 1245259296
-0.175074 0.120983 0.480519 1267038824
-0.176421 0.110388 0.469513 1249799774
-0.173801 0.141315 0.501405 1249274202
-0.176945 0.114291 0.473324 1267564141
-0.37011501 -0.145923 0.75952101 1269011070
-0.45050699 0.130236 0.57119101 1267565168
-0.354783 -0.14743 0.754197 1268219749
-0.43682301 0.150103 0.587309 1269935773
-0.173622 0.12516899 0.48057899 1268223098
-0.176103 0.116048 0.471688 1267433582
-0.272414 0.121165 0.5054 1246372887
-0.430603 0.1508 0.58348602 1249339736
-0.37719101 0.227035 0.64754599 1246898720
-0.22772799 0.193727 0.56770498 1245979416
-0.167465 0.154066 0.50795603 1246640940
-0.18068799 0.109186 0.46477601 1267235172
-0.175703 0.116913 0.47085699 1267763317
-0.43608099 0.141307 0.57414103 1270263451
-0.42999101 0.14928301 0.58064198 1247232050
-0.16089 -0.16682801 0.714499 1268611928
-0.436555 0.141597 0.57407999 1270066072
-0.176438 0.124761 0.478181 1266841188
-0.25422901 0.050703 0.424445 1246378020
-0.184227 0.107609 0.46214899 1267235685
-0.424146 -0.204207 1.02633 1269473165
-0.17101 0.15251701 0.50419402 1247693628
-0.43202299 0.153385 0.58338201 1249732958
-0.20886201 0.222269 0.58628201 1246833438
-0.102691 -0.240043 0.80561298 1268876905
-0.16889 0.152788 0.50130099 1266775140
-0.149958 0.16329999 0.50633001 1267301484
-0.069732301 -0.24385101 0.79513299 1267628384
-0.16330799 0.17612 0.521442 1245257499
-0.176434 0.148075 0.496925 1248878673
-0.187903 0.25481099 0.608051 1246899231
-0.16319799 0.128855 0.471674 1266973287
-0.190276 0.13138799 0.48195499 1249537114
-0.44337299 0.15386499 0.58153099 1267763574
-0.440855 0.149836 0.57621002 1269737365
-0.43750599 0.163433 0.58878398 1270066329
-0.20942 0.092388801 0.44771701 1249208916
-0.206277 0.120307 0.473658 1267104102
-0.212378 0.090832002 0.44620901 1249603417
-0.44252399 0.15557601 0.58038998 1270329502
-0.0589564 -0.243313 0.79536903 1267037019
-0.43517101 0.154525 0.57605499 1248879442
-0.443719 0.157079 0.58069497 1269605778
-0.31714299 -0.199499 0.88638401 1268681844
-0.43567601 0.15477499 0.57543302 1249800544
-0.16309901 0.13761 0.47418401 1267696754
-0.0834594 0.41161501 0.71639502 1247425832
-0.44081101 0.145376 0.56685901 1271448239
