# .PCD v0.7 - Point Cloud Data file format
VERSION 0.7
FIELDS x y z rgb
SIZE 4 4 4 4
TYPE F F F U
COUNT 1 1 1 1
WIDTH 1060
HEIGHT 1
VIEWPOINT 0 0 0 1 0 0 0
POINTS 1060
DATA ascii
0.076922499 -0.55139798 -0.085574299 1245329469
0.139217 -0.55141801 -0.0593131 1268357268
-0.192086 -0.56578797 -0.058991101 1267630446
-0.17074201 -0.56756598 -0.031834699 1267692840
0.069832802 -0.63520402 -0.166091 1270983833
0.082559802 -0.55050498 -0.082839198 1245789241
-0.148753 -0.570261 0.0116904 1247891521
0.0537742 -0.64097399 -0.16223501 1249539694
0.085583799 -0.55024397 -0.079673499 1245591862
0.053915899 -0.640764 -0.16101199 1248091993
0.067845099 -0.63108701 -0.170063 1266972527
0.070534497 -0.63134003 -0.168971 1272761271
0.11886 -0.552279 -0.040505599 1247106399
-0.18672299 -0.56277698 -0.058804899 1268158588
-0.21322 -0.56665999 -0.032288902 1267371374
-0.129023 -0.56758499 0.0178011 1245656110
0.096414901 -0.54889601 -0.074367702 1245921089
0.097067699 -0.54841697 -0.0764217 1246052420
0.053683199 -0.63956702 -0.1601 1248420187
0.101609 -0.54779798 -0.075973801 1246249799
-0.126884 -0.56469798 0.010351 1246051123
-0.198661 -0.56061298 -0.0571776 1245856833
0.107216 -0.54369301 -0.102445 1247895397
-0.0115487 -0.554012 -0.033018 1244933941
0.070400096 -0.62652302 -0.171451 1272366002
-0.145328 -0.56007701 -0.0172667 1247498302
0.067484297 -0.62913299 -0.16833299 1249208416
0.052975699 -0.63891399 -0.158558 1249735790
0.095682196 -0.74768001 0.0043929801 1246577476
-0.117864 -0.558801 -0.0116368 1246051122
0.123267 -0.547059 -0.045104101 1246975840
0.12431 -0.547391 -0.0408618 1248290940
0.14635199 -0.544038 -0.070091099 1270266804
-0.20491099 -0.55843103 -0.048294298 1247827009
0.052852899 -0.63850302 -0.15801901 1249735790
0.053182598 -0.638695 -0.15765999 1248814689
0.067379899 -0.62844402 -0.16791099 1249274209
-0.10625 -0.55419803 -0.031332701 1245984816
-0.022765599 -0.55147398 -0.0294098 1226775324
0.0158739 -0.548576 -0.049151398 1244474158
-0.114228 -0.55388898 -0.0250652 1246774588
0.12288 -0.54407799 -0.046029799 1246843997
0.083319299 -0.63393599 -0.15466399 1246906700
0.026670201 -0.546534 -0.052092299 1243750436
0.123977 -0.54413301 -0.041214298 1248817031
0.12600701 -0.542606 -0.060985301 1267238304
-0.178234 -0.55543202 -0.017708801 1248746288
-0.122526 -0.55169302 -0.044140201 1245594415
-0.126817 -0.55289203 -0.029571399 1246382388
-0.104115 -0.551494 -0.0386099 1245722158
-0.105417 -0.55172998 -0.0359497 1245064487
0.0250565 -0.54648101 -0.0495997 1245000502
0.025279799 -0.54670298 -0.046441101 1244474158
0.0674228 -0.626652 -0.1665 1267892855
-0.231966 -0.557024 -0.0143318 1267495764
0.0675731 -0.54319602 -0.072237499 1245262643
0.13425501 -0.53859401 -0.100812 1268688803
0.052746098 -0.63789803 -0.15342601 1247367756
0.040768199 -0.543504 -0.052506302 1244605228
-0.21466 -0.551916 -0.035615299 1248417872
-0.22555301 -0.551754 -0.0179216 1266904900
0.14257 -0.53775299 -0.076961197 1269280939
-0.106368 -0.54610401 -0.044740502 1245985075
-0.096310601 -0.54734701 -0.0042711198 1226709277
0.120902 -0.53845102 -0.053851601 1247632741
0.0668694 -0.62757999 -0.161255 1249010787
0.0306917 -0.53991598 -0.050949201 1247824447
0.066582903 -0.53813797 -0.068396002 1244737332
-0.12608901 -0.63919997 0.0061389501 1248548940
0.032038201 -0.53972602 -0.048225801 1247493679
0.097808197 -0.536735 -0.075719297 1245920827
-0.0103967 -0.83291101 -0.095857099 1269999772
-0.223841 -0.64041299 -0.0084581999 1249075802
0.075502098 -0.61971301 -0.16671699 1270920107
0.103614 -0.659329 -0.099379703 1246053192
0.125717 -0.535689 -0.0439636 1247961708
0.067076199 -0.62352997 -0.16264801 1248681819
-0.114158 -0.54348397 0.030990999 1226512668
0.096906699 -0.56816202 -0.151324 1269800596
0.079516798 -0.53555399 -0.061732601 1244737330
-0.0275987 -0.53800398 -0.053959299 1243881253
0.146845 -0.533234 -0.070325702 1268556448
0.075690299 -0.61879599 -0.16583601 1270591658
0.0216695 -0.53675699 -0.032518599 1269988171
0.108722 -0.61317497 -0.16456699 1246580047
0.055110998 -0.53518403 -0.049645402 1249404757
0.12747601 -0.623505 -0.141881 1247105108
0.14884 -0.532143 -0.067556098 1268819620
0.0463042 -0.53397 -0.069184497 1272096361
0.110123 -0.61794603 -0.155019 1245987656
0.061246298 -0.53378397 -0.055774201 1267166043
0.110541 -0.620202 -0.151035 1245329727
0.097461604 -0.62685299 -0.143271 1245987910
-0.089846998 -0.53437001 -0.083482496 1246710344
0.0187087 -0.78540999 -0.115157 1270987434
0.071147501 -0.53206199 -0.052791301 1249864020
0.111839 -0.53152299 -0.042939499 1246645327
-0.087666303 -0.53400898 -0.0854064 1245262642
0.073619299 -0.531537 -0.050005801 1267036515
0.080690697 -0.53029197 -0.0534297 1248746318
0.14145 -0.63551003 -0.114397 1274077395
-0.102158 -0.65958101 -0.14607 1245589301
0.029459501 -0.63717699 -0.143574 1246840646
0.056871001 -0.65557498 -0.188196 1248091227
-0.085114099 -0.602166 -0.070458896 1246641974
0.019213799 -0.52992201 -0.0185585 1249402691
-0.101587 -0.65784597 -0.1476 1247233347
0.090545401 -0.528386 -0.0431468 1248021574
0.108559 -0.52819401 -0.033751599 1246447948
-0.202906 -0.628501 -0.00769728 1245723447
0.095018797 -0.52748299 -0.050853498 1249667935
0.076236002 -0.52743298 -0.064106002 1270781282
0.045257099 -0.52761102 -0.0511433 1267626581
0.0486633 -0.52760297 -0.0326376 1270125166
0.073286898 -0.61846799 -0.157746 1269602960
-0.0083109997 -0.606224 -0.0291056 1247630415
0.101867 -0.52635598 -0.0469459 1247235403
0.0105888 -0.52699602 -0.082432702 1244078375
0.070309304 -0.61965901 -0.155457 1248944737
-0.192985 -0.62680697 0.00053295499 1245920821
0.099757701 -0.524068 -0.051596399 1268545373
0.133268 -0.52291697 -0.0240524 1266778489
0.067723803 -0.52279299 -0.0143803 1270123884
0.070227697 -0.62029302 -0.154035 1248681822
0.104732 -0.52245599 -0.0495454 1248221780
0.124983 -0.61557102 -0.14584599 1271577010
0.0077191899 -0.75652403 0.050258499 1268288643
0.150407 -0.76243502 0.101253 1247828574
-0.116808 -0.73403698 -0.0216255 1247366730
0.054285102 -0.52065098 -0.0239092 1269863800
0.125009 -0.71699798 0.0214922 1248684129
-0.032111101 -0.61459303 -0.191413 1246511683
0.0076279598 -0.52091998 -0.087678798 1244209700
0.099518903 -0.51914799 -0.049584601 1248616018
0.106101 -0.51912802 -0.049838498 1245986878
0.011159 -0.52030498 -0.084010497 1249602404
0.081252404 -0.51896298 -0.0496209 1269271395
0.121174 -0.519885 -0.084256202 1249211763
0.118996 -0.51904303 -0.0782094 1248422762
0.100926 -0.51862198 -0.071155198 1247630153
-0.0066656098 -0.64235097 -0.134876 1270197666
0.027749799 -0.61141598 -0.17653701 1270525087
0.099371903 -0.51712799 -0.056873798 1247827270
0.067653701 -0.51463902 -0.0468865 1268483436
0.118841 -0.60604501 -0.15898 1270196898
0.0108002 -0.51573098 -0.094857 1246641710
0.098838598 -0.51420701 -0.062524296 1247695169
0.10035 -0.51466799 -0.0753785 1248945497
0.180641 -0.51051599 0.0048160902 1270858425
0.0066342899 -0.51526701 -0.095096499 1226315030
-0.075225003 -0.628878 -0.17599 1247561542
0.111115 -0.513978 -0.066468999 1246909010
0.066670701 -0.51257598 -0.052839201 1268879988
0.076972298 -0.61621797 -0.152052 1269076868
0.14046 -0.62977803 -0.109574 1273485256
0.099830903 -0.51286799 -0.075673498 1247892805
0.067687102 -0.61513603 -0.15488701 1268354947
0.110576 -0.511379 -0.0693857 1247041109
0.067271799 -0.61486101 -0.154616 1271709620
0.0771752 -0.61694998 -0.148128 1270194835
0.081589401 -0.61271501 -0.15109099 1249143653
-0.098928697 -0.64203298 -0.151768 1248351309
0.134628 -0.61763197 -0.125485 1273024707
0.0048425999 -0.511195 -0.093745999 1244537891
0.0678702 -0.61456198 -0.15009999 1271379369
0.076884501 -0.61694002 -0.143242 1271050657
0.081488103 -0.61187702 -0.15083501 1249669997
0.099756598 -0.509507 -0.073069699 1248682323
0.0127566 -0.50932002 -0.095507704 1247562292
0.130814 -0.56510001 -0.113566 1271842744
0.151318 -0.62092298 -0.110257 1269990783
-0.083316803 -0.62685198 -0.167952 1268484475
0.108074 -0.50746202 -0.088780701 1246514252
-0.117904 -0.58929801 0.0147429 1244804661
0.075094499 -0.582241 -0.057168201 1274275803
-0.137935 -0.784639 0.110981 1270066080
0.14156599 -0.57205498 -0.079962298 1268751760
-0.183899 -0.68285203 -0.089932099 1268352631
0.081016198 -0.60852498 -0.148004 1268223112
0.076081499 -0.58111101 -0.060425799 1268683145
0.0664462 -0.61394501 -0.150544 1267433070
-0.117437 -0.588247 0.0149182 1244080938
0.13431001 -0.55888402 -0.13483299 1270397104
-0.189651 -0.68384302 -0.083371997 1268286838
0.080876298 -0.60758698 -0.147 1268552334
0.129849 -0.600725 -0.14491899 1274014180
-0.171341 -0.598894 -0.050910302 1267431011
0.0237046 -0.59886998 -0.17763101 1269736084
0.131602 -0.566616 -0.099366099 1270065565
0.0023275199 -0.66498297 -0.054015499 1270656156
-0.114072 -0.583915 0.0108321 1244081192
0.034266699 -0.63314199 -0.104535 1270919071
0.043452699 -0.564417 -0.063215598 1246185279
0.080512799 -0.60446399 -0.14643499 1268816019
0.053284802 -0.61306602 -0.137172 1271313574
-0.204779 -0.68804199 -0.066040099 1268616061
-0.00335091 -0.57645297 -0.225907 1266707807
0.0611367 -0.640948 -0.078370899 1271379109
0.064925604 -0.648027 -0.0624361 1271050657
0.023023499 -0.65949899 -0.055633899 1271842228
-0.030543201 -0.62298399 -0.139984 1266773348
-0.21030401 -0.69813102 -0.040928099 1269538705
-0.00036404299 -0.59908402 -0.17734499 1267758697
-0.20341501 -0.68396997 -0.0656159 1268484218
-0.210685 -0.69876099 -0.036775101 1269142405
0.0837401 -0.55544603 -0.09426 1273554647
-0.060590498 -0.58523202 -0.069842599 1247564622
0.122166 -0.58583897 -0.165314 1274605548
0.133691 -0.60912901 -0.11368 1270525089
0.137144 -0.61443102 -0.100585 1269932952
0.067828402 -0.56148201 -0.054339301 1247632212
0.026613699 -0.64129603 -0.078146197 1269402746
0.036935199 -0.66122901 -0.033812299 1269271414
-0.214715 -0.68692797 -0.053496201 1267958131
-0.216323 -0.69872099 -0.029333999 1269142148
0.080286197 -0.60946703 -0.125322 1269863812
0.094357401 -0.61493897 -0.108373 1269666690
0.103659 -0.62333298 -0.087876402 1269338497
0.114389 -0.63049001 -0.068835102 1269404288
-0.221496 -0.68956602 -0.046046499 1268616576
0.128956 -0.54575998 -0.136989 1269015188
0.128673 -0.54559302 -0.137318 1270330790
0.113053 -0.61538798 -0.099849597 1270128524
0.102693 -0.55096602 -0.104306 1273948119
0.1096 -0.550969 -0.101914 1274013146
0.0825295 -0.55288202 -0.095188901 1246316611
0.098811701 -0.55068898 -0.106405 1267171701
0.113017 -0.57828301 -0.17738 1270983584
-0.22389799 -0.68918699 -0.042478599 1268222332
-0.220347 -0.69755298 -0.0234314 1268945792
-0.22630601 -0.68753099 -0.039487399 1267761524
-0.225408 -0.697824 -0.016653201 1268550522
-0.0455647 -0.58380902 -0.053808201 1245524528
0.10431 -0.54886299 -0.114695 1269144976
0.047926001 -0.55678999 -0.070164204 1245658940
0.124191 -0.54404998 -0.142507 1268160401
-0.126215 -0.576047 0.030838899 1244407846
0.058036499 -0.55369401 -0.0845403 1245790528
-0.019031299 -0.57382798 -0.086716197 1245260584
-0.26043099 -0.683662 -0.0090029202 1248679497
0.064894199 -0.55263102 -0.083999999 1245396025
-0.21751501 -0.67823303 7.9065598e-05 1267758695
0.044188801 -0.57597899 -0.17835601 1248416324
0.054056101 -0.55440599 -0.070880003 1245922368
-0.247026 -0.67376202 -0.019624799 1247560511
-0.22218201 -0.667494 -0.0277807 1268137270
0.0687069 -0.57260299 -0.17518599 1249731413
-0.25621799 -0.67223001 -0.016258599 1246445115
-0.259083 -0.672068 -0.0123029 1247035709
0.125434 -0.542041 -0.142189 1268094606
0.079047203 -0.57353199 -0.165682 1249338459
-0.230831 -0.66135401 -0.0280736 1247626041
-0.26860201 -0.67243201 -0.00056144601 1247430728
0.0845863 -0.54649699 -0.112801 1245922113
0.104301 -0.57364798 -0.150883 1269207937
0.128087 -0.56280398 0.056565799 1248095086
0.0297819 -0.57865202 -0.160778 1267958395
0.033417098 -0.578556 -0.15985 1267367026
-0.12434 -0.65491903 0.0047949599 1267629168
0.107808 -0.57551003 -0.142031 1267827578
0.108163 -0.57554197 -0.141821 1268024958
-0.0894299 -0.56153202 -0.020575101 1244869165
-0.231947 -0.68915898 0.079761498 1266706521
-0.153439 -0.61991799 -0.094836302 1266709611
-0.25172099 -0.670461 0.020221001 1248285764
-0.063340902 -0.67243701 0.088853396 1270655897
0.119681 -0.58757198 -0.098327696 1269078671
0.00267134 -0.57474601 -0.052103799 1246051380
0.12628201 -0.54050201 -0.142592 1268556186
0.0623997 -0.57520503 -0.15233999 1269997716
-0.124565 -0.64880902 0.0062159598 1249272668
0.097451597 -0.54341 -0.120148 1247632987
-0.067856699 -0.62336701 -0.047117099 1248221010
0.12916601 -0.60430598 -0.038239401 1267762813
-0.243187 -0.66386098 0.0174652 1247298871
-0.15024599 -0.64179802 -0.017957199 1248812367
0.0246913 -0.591142 -0.111408 1249207388
0.025850501 -0.59314799 -0.104926 1266774119
0.133075 -0.57050198 -0.0252191 1270460326
-0.149101 -0.61487597 -0.096920803 1249077599
-0.24034201 -0.660276 0.0106565 1247496509
0.105465 -0.54218799 -0.117791 1248093793
-0.070692003 -0.54978102 -0.097966097 1246912582
0.112119 -0.54618502 -0.066917397 1248685674
0.043669101 -0.563465 -0.087425798 1271576740
-0.148881 -0.61424702 -0.097709 1270789806
-0.240003 -0.65965199 0.0104161 1247825474
-0.116847 -0.55715603 -0.0156039 1247170627
0.12721799 -0.538297 -0.146302 1269148323
0.0247362 -0.59050602 -0.111641 1246838588
0.073616803 -0.57558203 -0.14077599 1272893119
0.0888751 -0.57483298 -0.137216 1270459289
0.159815 -0.563541 -0.046402901 1271318463
-0.186363 -0.65559798 0.0223407 1246576439
-0.123941 -0.64352298 0.0060279099 1246839105
0.051281799 -0.574009 -0.150445 1266841194
0.052200101 -0.57419902 -0.149543 1267104110
0.0556865 -0.58473301 -0.113156 1267103082
-0.087427199 -0.54774302 -0.081312999 1249868131
-0.161247 -0.64226502 -0.0033438201 1247430976
-0.028831299 -0.54996699 -0.023646301 1244474669
0.113903 -0.57669598 -0.116276 1268881293
0.125735 -0.59075999 -0.067483798 1271513790
0.042931501 -0.56636399 -0.059425101 1249668194
-0.244412 -0.65672702 0.017298 1247891527
-0.099987604 -0.63356602 -0.0071766698 1245591609
-0.183716 -0.58019698 -0.0435034 1266707027
-0.124069 -0.636154 0.0060989601 1248682075
-0.144776 -0.62966299 -0.021143001 1246707771
-0.028928099 -0.62301898 -0.0030143 1246840644
0.055508099 -0.56381601 -0.062153298 1268681601
-0.029034801 -0.62270701 -0.00269002 1246840901
0.049096901 -0.60736501 -0.025510101 1269999775
-0.144807 -0.62845802 -0.0208534 1246115895
-0.124419 -0.63461202 0.0069639399 1248287317
0.0288813 -0.58494997 -0.14881501 1243618072
-0.071893401 -0.62471497 -0.00369602 1244734767
-0.080270201 -0.60608 -0.117841 1268548209
0.124486 -0.53255701 -0.166586 1269213859
0.127314 -0.58824801 -0.0529304 1268554131
-0.094751999 -0.62804502 0.0088619897 1249471591
-0.14313 -0.547925 0.061129998 1244802092
0.123003 -0.586725 -0.058687799 1270921649
0.127257 -0.58793902 -0.0529432 1268619923
-0.119818 -0.62871802 0.0055281501 1247301711
0.020631 -0.53667301 -0.075776197 1249862209
0.0716988 -0.56059098 -0.061370101 1267564146
-0.22675399 -0.64575702 0.0425325 1245854780
0.0477028 -0.60084403 -0.023049699 1267170166
0.140205 -0.57056701 -0.100388 1274013145
0.148618 -0.57144499 -0.0941725 1273026765
-0.142883 -0.54292601 0.064780504 1244210986
0.12304 -0.58411503 -0.054868501 1268684945
0.164186 -0.576756 -0.066138402 1271448761
0.17818999 -0.57941699 -0.051265702 1273025739
-0.16571601 -0.64580601 -0.00085589301 1247365948
0.12533 -0.58207798 -0.059331801 1269211549
0.182578 -0.58096898 -0.042824801 1272894923
-0.156425 -0.59968102 -0.094223402 1267497322
0.14745 -0.57191098 -0.087186404 1270265000
-0.0285167 -0.60862601 -0.0102121 1269538192
0.047501501 -0.59744102 -0.0235631 1268551815
-0.170481 -0.604684 -0.072435297 1270850192
-0.17171 -0.60549802 -0.069764502 1270915985
-0.093017504 -0.628259 -0.0221483 1245721129
-0.026496001 -0.53325802 -0.071920998 1243948587
0.13594601 -0.56783497 -0.102025 1271579568
-0.028008001 -0.60659599 -0.0116797 1270525087
0.13761 -0.56873798 -0.097000003 1270526882
0.090502001 -0.56806898 -0.157327 1249734764
-0.154386 -0.53504097 0.082502499 1244408616
0.124779 -0.57932299 -0.059784099 1269408927
0.137017 -0.56837702 -0.097648002 1270000797
0.134343 -0.55876201 -0.135814 1270067627
-0.25551799 -0.63102198 0.0030240701 1267892593
0.132571 -0.558873 -0.134434 1270001317
0.0989464 -0.56546801 -0.160046 1249669741
-0.24611001 -0.63715303 0.036279701 1246510394
-0.14191701 -0.63882297 0.081196301 1249538925
0.047290899 -0.59453499 -0.023681501 1269999262
0.0148857 -0.57361102 -0.117027 1247038278
-0.11183 -0.61265701 -0.0057987301 1248090464
0.0379862 -0.529567 -0.087721601 1269928547
0.049921799 -0.52940702 -0.076750197 1270125414
-0.16602699 -0.566333 -0.035750601 1248942641
0.098662399 -0.58019203 -0.0539755 1267236731
0.058976501 -0.52824003 -0.095374599 1272362886
0.12502199 -0.57738203 -0.055563498 1269935529
-0.057848401 -0.61958498 -0.0139865 1267626597
-0.110282 -0.61025202 -0.0081102801 1246577225
0.021544499 -0.57729697 -0.093228698 1248288348
0.0470246 -0.59222001 -0.022962799 1270920363
0.105725 -0.57647502 -0.061594501 1249605496
-0.239465 -0.62122202 -0.0021341699 1269075327
0.038196798 -0.57143497 -0.105524 1248946273
0.040806901 -0.57181197 -0.102971 1247959378
-0.239067 -0.62746501 0.032411799 1247365957
-0.24142 -0.628546 0.036124799 1245392940
0.032283701 -0.52726197 -0.092905402 1267956828
0.048473101 -0.57020497 -0.102394 1249339747
0.048756398 -0.57044703 -0.101256 1248682588
-0.243435 -0.628775 0.038496401 1245458733
-0.100584 -0.60242099 -0.020027401 1246183749
0.051169399 -0.56943601 -0.10353 1249078113
0.108369 -0.52743602 -0.195265 1268752538
0.0311775 -0.52671701 -0.099352799 1266903627
0.046232801 -0.590913 -0.070356898 1249077600
-0.152353 -0.607602 -0.015713099 1272168105
-0.16516 -0.612544 0.0083909603 1270588296
0.045253899 -0.58882302 -0.077565096 1249143132
-0.073394798 -0.59093601 -0.048091799 1244671539
-0.065587401 -0.58931798 -0.050700098 1245526326
0.123797 -0.57165301 -0.0537626 1268027788
0.126518 -0.54348201 -0.061192401 1266778250
-0.0469114 -0.58633798 -0.050602701 1247693893
-0.25437599 -0.625916 0.051150501 1246839870
0.103767 -0.57547897 -0.038550202 1270262944
0.123365 -0.56999302 -0.054767601 1268487569
0.0354365 -0.52583599 -0.118983 1266969159
-0.15400399 -0.60561299 0.0054283999 1268482660
-0.029188801 -0.58084798 -0.0612211 1246314302
-0.027228201 -0.58086097 -0.060390402 1246906951
0.119988 -0.56885999 -0.054508999 1267499904
-0.20590401 -0.61009502 0.0168135 1246970941
0.0136624 -0.596322 -0.046600901 1248485722
-0.155688 -0.60439497 0.0093924999 1248219450
-0.0270156 -0.58160001 -0.048909299 1244801321
0.13461401 -0.57218599 -0.0299231 1269078675
0.140806 -0.56235701 -0.074629404 1270262946
-0.060917601 -0.60521197 -0.027544999 1267298147
-0.121208 -0.61508602 -0.00028324101 1244999982
-0.018564001 -0.58152801 -0.040917199 1246445890
0.0984824 -0.57644397 -0.094454996 1273288908
0.122336 -0.56629699 -0.057504699 1268224652
0.119184 -0.56629199 -0.057371099 1266710641
-0.17394499 -0.62266803 0.0190787 1247564361
0.0435462 -0.524239 -0.111343 1270130056
0.033417601 -0.57761198 -0.105968 1248024142
0.021236699 -0.58918202 -0.060060602 1248222291
-0.209438 -0.605492 0.0201085 1245130026
0.119808 -0.58253503 -0.058306601 1271579066
0.10403 -0.52207398 -0.09234 1247368016
0.11923 -0.56428897 -0.0542816 1248683107
-0.10048 -0.610762 -0.00204566 1267629427
-0.093250602 -0.608275 -0.0104485 1267432048
-0.15393101 -0.59599602 0.0096415002 1268023132
-0.156856 -0.59223801 -0.0072462899 1273877157
-0.15868101 -0.59485501 0.00616804 1273021846
0.0564567 -0.580571 -0.0826388 1272433345
0.080546297 -0.57698202 -0.090826303 1269209738
0.048801702 -0.56617498 -0.062507696 1268419714
-0.16636699 -0.58608401 -0.042516299 1246642227
-0.170063 -0.61466902 -0.0023720299 1248880985
0.13946401 -0.571751 0.0074973102 1268813961
-0.151151 -0.59114301 -0.0040330598 1272824467
0.0501238 -0.56676602 -0.052055199 1247958863
0.044845998 -0.58462101 -0.066495702 1249603944
-0.156459 -0.589324 -0.0071958001 1272102039
-0.0196172 -0.52097899 -0.118229 1245591605
0.0181111 -0.58713698 -0.061055101 1248945244
-0.102705 -0.58311099 -0.0105425 1243880996
0.071684703 -0.56156403 -0.0604591 1249669743
0.088301703 -0.54748899 -0.13500001 1270724010
0.109223 -0.52480298 -0.20386299 1269082794
-0.15908299 -0.58733499 -0.00308424 1271443855
-0.156083 -0.58937001 0.0154008 1268483693
0.117924 -0.52377802 -0.189889 1270991559
-0.163691 -0.58557498 -0.0082331896 1249536091
0.019051399 -0.59001201 -0.040152501 1247958349
-0.104343 -0.58007699 -0.0058233999 1243749919
-0.107892 -0.58072501 -0.00088876497 1244670507
-0.15718 -0.586954 0.018759601 1248351804
0.044831499 -0.56097198 -0.054290801 1244933941
-0.109382 -0.58045602 0.00181648 1244539690
-0.17137 -0.58469301 0.0034990299 1249865312
0.13158201 -0.54532802 -0.106913 1268293017
-0.167988 -0.58207202 0.00162038 1268681846
0.078918301 -0.57654601 -0.080684103 1271051692
-0.115865 -0.57640898 0.0126869 1244604968
-0.105498 -0.574458 0.00381008 1244669990
0.125457 -0.53866398 -0.13580699 1267701651
0.075233497 -0.51956099 -0.132783 1270064263
-0.16820399 -0.56753302 -0.062722899 1267768963
0.132571 -0.53996003 -0.112294 1268029845
-0.21470299 -0.61666298 0.021043301 1247958866
0.12519901 -0.54735798 -0.0485425 1247566449
-0.165161 -0.56691301 -0.0360022 1249075768
-0.170849 -0.567738 -0.0292268 1249076017
0.12507699 -0.54679 -0.048662901 1247435119
-0.125366 -0.56742501 0.0146931 1244735272
-0.114892 -0.55902201 -0.0136636 1245065518
-0.161438 -0.55768901 -0.046039999 1267233311
-0.110726 -0.556912 -0.0212496 1244670760
-0.15872601 -0.55646598 -0.049804699 1267627814
-0.124586 -0.55423498 -0.031196799 1246513211
-0.153935 -0.55329001 -0.044064 1247958321
0.12597001 -0.53716201 -0.053939801 1247238755
-0.102394 -0.54999399 -0.0419981 1244735529
-0.122581 -0.55111802 -0.033526201 1245856822
0.126476 -0.53503001 -0.053684801 1247435877
-0.163885 -0.54985899 -0.0548806 1268480557
-0.154521 -0.54925603 -0.043256398 1247892019
0.0198499 -0.53884298 -0.019179501 1269002575
-0.107846 -0.54030502 -0.0539934 1246314555
0.080943704 -0.52015102 -0.10901 1266773076
0.0730289 -0.483374 -0.199705 1244671535
0.135309 -0.47685501 -0.19370399 1249669747
0.087691501 -0.55969501 -0.16347601 1246975316
0.056361601 -0.570858 -0.088983297 1269735829
-0.065975599 -0.55711001 -0.0598909 1225986324
0.042121999 -0.52368897 -0.114574 1248287557
-0.070260398 -0.53193802 -0.14786699 1247435097
-0.15785 -0.60162598 0.0102985 1267232591
-0.12945101 -0.603495 0.0281718 1244144677
-0.115297 -0.58657801 -0.053288002 1274338736
0.124498 -0.54943401 -0.13055199 1267238787
0.129916 -0.54941899 -0.12708899 1267700108
-0.22835501 -0.60042399 -0.0118788 1269210257
0.056159899 -0.51699501 -0.14838301 1270979949
0.079790697 -0.57018602 -0.079428099 1273749455
0.033370301 -0.56716698 -0.058836199 1245198130
0.119569 -0.57177901 -0.055528101 1269144209
0.092821002 -0.51633799 -0.139649 1269469806
-0.12548199 -0.63268203 0.119287 1268156023
0.111964 -0.52090198 -0.188604 1268161439
0.12314 -0.571917 -0.05099 1267370623
-0.165782 -0.587107 -0.046019301 1247628863
-0.072799496 -0.59144801 -0.059977401 1245263924
-0.154798 -0.59653097 0.0091512799 1247166760
0.029513299 -0.57297498 -0.066293798 1271182754
0.116371 -0.53749299 -0.215854 1268030874
0.00168512 -0.56563097 -0.072284102 1244211759
0.13097601 -0.56446201 -0.084385999 1269012107
0.079261899 -0.42058501 -0.15819301 1246839871
0.184119 -0.57237101 -0.105465 1274738419
-0.155476 -0.59503198 0.0101212 1249665853
0.099276297 -0.56355602 -0.105993 1267368827
-0.19067401 -0.585428 -0.050140001 1268157568
0.0073805698 -0.45589501 -0.186215 1244077340
0.118897 -0.56855899 -0.0566702 1267762813
0.129372 -0.56253898 -0.162294 1271709872
0.066796102 -0.59049702 -0.0985578 1246972491
0.27866101 -0.334169 0.049532101 1266964037
0.070179701 -0.53764302 -0.071208999 1245329464
-0.094383098 -0.61216402 -0.092038698 1246575919
0.15706301 -0.43360099 -0.16935299 1248412227
0.126993 -0.437924 -0.166499 1248343604
0.028237 -0.54035902 -0.082929 1248154425
-0.047916699 -0.62005299 0.033962902 1248814940
0.116836 -0.448461 -0.157502 1248739389
0.087098002 -0.56334603 -0.151895 1266973555
0.0256135 -0.59077001 -0.040684499 1244934961
0.130676 -0.55113399 -0.119449 1267107973
0.021992899 -0.59180999 -0.0241054 1244869168
0.087776497 -0.47811601 -0.197503 1245723453
0.026191499 -0.48810199 -0.193231 1243749665
0.087771401 -0.51459903 -0.155935 1272102808
0.069426 -0.48419899 -0.199306 1245065779
-0.10732 -0.606484 -0.079047799 1244339999
0.113752 -0.479983 -0.188327 1248680793
0.0122134 -0.499419 -0.19255 1244736562
-0.093467303 -0.51667702 -0.192039 1244340512
-0.049413599 -0.60258198 -0.00110778 1249275479
0.139383 -0.48428699 -0.197816 1273357797
-0.066986598 -0.61179 0.0698139 1267565934
0.0422883 -0.52762401 -0.10893 1248615239
-0.16199 -0.57156301 -0.0569598 1245941074
-0.0139424 -0.50896502 -0.173473 1244013354
-0.0182431 -0.50980401 -0.172709 1226775587
-0.072527602 -0.52114898 -0.191636 1246249027
-0.070845902 -0.52072299 -0.188778 1246644813
-0.030722201 -0.51369703 -0.16655201 1244407598
0.079797998 -0.49723899 -0.172282 1246315336
0.096946903 -0.49599001 -0.16925 1248026210
-0.082176603 -0.52349102 -0.141332 1247831670
0.135313 -0.49500501 -0.16251799 1271977171
-0.041751999 -0.58693302 -0.034269899 1244341788
-0.0029015499 -0.51640302 -0.138411 1244866604
-0.018759901 -0.58111203 -0.051127501 1248091468
-0.0045042201 -0.51946098 -0.142065 1244934193
0.064115703 -0.560745 -0.092817001 1268157050
0.117456 -0.54783499 -0.127905 1247828829
0.150475 -0.562549 -0.00493947 1267634055
-0.141058 -0.562455 -0.080568001 1248762750
0.032568801 -0.51953202 -0.14283 1246705967
0.0244656 -0.52065003 -0.123886 1244077084
0.025396001 -0.52105099 -0.122263 1247035442
-0.096400097 -0.54904097 -0.130779 1246050859
0.11344 -0.54381901 -0.130804 1246645335
0.035905998 -0.56005597 -0.076787896 1226512668
0.064057797 -0.55328202 -0.091846697 1243816230
-0.13864601 -0.560664 -0.131539 1246643007
0.122495 -0.51843798 -0.14558201 1249147777
0.130932 -0.54036301 -0.12668499 1267964051
0.14582901 -0.53698999 -0.086291902 1266778499
-0.109123 -0.58157301 -0.078134999 1245393700
0.098370999 -0.52690101 -0.0966153 1266707810
-0.090691999 -0.564969 -0.021979099 1246183228
0.060311299 -0.53413498 -0.088013098 1269271670
0.0380526 -0.53873998 -0.078980602 1248613445
-0.10988 -0.57876301 -0.076824501 1246183474
-0.022812201 -0.55002302 -0.065901898 1226511898
-0.073779598 -0.55993003 -0.204353 1245196857
0.176533 -0.521083 -0.083404802 1274082547
0.15615 -0.52339703 -0.120599 1270002867
-0.087902904 -0.557809 -0.043141499 1245394217
-0.086014397 -0.55756599 -0.0449825 1245196585
-0.14623401 -0.55920798 -0.064838499 1269599767
-0.0794058 -0.557455 -0.061067801 1247234366
0.131384 -0.55318201 -0.0471007 1266975365
-0.17099901 -0.563012 -0.0269766 1249470006
0.077620499 -0.55934799 0.0024989201 1246185028
0.14096899 -0.55157799 -0.0555989 1267765641
-0.153387 -0.56274903 -0.017251801 1247103546
0.078998603 -0.56325901 0.049287301 1246710349
-0.090704501 -0.55776799 -0.041070301 1245853486
0.091937803 -0.53023201 -0.14835601 1246382415
-0.111227 -0.55472898 -0.075206198 1247959886
-0.16937 -0.560256 -0.027509701 1248550452
0.13583501 -0.53580302 -0.130392 1268950946
-0.151004 -0.56110197 -0.0136023 1246249775
0.119797 -0.55147702 -0.040995698 1247238754
0.130582 -0.550511 -0.048859298 1267765390
0.128582 -0.54889703 -0.067189701 1267634057
0.145741 -0.54949898 -0.050714798 1269081244
0.13378 -0.54353899 -0.121221 1269476511
0.119827 -0.51661301 -0.201386 1274410485
-0.109023 -0.55730402 -0.024092199 1246576178
-0.216919 -0.55829102 -0.036134999 1248352075
-0.22679 -0.559753 -0.0217054 1268547402
-0.159757 -0.55733699 -0.0281951 1248812619
-0.158107 -0.55442399 -0.053892799 1268547126
-0.109517 -0.55578101 -0.025154499 1245852716
-0.114622 -0.55401403 -0.043662701 1246776116
0.14546899 -0.54855198 -0.044512302 1268226706
-0.092186503 -0.54966903 -0.076572597 1247175244
0.117637 -0.548756 -0.035925899 1269344166
-0.12867101 -0.552643 -0.0119059 1244737066
-0.188078 -0.55794197 0.023397099 1245397041
-0.093091197 -0.550578 -0.0525111 1246839609
0.118761 -0.54787099 -0.036722202 1248421745
0.124821 -0.54721898 -0.044016 1248027768
-0.188467 -0.557616 0.0248593 1245200946
-0.0057095001 -0.54879802 -0.050974701 1244144677
0.14016099 -0.54435599 -0.075941898 1268359321
-0.095069401 -0.55020702 -0.049167398 1244143387
0.119404 -0.548886 -0.0150154 1249606265
-0.226236 -0.55431098 -0.018571399 1268020541
-0.13125899 -0.55175102 -0.031573299 1246515006
0.0103243 -0.54634398 -0.057514399 1244866858
0.031139901 -0.54533398 -0.063728303 1246249025
-0.13580801 -0.54748303 -0.065588303 1248417336
0.127637 -0.54335397 -0.063941002 1249803651
-0.052630499 -0.54255003 -0.115244 1247959629
0.1113 -0.51058197 -0.18560299 1272502999
-0.15983599 -0.54636002 -0.068336301 1267955785
-0.0299358 -0.54551601 -0.0524805 1226775072
0.141654 -0.54125798 -0.076877497 1268885152
0.0067048101 -0.538535 -0.0390734 1245394740
-0.0770422 -0.54578501 -0.0304616 1226380314
-0.101797 -0.54452598 -0.053153299 1245590828
0.043235999 -0.540299 -0.100485 1245458992
-0.074398898 -0.54482299 -0.0353068 1244012838
0.14119101 -0.53947502 -0.082706697 1268886434
0.0544414 -0.54110199 -0.063613497 1244342053
0.127037 -0.52977997 -0.112633 1268621210
0.031575698 -0.53976297 -0.090976998 1267164752
-0.27930599 -0.54899198 0.046981599 1267102537
-0.125374 -0.541282 -0.0859221 1249339203
0.087299697 -0.538194 -0.107938 1245525810
0.0263693 -0.54023999 -0.083077498 1247692084
0.13283201 -0.52201301 -0.13200399 1267898009
0.024877399 -0.53979099 -0.075843401 1249269309
0.103623 -0.54496098 -0.0937545 1246316109
-0.0544925 -0.53825998 -0.120928 1249340771
-0.10701 -0.54164302 -0.053668 1246710082
0.135166 -0.53721201 -0.103033 1268293274
0.115373 -0.47216499 -0.18725701 1269326927
0.062365301 -0.53653198 -0.119606 1245722416
0.125563 -0.538261 -0.063791901 1249080457
0.0238935 -0.526434 -0.129628 1243880219
0.063981101 -0.536138 -0.119515 1245196074
0.130187 -0.52856201 -0.118978 1267633805
0.0379094 -0.538459 -0.046300899 1269599078
0.138778 -0.52573001 -0.124273 1269015198
0.143556 -0.52075201 -0.12837499 1268490144
0.130382 -0.53885502 -0.0110175 1247698282
0.0692297 -0.552122 -0.089474797 1244276781
0.052926298 -0.55591297 -0.079521403 1244079402
-0.037300501 -0.492713 -0.19186901 1226183705
-0.0069363602 -0.48767701 -0.189413 1226643484
0.14364301 -0.46778899 -0.18996701 1269398382
0.026052799 -0.48828 -0.193385 1243618849
0.14523999 -0.47261399 -0.200405 1268548990
0.0526665 -0.53609103 -0.059169501 1247693878
0.137849 -0.53856999 -0.116659 1249540987
0.139864 -0.52435201 -0.12696099 1270726588
-0.149444 -0.53640199 -0.0019887399 1243749919
-0.109157 -0.53672701 0.016156601 1243682329
0.018454 -0.53487498 -0.057881199 1267819322
-0.073975503 -0.54145598 -0.116045 1247106127
0.049087901 -0.52069497 -0.124843 1247102002
0.13057999 -0.55517399 -0.067338899 1248355424
-0.064071998 -0.59428602 0.00160822 1267301486
0.086771503 -0.53408802 -0.066118598 1246119233
0.049982101 -0.532803 -0.069986701 1270843981
0.059226699 -0.53274101 -0.074719302 1272360561
0.083330899 -0.53226501 -0.094048701 1245263156
0.117681 -0.53307998 -0.0350435 1246843476
0.143851 -0.53234899 -0.091899998 1269083814
0.0144937 -0.532498 -0.050487999 1248279326
-0.137683 -0.53240401 -0.0117573 1244210986
-0.186949 -0.53151703 -0.0530813 1245659981
-0.20897301 -0.53121102 -0.0428367 1245136473
0.0132153 -0.53141898 -0.075994998 1244472097
0.032664601 -0.52587599 -0.115532 1249072443
-0.082192197 -0.53133702 -0.0225018 1226775072
0.0472546 -0.53179401 -0.00761563 1272622970
0.120963 -0.522111 -0.14206199 1268689576
-0.086182296 -0.530509 -0.091603398 1226709796
0.040729001 -0.53128397 -0.0329457 1268741968
0.0662442 -0.53129202 -0.042897899 1271241056
-0.218951 -0.53010798 -0.038051698 1244611159
0.023663901 -0.57116997 -0.0566498 1267763837
-0.087033398 -0.57612801 -0.119478 1246972987
0.155507 -0.53103799 -0.0498216 1268623520
0.153698 -0.53073001 -0.068262704 1270332598
0.017170699 -0.52985299 -0.096856698 1226644514
0.017522899 -0.53005999 -0.0162379 1268283220
0.132285 -0.52005702 -0.12842099 1270135998
0.061447199 -0.52989101 -0.054188099 1271043161
0.116725 -0.52963102 -0.0071144099 1246909261
0.049125101 -0.52905798 -0.066078603 1268020053
0.037066098 -0.52877098 -0.079893202 1269335385
0.074112497 -0.52115601 -0.113565 1270656398
0.035013098 -0.52857602 -0.095168203 1267492930
0.091929898 -0.52869099 -0.031831499 1246838580
0.086938098 -0.52199298 -0.123989 1271048067
0.137316 -0.55342799 -0.063536398 1249869693
0.107635 -0.51887798 -0.119976 1247435364
0.019096 -0.52542102 -0.067450203 1249665609
0.108762 -0.52746302 -0.0329584 1246974027
0.0544376 -0.527345 -0.091601104 1268022110
0.077444904 -0.52703601 -0.066393502 1268409644
-0.0071722302 -0.52329099 -0.13902099 1244408367
-0.105557 -0.58250701 -0.050774299 1267496779
0.011381 -0.52618003 -0.084739603 1244078363
0.13297801 -0.54576099 -0.124773 1268226194
0.090087503 -0.52624398 -0.053415 1270450782
0.12668 -0.52157903 -0.138467 1271715031
-0.088077098 -0.58051401 -0.0284895 1243750949
0.0056958902 -0.52283102 0.094708197 1249601358
0.115812 -0.521483 -0.127602 1268161179
0.118905 -0.52185398 -0.144968 1269214897
0.103828 -0.525819 -0.0495333 1248286278
0.118737 -0.52527499 -0.0076360698 1247237462
0.0076144198 -0.56838799 -0.023194199 1244803382
0.142253 -0.54706103 -0.082352199 1267963533
0.085235298 -0.52530903 -0.046124302 1271634018
0.0907517 -0.52538598 -0.047126502 1270450269
0.0205904 -0.56423998 -0.0464052 1244803635
0.063974597 -0.52502501 -0.057417501 1270125424
0.104078 -0.52557701 -0.063146897 1247234364
0.055458799 -0.52410102 -0.0424642 1272691853
0.0118068 -0.52410501 -0.0898664 1244670250
0.0415892 -0.55961698 -0.057015501 1244539950
0.069473803 -0.52070802 0.088395603 1270648927
0.0462991 -0.52489001 -0.114028 1267430752
0.0563416 -0.52386099 -0.066086903 1267692631
-0.0099033099 -0.51913202 -0.140669 1246315592
0.064831004 -0.52198601 0.0028706801 1271309430
0.099067204 -0.52348202 -0.038766 1269597018
0.122843 -0.52284998 -0.00133756 1248618339
0.065986298 -0.55335897 -0.0769137 1245855043
0.058345601 -0.52455598 -0.110455 1267824221
0.143958 -0.52403402 -0.046873499 1266845569
0.118182 -0.55286503 -0.0148624 1247041375
0.141212 -0.54572201 -0.066445403 1267107971
0.050971799 -0.52374202 -0.091729499 1268023399
0.0549157 -0.52443701 -0.122121 1267364957
0.061158299 -0.5535 -0.075294703 1246382405
-0.105196 -0.52083898 -0.084726498 1244869176
0.13100199 -0.57371902 -0.14318199 1271183526
0.15681601 -0.57862502 -0.097191803 1273158348
0.067516796 -0.52323997 -0.089170501 1270587009
0.074760802 -0.522466 -0.060301401 1271046517
0.10476 -0.52322102 -0.070534199 1248157267
0.115856 -0.52230299 -0.0350678 1246974290
0.122477 -0.52337497 -0.067016803 1248093283
0.15451799 -0.54348999 -0.060431801 1267437454
0.091889903 -0.547243 -0.094194397 1246184776
0.098063096 -0.52266699 -0.077449404 1267295554
0.144931 -0.54249698 -0.081859604 1268489364
-0.00076614303 -0.63406801 0.048229601 1246118464
0.0149451 -0.62309003 0.0088571003 1244473898
0.0271561 -0.61741298 -0.00781703 1244537895
0.065897003 -0.51265597 -0.15345301 1248153928
0.181336 -0.56503201 -0.124197 1272373989
0.081378698 -0.52041203 -0.048866998 1270981756
0.0472438 -0.604325 -0.049812201 1246248768
-0.036179598 -0.51348698 -0.162606 1245132088
0.048568401 -0.52114898 -0.094666697 1249866846
0.0084864302 -0.519777 -0.090055399 1226644506
0.132965 -0.53696501 -0.12924001 1267699597
0.0352339 -0.520509 -0.0957487 1268548461
0.121632 -0.52332598 -0.124801 1249541752
0.0106147 -0.61648703 -0.0083781201 1248420694
0.0238964 -0.61056501 -0.0240664 1246775867
0.031451501 -0.60649902 -0.037847299 1248485972
0.108288 -0.568555 -0.16042501 1248947305
0.0433442 -0.60008699 -0.057666901 1247301438
-0.037457801 -0.48388699 -0.22691099 1245523756
0.19354001 -0.420935 -0.111002 1267360865
-0.055054698 -0.63598198 0.039526202 1249407069
-0.054837801 -0.63637203 0.041776199 1266842215
0.171277 -0.55990702 -0.141012 1271650270
0.090801798 -0.57168001 -0.155485 1268681844
0.13728601 -0.47323301 -0.195825 1269268593
0.11508 -0.47241399 -0.188159 1269129809
-0.0092651704 -0.487737 -0.18837599 1243881251
0.108304 -0.56635797 -0.15837801 1267434620
0.18600599 -0.55962998 -0.117354 1273752814
0.14509501 -0.48508501 -0.21014801 1271976144
-0.0232406 -0.493898 -0.188366 1226446877
0.096629597 -0.56653303 -0.164952 1272498353
0.12657499 -0.56357402 -0.150932 1268948881
0.038203299 -0.49573001 -0.19552501 1243618849
0.0039850199 -0.50272799 -0.18708301 1245329469
0.00191345 -0.60981297 -0.016035801 1244408617
0.0643849 -0.51152998 -0.140303 1246115374
0.139503 -0.50642699 -0.16995101 1270923715
0.0117668 -0.60429102 -0.034696199 1244868914
0.056958601 -0.51533502 -0.148644 1268679779
-0.0458644 -0.60564899 -0.084639601 1246512442
0.107635 -0.56600302 -0.150736 1249670249
0.107728 -0.56388998 -0.162672 1270855596
0.18214101 -0.561625 -0.098129801 1274672622
0.18810999 -0.55811399 -0.111917 1274739709
0.116146 -0.51059401 -0.142452 1248750452
0.0096173696 -0.60706198 -0.0164329 1245132086
0.049218498 -0.520612 -0.126123 1248286787
0.126764 -0.51554 -0.16276801 1269410473
0.123036 -0.51638502 -0.16205201 1269213099
0.095090002 -0.56788599 -0.14682201 1268288376
-0.0755639 -0.62672901 0.0179026 1243815710
0.0416096 -0.52685201 -0.104084 1249471578
0.118859 -0.51963103 -0.139422 1269806527
0.127794 -0.56131899 -0.142268 1268750482
0.078257598 -0.56565601 -0.167428 1268618120
-0.062467501 -0.61854702 0.00242272 1245261864
0.126846 -0.52044803 -0.124447 1269412796
0.137091 -0.52100801 -0.113689 1267964062
-0.057776701 -0.61387497 -0.0130681 1246775103
0.091374703 -0.56399298 -0.156542 1268223619
0.098362997 -0.56079799 -0.168662 1267829118
0.122895 -0.55917603 -0.15088201 1269408408
0.12147 -0.561396 -0.136764 1267630967
-0.067307003 -0.61217898 -0.026655201 1247038537
-0.0046976302 -0.605887 0.0086846603 1244605224
0.0028061699 -0.60467201 0.0096138399 1245394742
0.105997 -0.56070697 -0.153827 1269341581
-0.067401797 -0.61147898 -0.0230601 1245920313
0.080885701 -0.59381199 -0.0657316 1249670259
0.046368301 -0.58274102 -0.074200697 1245658684
0.16631401 -0.55202299 -0.133862 1274410224
0.045710601 -0.51201701 -0.116813 1267559754
0.023972601 -0.59418201 -0.0198039 1245000754
-0.075319096 -0.59173298 -0.154572 1247497020
-0.071056999 -0.61291897 -0.00325808 1247893837
-0.050864499 -0.61022198 0.0031886401 1247565388
-0.048758999 -0.61158299 0.0150308 1248026453
0.086447701 -0.5625 -0.15291999 1266710383
0.067474604 -0.52468801 -0.102801 1267628128
0.0606554 -0.60043001 -0.0544919 1246184259
0.067805797 -0.599226 -0.053708401 1245394747
0.0747969 -0.60012102 -0.043325 1245066038
0.082113199 -0.597785 -0.0476491 1245131831
0.117045 -0.43223599 -0.16682 1248805170
0.042916801 -0.60579902 -0.045287199 1247105101
0.0293727 -0.586559 -0.048687 1245790270
0.103078 -0.57669902 -0.099665798 1270459799
-0.0530558 -0.483859 -0.193624 1244998182
-0.063398398 -0.49361399 -0.192362 1226775072
-0.093456298 -0.60180002 -0.076167598 1244997668
0.051828299 -0.47948399 -0.196275 1243750435
-0.103668 -0.60197401 -0.085867301 1244143642
-0.095677197 -0.60240197 -0.071836598 1244668959
0.12808201 -0.46974301 -0.187897 1268275788
0.15019099 -0.47280201 -0.20514899 1268681864
0.096289396 -0.55762601 -0.14779501 1271316140
0.0014028799 -0.58750701 -0.043831699 1247630412
0.0141096 -0.58362401 -0.053265601 1249538660
-0.077920198 -0.51150697 -0.179254 1243682582
-0.15976 -0.63334501 0.096277297 1246312492
0.031036001 -0.57843697 -0.067207001 1266973297
0.036273099 -0.57708901 -0.070444703 1249340772
0.035992999 -0.60534 -0.037485499 1249078364
0.050235301 -0.57266599 -0.082825199 1266775147
0.109545 -0.49920899 -0.18551899 1271779024
0.129033 -0.50845098 -0.16173001 1267173247
-0.073872797 -0.54256201 -0.113797 1245920826
0.107559 -0.554524 -0.133939 1268158084
-0.065979503 -0.57676297 -0.204468 1244542259
0.094066299 -0.515365 -0.11987 1249074512
-0.066633403 -0.576756 -0.203586 1244279087
-0.079522103 -0.599913 -0.0270785 1243749145
-0.101578 -0.59825701 -0.060707301 1244933415
-0.192361 -0.63339502 0.090862997 1244143648
0.117914 -0.55241299 -0.12876301 1268288642
0.0346945 -0.571118 -0.086640902 1268287862
0.086369202 -0.579144 -0.105289 1270985375
0.102985 -0.57701099 -0.100097 1270722203
-0.080730699 -0.597682 -0.018244701 1246183738
0.14365099 -0.54599899 -0.121131 1249869956
-0.072634101 -0.59466302 -0.020831101 1246577466
-0.060812902 -0.59208602 -0.0253671 1248157010
-0.040665701 -0.58704799 -0.035303101 1247894094
-0.0202257 -0.58302498 -0.039135098 1267960438
-0.0081854099 -0.57904601 -0.0567412 1269209989
0.00128652 -0.57716101 -0.058710501 1269736590
0.107013 -0.55087203 -0.130789 1269408401
0.114634 -0.55188102 -0.108285 1249867124
-0.071715802 -0.59596598 0.0016629701 1243617554
-0.052566499 -0.588929 -0.033483699 1243881238
-0.0292907 -0.58318299 -0.049148198 1246052145
-0.0178355 -0.58083701 -0.052204002 1248354640
-0.00192207 -0.57654899 -0.062702499 1247499075
0.00642438 -0.575037 -0.063045204 1249210205
0.016458999 -0.57205802 -0.071153902 1247104573
0.021306301 -0.57081199 -0.074986503 1248354639
0.027479099 -0.56964397 -0.075732201 1249670242
0.035297301 -0.56831098 -0.075237103 1267303027
0.0488143 -0.58775198 -0.078672104 1246907981
0.046730801 -0.56488299 -0.085626297 1249537887
0.056715202 -0.56222302 -0.0911 1248353101
0.106216 -0.54978001 -0.128315 1269145233
0.071358398 -0.55897599 -0.094314098 1267236207
-0.108047 -0.594769 -0.048399001 1246379314
0.144045 -0.54362398 -0.116763 1249869956
0.122341 -0.52007002 -0.12985601 1270727884
-0.013468 -0.465927 -0.211248 1272089877
0.13503601 -0.437691 -0.17895199 1249530430
-0.079454497 -0.57642198 -0.17741799 1243956541
-0.0720658 -0.58908999 -0.17539901 1248287830
0.098850101 -0.55018997 -0.10808 1246184776
0.104645 -0.54784101 -0.12299 1246184523
-0.13482399 -0.59827298 -0.0149386 1246970164
0.106446 -0.51513398 -0.038196702 1247630923
-0.161722 -0.60866201 0.057209902 1248284733
-0.092636198 -0.579696 -0.13032401 1247431488
-0.015987501 -0.57391399 -0.0257456 1226446877
0.0046739699 -0.568214 -0.046985 1226578463
0.0150389 -0.56517702 -0.062652297 1226381084
0.169231 -0.535191 -0.100967 1269477299
0.021121699 -0.56384498 -0.0611572 1243750437
0.027080201 -0.56264597 -0.063197598 1243618849
0.047798399 -0.48047999 -0.19908699 1243816230
-0.083006702 -0.57353199 -0.16500901 1244876384
0.065761298 -0.55282903 -0.093930103 1243882023
0.169631 -0.53425401 -0.0995024 1269608885
0.146184 -0.47458699 -0.20789699 1268352127
0.079155304 -0.55009401 -0.094631903 1244276528
0.082862198 -0.54891598 -0.097253896 1245000504
0.092782699 -0.54645401 -0.102773 1245921351
0.096956603 -0.54527497 -0.109085 1245789765
0.107399 -0.54368502 -0.105823 1248093030
-0.101573 -0.58320802 -0.057493702 1248218417
0.105588 -0.54331499 -0.110952 1246908758
-0.113738 -0.58302099 -0.049624901 1270125661
0.145004 -0.53316599 -0.117903 1267436688
0.086287498 -0.505588 -0.169365 1245919803
0.00145003 -0.51781201 -0.150325 1245196336
-0.105602 -0.57548797 -0.066365503 1269664614
-0.066408999 -0.56061298 -0.223395 1248090992
-0.103687 -0.57208902 -0.054237701 1247430707
0.130742 -0.52894098 -0.12205 1267501191
-0.073821202 -0.560628 -0.204613 1246184009
-0.079680704 -0.56691301 -0.0237126 1243879961
0.150167 -0.524791 -0.108991 1267502220
0.15433601 -0.52377301 -0.11856 1269673646
0.049492899 -0.52075398 -0.12801901 1247693883
-0.100668 -0.56891501 -0.0614448 1247891004
0.130069 -0.52771801 -0.115409 1267236990
0.129969 -0.52765298 -0.118072 1268355728
0.116872 -0.52943403 -0.123156 1267961213
0.16267 -0.52207798 -0.095162101 1269739695
-0.108825 -0.61292702 0.0136882 1246314803
0.0123875 -0.54767901 -0.073251799 1226775842
0.13517199 -0.52533698 -0.124714 1269673641
0.142252 -0.52414799 -0.123853 1268225943
0.118187 -0.52838802 -0.106531 1245790279
-0.119709 -0.56970501 -0.0470796 1247891509
0.0522535 -0.53851402 -0.079312801 1244604973
0.0606631 -0.53702199 -0.082367703 1244868146
0.062403299 -0.53677702 -0.079662301 1244868145
0.0842482 -0.532848 -0.090256996 1245723203
0.089908101 -0.53187901 -0.090497501 1245656899
0.094199702 -0.53109801 -0.093048997 1245460285
0.098966099 -0.52990299 -0.095110498 1246316109
0.055355299 -0.60216099 -0.0707184 1243684124
-0.044854499 -0.55439198 -0.0514061 1226052119
-0.0134413 -0.54836798 -0.0700249 1226512668
0.0116381 -0.54362899 -0.076824203 1243815458
0.019756099 -0.54223502 -0.077766903 1244276261
0.038697101 -0.538625 -0.079463497 1248546627
0.13369 -0.52186501 -0.128842 1267832732
0.048879899 -0.53652298 -0.079940699 1267692375
0.067277297 -0.53298199 -0.085029401 1267562337
0.1813 -0.56294602 -0.122284 1271847903
-0.0609277 -0.62173301 -0.072733298 1247299643
0.12759501 -0.52107197 -0.131217 1269347263
-0.115845 -0.56189299 -0.064966001 1246643257
0.170669 -0.51330203 -0.094462998 1271780053
-0.094807804 -0.55789202 -0.085152701 1244604701
-0.091725402 -0.58597898 -0.123179 1245460275
0.124287 -0.52072197 -0.13478599 1268690362
-0.090245098 -0.55674201 -0.0905843 1244078614
0.028206401 -0.53672898 -0.077724501 1249856814
0.043791201 -0.53408802 -0.083443098 1267949619
0.052825999 -0.53257197 -0.072110102 1269925971
0.080945097 -0.52779502 -0.094263002 1269598553
-0.065013103 -0.585352 -0.067751698 1226315800
0.107112 -0.55054498 -0.104715 1266841711
0.096173599 -0.52519399 -0.119378 1248677691
0.170351 -0.512676 -0.096725002 1272634850
0.053743798 -0.53204298 -0.081634797 1269662029
0.0727259 -0.528835 -0.080094501 1270121557
0.029807501 -0.53566098 -0.0335414 1249528363
0.0649914 -0.52979302 -0.0922428 1269267014
0.116909 -0.52108502 -0.140228 1267307160
-0.107645 -0.558173 -0.079802401 1245327909
0.133757 -0.54895902 -0.0922371 1249079918
0.123821 -0.54733598 -0.072042197 1247895401
0.142011 -0.514534 -0.140728 1270135231
0.0587295 -0.527022 -0.095398404 1249271624
0.116154 -0.51016498 -0.140365 1249606269
-0.106316 -0.58666599 -0.049631201 1247167015
-0.089488603 -0.57742602 -0.128958 1248022843
0.046962399 -0.52805197 -0.101438 1248481597
0.068140298 -0.52456701 -0.105187 1266838098
-0.0255652 -0.60744601 -0.076614998 1266710887
0.13512599 -0.51354498 -0.14962 1269476267
0.062530696 -0.52455801 -0.10827 1266709083
0.085406303 -0.52084303 -0.113749 1249337159
0.13898601 -0.512658 -0.151518 1270265786
0.146827 -0.51166397 -0.166849 1273489126
0.15356 -0.536017 -0.086246401 1267307153
0.120967 -0.513888 -0.15749601 1270002095
-0.085647598 -0.54514903 -0.085654102 1245855290
-0.075998999 -0.57643002 -0.047279701 1226447129
0.016135599 -0.59580898 -0.070644602 1244605996
-0.089681402 -0.57305002 -0.13681 1268353397
-0.082170099 -0.54727399 -0.192884 1244999472
0.0414114 -0.52431101 -0.12502 1247891264
-0.079443999 -0.54288101 -0.092764303 1244736810
0.150327 -0.50707102 -0.163937 1274278899
0.086343497 -0.51595402 -0.12637199 1268418155
0.0104296 -0.52479702 -0.041179001 1243815455
-0.083333701 -0.54586101 -0.190577 1244209957
0.157722 -0.50384402 -0.141727 1274081520
-0.084477201 -0.54550499 -0.189767 1245460024
0.11793 -0.509655 -0.137363 1248290415
0.13548701 -0.507613 -0.16251799 1271513789
0.070947699 -0.51549101 -0.11601 1249601623
0.079361297 -0.51442897 -0.135341 1267498083
0.078326501 -0.51359397 -0.13361999 1268287086
0.0216753 -0.52119201 -0.107888 1244668967
0.102158 -0.50956798 -0.147724 1246576441
0.108355 -0.50831401 -0.143658 1247631453
-0.115209 -0.542449 -0.11582 1243947565
0.122649 -0.53176701 -0.105139 1248224357
-0.11761 -0.54238701 -0.114038 1243947565
0.045860901 -0.51716602 -0.144646 1248679231
0.081323102 -0.57412499 -0.093923397 1248024656
-0.060162399 -0.604904 -0.071526997 1246840898
0.119678 -0.50487 -0.146238 1268094357
0.139028 -0.50146401 -0.147047 1268950955
0.072027899 -0.51220697 -0.147892 1267692381
0.081697397 -0.51046902 -0.14988799 1268087391
0.12551901 -0.50331002 -0.15009999 1269278369
