VERSION .7
FIELDS x y z rgb
SIZE 4 4 4 4
TYPE F F F F
COUNT 1 1 1 1
WIDTH 1325
HEIGHT 1
VIEWPOINT 0 0 0 1 0 0 0
POINTS 1325
DATA ascii
-0.533263 -0.312102 1.25208 8421504
-0.523806 -0.311443 1.24943 8421504
-0.495989 -0.308396 1.23717 8750469
-0.493358 -0.308041 1.23574 8224125
-0.475169 -0.305622 1.22601 8289918
-0.469837 -0.306139 1.22809 8421504
-0.443963 -0.302465 1.21331 7763574
-0.428349 -0.300034 1.20353 7500402
-0.390935 -0.29306 1.17546 9408399
-0.379673 -0.294953 1.18308 9342606
-0.348341 -0.291837 1.17054 10197915
-0.327274 -0.290454 1.16498 9539985
-0.310436 -0.289238 1.16008 10461087
-0.263269 -0.284245 1.13999 11250603
-0.257614 -0.284292 1.14018 10658466
-0.245894 -0.281758 1.12999 10724259
-0.24386 -0.281584 1.12929 10461087
-0.232187 -0.281121 1.12742 11053224
-0.227954 -0.280539 1.12508 10987431
-0.209848 -0.278903 1.1185 11053224
-0.207991 -0.278912 1.11853 10592673
-0.20618 -0.278984 1.11882 10790052
-0.200178 -0.278415 1.11653 10526880
-0.183925 -0.276366 1.10829 11250603
-0.176658 -0.276552 1.10903 10526880
-0.150238 -0.272228 1.09164 10790052
-0.120148 -0.270014 1.08273 10790052
-0.115992 -0.268753 1.07766 11053224
-0.108215 -0.267293 1.07178 10855845
-0.106279 -0.266917 1.07027 10724259
-0.104367 -0.26659 1.06895 11119017
-0.0969473 -0.265784 1.06571 11053224
-0.0913669 -0.265053 1.06277 10790052
-0.0619357 -0.260462 1.0443 10395294
-0.0458261 -0.257951 1.03419 10855845
-0.0265725 -0.255111 1.02276 10329501
-0.0144514 -0.25183 1.00956 10000536
-0.000983217 -0.24947 1.00007 9605778
0.000683063 -0.249629 1.00071 10132122
0.028667 -0.246525 0.988218 9605778
0.205592 -0.213256 0.854354 8421504
0.251975 -0.22019 0.88225 7895160
0.32907 -0.233123 0.934282 7697781
0.374455 -0.229473 0.919593 7895160
-0.601289 -0.317043 1.28145 9342606
-0.557373 -0.311609 1.25942 9474192
-0.546658 -0.310296 1.2541 9671571
-0.518005 -0.30695 1.24053 10000536
-0.482954 -0.303127 1.22503 9408399
-0.480412 -0.302812 1.22376 9408399
-0.443807 -0.297431 1.20195 9079434
-0.435041 -0.296918 1.19986 8882055
-0.381938 -0.29002 1.1719 10592673
-0.0599596 -0.257538 1.04023 11119017
-0.0433521 -0.251743 1.01673 11579568
-0.0399887 -0.251894 1.01735 11776947
-0.0227146 -0.248407 1.00321 11645361
-0.0142847 -0.247176 0.99822 11579568
-0.00757616 -0.245438 0.991175 11513775
0.0122262 -0.245172 0.990097 10790052
0.0206196 -0.246948 0.997297 10724259
0.0241147 -0.248746 1.00458 10526880
0.0362885 -0.240636 0.971711 10526880
0.0394048 -0.239893 0.968698 10461087
0.0455329 -0.246903 0.99711 10066329
0.0521295 -0.246675 0.996187 10066329
0.0628682 -0.243268 0.982377 9868950
0.0646368 -0.243767 0.984399 9737364
0.070448 -0.2412 0.973995 9671571
0.100993 -0.213211 0.860544 8882055
0.121177 -0.213411 0.861354 8092539
-0.760423 -0.319635 1.30166 9934743
-0.705979 -0.323495 1.31742 8882055
-0.715753 -0.328978 1.33982 8816262
-0.670567 -0.32655 1.3299 7500402
-0.598521 -0.31214 1.27104 10066329
-0.467341 -0.297447 1.21103 10526880
-0.460008 -0.297923 1.21298 10461087
-0.321944 -0.283203 1.15286 12303291
-0.231239 -0.275851 1.12283 12171705
-0.735325 -0.326285 1.33887 9934743
-0.708376 -0.31532 1.29375 10592673
-0.710715 -0.329344 1.35146 8684676
-0.515504 -0.299743 1.22965 10855845
-0.0770827 -0.253041 1.03746 13027014
-0.00851373 -0.223899 0.917546 12303291
-0.763062 -0.329034 1.36048 11842740
-0.712853 -0.313961 1.29798 11053224
-0.682429 -0.319955 1.32283 10197915
-0.205283 -0.223406 0.922508 12698049
-0.0287382 -0.237499 0.980929 12698049
-0.718634 -0.323886 1.34942 10790052
-0.716826 -0.324085 1.35025 10592673
-0.681877 -0.317268 1.32176 10461087
-0.664327 -0.315217 1.3132 10790052
-0.657125 -0.313873 1.30758 11184810
-0.250101 -0.275993 1.1493 12895428
0.498005 -0.200822 0.875553 7697781
-0.798508 -0.317689 1.39874 12369084
0.498484 -0.185447 0.878986 6579300
0.547802 -0.203123 0.96318 7434609
0.554177 -0.203687 0.974398 7829367
0.506136 -0.183361 0.892492 6710886
-0.167736 -0.205715 1.01099 11382189
0.443522 -0.164134 0.805688 7631988
-0.468525 -0.257927 1.2922 11447982
0.521031 -0.178602 0.918785 7566195
-0.486164 -0.251973 1.31073 10263708
0.373715 -0.13458 0.697802 7368816
0.339981 -0.137977 0.722473 9276813
-0.377916 -0.239483 1.26989 11645361
-0.459423 -0.246719 1.33453 10592673
-0.423644 -0.242797 1.31324 11842740
-0.814813 -0.279906 1.53001 12434877
-0.481802 -0.243003 1.34113 9671571
-0.864063 -0.276984 1.54515 11316396
0.414208 -0.136022 0.763979 7895160
-0.436671 -0.2353 1.3536 10790052
-0.530063 -0.235728 1.38549 10790052
-0.515087 -0.231644 1.37633 10658466
-0.496556 -0.227981 1.36949 10329501
-0.441281 -0.222012 1.33349 10855845
-0.815836 -0.250537 1.52244 12171705
-0.492864 -0.224824 1.36559 10855845
-0.656536 -0.228951 1.45608 12303291
0.521618 -0.146272 0.928035 6381921
-0.560778 -0.223891 1.44067 12171705
-0.465964 -0.214542 1.38026 11645361
-0.504465 -0.215666 1.4042 12369084
-0.309198 -0.250631 1.63278 12698049
-0.215658 -0.197649 1.28636 11974326
-0.192629 -0.196033 1.27579 12434877
-0.107322 -0.199408 1.29785 12040119
-0.101137 -0.204343 1.33011 12632256
-0.791943 -0.235133 1.55015 11711154
-0.477468 -0.239298 1.57766 12434877
-0.395796 -0.208847 1.37614 11645361
-0.170344 -0.177255 1.16704 11908533
-0.166474 -0.177275 1.16717 11908533
-0.148239 -0.176406 1.16142 11974326
-0.0188529 -0.178646 1.17622 11974326
0.238446 -0.170712 1.12369 8289918
0.246889 -0.168814 1.11112 7763574
0.288965 -0.167462 1.10217 7500402
0.295 -0.168809 1.11108 7500402
0.336349 -0.158678 1.04403 8224125
0.356399 -0.154573 1.01686 8092539
0.359807 -0.154582 1.01692 7631988
-0.821443 -0.233322 1.55711 11119017
-0.174039 -0.180931 1.20604 10658466
-0.169298 -0.182306 1.21525 11645361
-0.157931 -0.188013 1.25348 11513775
-0.0757385 -0.176628 1.1772 11447982
-0.0698048 -0.176502 1.17635 11447982
-0.0602074 -0.177086 1.18026 11579568
-0.0472397 -0.180078 1.20031 10855845
0.118031 -0.182104 1.21385 8026746
0.265503 -0.157027 1.04583 6908265
0.350065 -0.154384 1.02812 7500402
0.362619 -0.153182 1.02007 7171437
-0.357722 -0.199209 1.34508 10592673
0.171038 -0.174157 1.17508 6908265
0.240576 -0.169389 1.14273 7171437
0.255162 -0.168965 1.13985 7171437
0.277666 -0.16542 1.1158 6842472
0.098211 -0.178367 1.21884 7763574
0.105135 -0.176362 1.20507 7434609
0.1352 -0.173731 1.18699 7631988
0.153289 -0.171849 1.17407 6645093
0.185909 -0.167768 1.14603 6184542
0.213676 -0.167093 1.14139 6381921
0.315297 -0.151999 1.0377 6250335
-0.72806 -0.199303 1.38019 9342606
-0.196339 -0.1727 1.19506 8158332
-0.191595 -0.172021 1.19033 7960953
-0.185899 -0.172254 1.19195 7895160
-0.121015 -0.173165 1.19827 7829367
-0.092023 -0.167674 1.16008 7500402
-0.0900981 -0.167688 1.16017 7500402
-0.0370017 -0.163706 1.13246 7697781
0.000759757 -0.178644 1.23637 9145227
0.114796 -0.173579 1.20112 6447714
0.163164 -0.169791 1.17476 5592405
0.206898 -0.165654 1.14598 5526612
0.204109 -0.15489 1.0711 5658198
0.259025 -0.163622 1.13184 5921370
0.319576 -0.155513 1.07542 5526612
0.331263 -0.155116 1.07265 5000268
0.341434 -0.154067 1.06535 5855577
0.363586 -0.149342 1.03248 4539717
0.366261 -0.149032 1.03033 5066061
0.481736 -0.127502 0.880542 6974058
0.498181 -0.128333 0.886318 6776679
-0.329905 -0.176965 1.24061 6842472
-0.314322 -0.181059 1.26945 6447714
-0.30847 -0.180117 1.26281 6184542
-0.307439 -0.180744 1.26723 6645093
-0.231892 -0.167447 1.17352 6645093
-0.230532 -0.167877 1.17655 6645093
-0.222407 -0.167663 1.17505 6579300
-0.215237 -0.177843 1.24677 7303023
-0.18316 -0.171206 1.2 7171437
-0.177024 -0.169178 1.18571 7039851
-0.152218 -0.172379 1.20826 7171437
0.114595 -0.171073 1.19902 6118749
0.162513 -0.166965 1.17007 4671303
0.188201 -0.154502 1.08225 4671303
0.226402 -0.149974 1.05033 3815994
0.228221 -0.15002 1.05065 3684408
0.254483 -0.161056 1.12842 4144959
0.253966 -0.148705 1.04138 3750201
0.292473 -0.157246 1.10156 4671303
0.286796 -0.14864 1.04092 3750201
0.293196 -0.146647 1.02688 3684408
0.300428 -0.146009 1.02238 3684408
0.359224 -0.148479 1.03978 4605510
0.369322 -0.147673 1.0341 4802889
-0.404277 -0.172048 1.2218 5460819
-0.43632 -0.187477 1.33194 5197647
-0.383331 -0.167376 1.18844 5263440
-0.387156 -0.177224 1.25874 5592405
-0.38247 -0.176039 1.25029 5658198
-0.377902 -0.183906 1.30644 5987163
-0.0844882 -0.167589 1.18991 6381921
-0.0426729 -0.159586 1.13277 6842472
0.47724 -0.122742 0.869671 6710886
-0.574234 -0.195671 1.40895 5987163
-0.480253 -0.190994 1.37511 6447714
-0.0638231 -0.178435 1.33755 7829367
0.500611 -0.120195 0.898649 4013373
-0.834779 -0.206065 1.56757 9803157
-0.56402 -0.194701 1.48069 5197647
0.481703 -0.131256 0.995782 9408399
-0.51896 -0.195429 1.50742 5855577
0.546468 -0.146143 1.14157 11250603
0.503809 -0.117718 0.918133 6842472
0.509681 -0.132569 1.05005 9803157
0.509563 -0.115989 0.93146 6842472
0.555292 -0.118112 0.948632 8750469
-0.624458 -0.142352 1.1802 3618615
0.525118 -0.114907 0.965803 7895160
-0.783702 -0.157214 1.3455 12698049
0.0349778 -0.107965 0.936248 5263440
0.0664745 -0.0763409 0.670448 5000268
0.3352 -0.102409 0.91708 2960685
0.506745 -0.115282 1.03336 9408399
-0.787332 -0.147188 1.36738 12171705
0.543971 -0.119211 1.10557 9934743
0.0763533 -0.0553013 0.517237 5460819
0.46636 -0.10517 0.991392 11447982
0.482765 -0.0940804 0.901687 7895160
-0.0984431 -0.0557299 0.540242 7763574
0.343055 -0.0932181 0.909557 8158332
0.502558 -0.0952964 0.929998 6842472
0.476072 -0.0966736 0.96098 10724259
-0.151185 -0.0559005 0.562307 5066061
0.0945661 -0.0658332 0.663803 4737096
0.0805568 -0.0542975 0.545855 5000268
0.453526 -0.0884755 0.912368 10461087
0.438448 -0.0915377 0.962721 10592673
-0.182346 -0.0581605 0.620403 5329233
-0.0190197 -0.0580323 0.618967 7368816
-0.497193 -0.0781293 0.853879 12171705
0.211319 -0.0434707 0.470482 10000536
0.101135 -0.0712682 0.793981 5131854
0.244799 -0.063077 0.701496 3684408
0.340333 -0.0849634 0.948465 4737096
0.36051 -0.0883272 0.986421 5197647
0.420198 -0.0738651 0.823191 8684676
-0.0746252 -0.0396656 0.446651 7368816
0.40251 -0.0731146 0.831984 11645361
0.469847 -0.0821266 0.935822 9868950
-0.0802723 -0.0425263 0.489999 6579300
0.0828417 -0.0561061 0.649834 6250335
0.103369 -0.0680816 0.790825 5592405
0.47135 -0.0806612 0.938819 10066329
0.421887 -0.0713508 0.829214 8421504
-0.0209423 -0.0606165 0.718522 7039851
0.441696 -0.0773205 0.91939 11250603
0.424418 -0.0700143 0.83147 8289918
0.080504 -0.052903 0.639812 6184542
0.429961 -0.0691467 0.839597 7105644
0.619833 -0.0927308 1.12977 7697781
0.35096 -0.0758185 0.943063 8421504
0.0254785 -0.0588275 0.746513 5000268
0.0258316 -0.0568705 0.721287 5329233
0.113517 -0.0759946 0.967756 4934475
0.361254 -0.0752351 0.957879 8158332
0.350199 -0.0610057 0.774471 10132122
0.407447 -0.0655936 0.833587 11842740
0.378828 -0.0592557 0.751905 10263708
0.0376221 -0.049046 0.635482 5395026
0.435917 -0.073159 0.953686 11053224
0.422963 -0.0702516 0.915306 10592673
0.382028 -0.0583555 0.758263 9605778
-0.791562 -0.10133 1.35905 12434877
0.0987409 -0.0546721 0.727387 5921370
0.309945 -0.0681908 0.910224 4144959
0.331987 -0.0549794 0.731457 10724259
0.376898 -0.0560264 0.745607 9803157
0.0438881 -0.0363091 0.491157 5263440
0.398746 -0.0642489 0.878707 10855845
0.214749 -0.0703457 0.98859 4737096
0.349147 -0.0702256 0.986827 4868682
-0.673233 -0.0860374 1.24497 5197647
0.355436 -0.0668338 0.963749 6118749
0.359136 -0.0663379 0.956495 8487297
0.353784 -0.0540403 0.776686 10855845
0.419286 -0.0636574 0.917277 10526880
-0.526453 -0.0633906 0.939009 14803425
0.0883673 -0.0431783 0.63504 5131854
0.405493 -0.0724889 1.07531 9934743
0.362918 -0.0637538 0.970892 6710886
0.00742474 -0.0334084 0.516822 6974058
0.332835 -0.0609172 0.95417 5658198
0.404017 -0.0516846 0.807302 11053224
0.475863 -0.057517 0.900025 5789784
0.0370222 -0.0256968 0.40603 6579300
0.386469 -0.0523398 0.842354 10855845
0.418921 -0.0560613 0.903306 10724259
0.406533 -0.0538583 0.867219 11382189
0.472966 -0.0601995 0.971075 11447982
0.420224 -0.0513403 0.82596 9276813
0.0283524 -0.0339225 0.57545 5855577
0.419467 -0.0499873 0.855298 11119017
0.445238 -0.0508011 0.869473 8750469
0.420316 -0.0474057 0.837115 11316396
0.00582719 -0.0347774 0.630783 6381921
0.0239276 -0.0367404 0.667337 6513507
0.0270987 -0.0325936 0.590096 7105644
0.365185 -0.0566027 1.03711 6381921
0.433524 -0.0462285 0.843835 8684676
-0.400291 -0.0492754 0.932997 4934475
0.0218847 -0.0310887 0.581989 6118749
0.0402836 -0.0238395 0.442166 6447714
-0.843286 -0.0726798 1.43553 11842740
-0.837746 -0.0769517 1.52095 12105912
0.364592 -0.0510453 1.00221 5658198
0.421705 -0.0568558 1.11836 7960953
0.424777 -0.0570156 1.12155 7763574
0.364084 -0.049136 1.00081 5592405
0.488776 -0.0579702 1.23108 11776947
0.432434 -0.0409664 0.864147 11053224
-0.763739 -0.0620374 1.3742 13948116
-0.835355 -0.0681694 1.51205 11645361
0.100216 -0.030166 0.657349 5197647
0.401204 -0.0386063 0.846819 10066329
0.394847 -0.0365062 0.799628 11645361
-0.887518 -0.0662621 1.53252 14277081
0.458349 -0.0424946 0.974402 10263708
-0.734011 -0.0544835 1.31287 14079702
0.434891 -0.0350331 0.874895 11447982
0.470879 -0.0442543 1.16639 10987431
-0.789955 -0.0512238 1.42563 9539985
0.465117 -0.041439 1.14737 11250603
0.514217 -0.0455373 1.26339 9803157
0.507124 -0.0447417 1.24087 8684676
0.412027 -0.036229 0.999859 8618883
0.382995 -0.0291684 0.799915 10790052
0.465984 -0.0321446 0.884135 5460819
-0.732556 -0.0444853 1.30253 14277081
0.00200247 -0.0284075 0.821466 6710886
0.364332 -0.0374588 1.09155 6052956
0.47526 -0.040331 1.17725 12434877
0.420095 -0.0350477 1.01946 8816262
-0.787842 -0.045863 1.42182 8224125
0.452293 -0.0291431 0.891991 10329501
0.377121 -0.0300763 0.97841 8158332
0.472661 -0.0276483 0.896818 5329233
-0.844232 -0.037795 1.41315 10921638
-0.795963 -0.038182 1.4279 9671571
0.27569 -0.0236225 0.869128 5197647
0.367293 -0.0259214 0.957029 7763574
0.430276 -0.0232365 0.854156 10066329
-0.764138 -0.0337801 1.35465 13487565
-0.262633 -0.0156048 0.60543 4868682
-0.879591 -0.0341124 1.48056 12369084
-0.800115 -0.0330044 1.43107 9605778
0.363564 -0.0220025 0.939148 8224125
0.351552 -0.0194763 0.900334 10197915
0.392764 -0.015947 0.728978 8487297
-0.814502 -0.0282264 1.4568 8487297
0.394825 -0.0161382 0.810548 11447982
0.394741 -0.014719 0.734926 7368816
-0.855921 -0.0266476 1.52178 11974326
-0.812013 -0.0254008 1.44804 9737364
-0.0735603 -0.0121592 0.664421 8618883
-0.798008 -0.0221112 1.40638 14737632
0.350972 -0.0144327 0.895029 10395294
0.501489 -0.0192252 1.21226 11119017
-0.88796 -0.0205831 1.48633 12369084
0.36045 -0.0137639 0.968645 6052956
0.353734 -0.0129839 0.909817 7697781
0.34855 -0.0127561 0.892642 9145227
-0.0919115 -0.00758209 0.584416 7303023
0.352615 -0.011235 0.903066 7434609
-0.793063 -0.0141956 1.38952 13882323
0.344875 -0.00945796 0.890832 6316128
0.384974 -0.0086283 0.80407 10921638
-0.814986 -0.00941357 1.44477 9276813
0.354246 -0.00630403 0.911142 6381921
0.308082 -0.00552201 0.778924 10987431
-0.84106 -0.00692755 1.48659 9408399
0.391115 -0.00385097 0.71925 9013641
0.350039 -0.0029225 0.896468 6974058
0.348762 -0.0023947 0.659488 6184542
0.303746 -0.00130522 0.978288 5460819
0.406046 -0.00122423 0.760725 5723991
-0.825545 0.00120407 1.44221 13158600
0.347796 0.000380716 0.902278 5855577
0.366392 0.00132866 0.68637 4210752
0.586091 0.00243287 1.02474 10987431
-0.813637 0.0141042 1.40914 14079702
0.391793 0.00702854 0.748022 9342606
-0.880597 0.0183646 1.54285 8750469
-0.931152 0.0210009 1.52881 12040119
0.303253 0.00995652 0.760304 9211020
-0.888345 0.024109 1.54739 10790052
0.304762 0.0114149 0.764093 9013641
-0.813815 0.0247647 1.4259 7566195
0.29969 0.012478 0.745132 11119017
0.597165 0.0271219 1.41525 12237498
-0.34834 0.0154244 0.753627 5592405
-0.946767 0.0381883 1.54181 12369084
-0.815016 0.0344748 1.39545 14013909
-0.891554 0.0381301 1.5396 12895428
-0.983789 0.0431385 1.61964 14342874
-0.293188 0.0261873 0.996855 5592405
-0.810047 0.0392426 1.38301 14540253
0.00252334 0.0305208 1.08346 8026746
0.47923 0.025203 0.900794 6447714
-0.969172 0.0482143 1.59123 14606046
-0.327565 0.0330696 1.10114 5855577
0.555087 0.0390178 1.29502 12961221
0.636629 0.0445343 1.47392 10987431
0.480502 0.026932 0.903188 6184542
-0.857248 0.0476506 1.48466 8289918
0.584877 0.0434972 1.35928 12237498
0.49591 0.0295384 0.932172 6710886
-0.962063 0.0557883 1.55827 12829635
-0.808933 0.0490563 1.37331 14606046
0.312864 0.0271299 0.771541 9474192
-0.906157 0.0614176 1.55588 10329501
0.314984 0.0303034 0.779986 8092539
-0.848923 0.0594708 1.44118 14540253
0.532788 0.0397329 0.971129 7895160
-0.906053 0.0667418 1.54686 12829635
-2.17281 0.167513 3.8509 6316128
-0.373003 0.0496642 1.15668 5987163
0.348857 0.0509864 1.18758 6052956
-0.971043 0.073062 1.56021 13092807
-1.04019 0.0791846 1.68934 14671839
0.547103 0.0479567 1.03172 9539985
0.535473 0.0454592 0.979005 6842472
-0.34457 0.0539688 1.11462 6118749
0.530482 0.090593 1.85928 5526612
0.341634 0.0419219 0.839133 7434609
0.349466 0.0427261 0.854891 9408399
0.352409 0.0448649 0.865628 7171437
0.353053 0.0447618 0.863677 8947848
-0.919099 0.0850176 1.56914 8553090
0.373682 0.0516882 0.961234 5921370
1.31882 0.163685 3.00787 11645361
-0.922611 0.0903572 1.56182 11316396
0.395851 0.0536405 0.934197 12369084
0.407417 0.0541524 0.942971 12434877
0.42728 0.0557463 0.970268 10855845
0.420017 0.06674 1.08989 5723991
-1.02586 0.104217 1.64388 15132390
-1.03437 0.105373 1.66194 15592941
-0.86898 0.0921159 1.45468 14277081
-0.929731 0.0997384 1.57388 10461087
-0.903337 0.0974364 1.53789 8026746
0.420537 0.0685285 1.08655 5921370
-1.03297 0.107987 1.65526 14211288
-1.04945 0.112512 1.67719 14342874
-0.943302 0.109389 1.5879 11711154
0.516042 0.07138 1.01457 10526880
-0.814572 0.0999249 1.34492 15461355
-0.393857 0.0901734 1.21506 5592405
-1.10401 0.137494 1.7597 15790320
0.338498 0.0796172 1.02441 5263440
0.320722 0.0578779 0.747919 5658198
-0.794801 0.108633 1.30157 15263976
-0.953403 0.133039 1.59154 11119017
0.289697 0.0559076 0.675491 7237230
0.304256 0.0598344 0.706736 6447714
-0.963783 0.140018 1.60441 11447982
-0.724784 0.106832 1.17735 15198183
0.343258 0.0711891 0.788283 6776679
-0.961413 0.147672 1.59165 11974326
-0.970274 0.151993 1.60632 12237498
0.319017 0.0613879 0.654845 10855845
-0.949763 0.152496 1.58109 8158332
0.419522 0.0973177 0.994056 6381921
-0.97254 0.161226 1.61008 10329501
-0.903785 0.150432 1.47596 14145495
-0.979595 0.165382 1.62176 9013641
-0.980224 0.167542 1.6139 11316396
-0.974881 0.167548 1.61396 7829367
-0.98034 0.16943 1.63199 6381921
0.16308 0.074489 0.722677 6381921
0.572331 0.119054 1.1108 10921638
0.315443 0.0724675 0.668084 9934743
-0.980997 0.183964 1.60202 12171705
0.319133 0.0908832 0.771222 5000268
-0.992905 0.194615 1.61707 11447982
-0.994649 0.19549 1.62431 10132122
-0.956042 0.191516 1.5445 13158600
-0.99165 0.199759 1.61067 11250603
0.389034 0.121629 0.983947 5658198
-0.992861 0.202968 1.61263 11119017
-0.933772 0.191544 1.50047 14145495
-0.954777 0.198691 1.53421 14342874
-0.998009 0.209982 1.621 9211020
-1.00329 0.214092 1.62958 9013641
-1.0094 0.218413 1.63949 8224125
0.454758 0.131195 0.987917 8355711
-0.370458 0.164252 1.21805 5723991
-0.357193 0.16089 1.16177 5921370
0.336747 0.140283 1.01404 6052956
0.415025 0.0989394 0.71719 8026746
-0.216589 0.153816 1.09656 7697781
-1.25254 0.291497 2.04534 6908265
-1.04444 0.242752 1.68276 8553090
-1.05776 0.247656 1.69511 12040119
-0.219669 0.163527 1.12157 8684676
0.203808 0.195466 1.33955 8750469
0.191977 0.157918 1.08345 7105644
0.436477 0.122046 0.838853 9211020
-1.04348 0.24804 1.67672 8816262
-1.06632 0.255948 1.70884 9671571
-0.264699 0.189232 1.26518 9934743
0.466491 0.120221 0.806211 8092539
-1.06459 0.2618 1.70607 9013641
-1.51762 0.72071 4.63134 5066061
0.198931 0.156238 1.00879 6118749
0.381846 0.16263 1.04987 4934475
-1.0814 0.270869 1.72382 10987431
0.373444 0.160176 1.02207 4868682
0.380903 0.149525 0.943505 5460819
-1.08774 0.278834 1.73392 9474192
0.557502 0.16724 1.01942 9211020
0.544101 0.168164 0.991879 7039851
-1.15942 0.532992 3.0978 5460819
0.544033 0.169447 0.988753 6842472
0.566899 0.177435 0.982732 7039851
0.499535 0.1911 1.0474 4539717
0.579075 0.203321 1.09219 4473924
0.542449 0.178376 0.940328 4079166
-0.423268 0.239367 1.23607 5263440
0.574054 0.188652 0.975433 4276545
0.234384 0.246297 1.10484 4276545
0.271904 0.245285 1.10033 3552822
0.329391 0.249999 1.12141 3750201
0.227081 0.246382 1.09622 4473924
0.600712 0.309265 1.37504 3552822
-0.412563 0.270092 1.18191 4934475
-0.405512 0.310975 1.29783 5921370
-1.69058 5.05442 18.8729 7763574
-0.261274 -0.464687 1.2199 9539985
0.450673 -0.476636 1.3019 12369084
-1.06109 -1.0325 2.90115 14079702
-1.13064 -0.756129 2.11265 12566463
0.127884 -0.312673 0.845707 12434877
0.421586 -0.395516 1.12548 11711154
0.398237 -0.289876 0.803776 13092807
0.409769 -0.369278 1.06276 12105912
0.430345 -0.382479 1.11039 12105912
-0.258585 -0.297461 0.842147 14079702
-0.783117 -0.447744 1.31721 13619151
0.306414 -0.229308 0.652061 12698049
-0.202805 -0.219926 0.626151 13290186
-0.789186 -0.426149 1.30846 13619151
0.656341 -0.491887 1.62114 12566463
-0.746011 -0.385698 1.22592 13355979
-0.248399 -0.30113 0.958496 12566463
-0.84356 -0.415566 1.37134 13553358
0.0789155 -0.380281 1.27799 11776947
0.105507 -0.342722 1.14231 11316396
-0.506291 -0.315365 1.02617 13750737
-0.848738 -0.411885 1.37583 13882323
-0.337777 -0.353265 1.17932 12632256
-0.337753 -0.372891 1.26013 12303291
0.0736583 -0.283881 0.945472 10987431
0.0879322 -0.307364 1.03324 10724259
0.358223 -0.290377 0.993891 12040119
-0.41036 -0.318508 1.07702 13092807
-0.406687 -0.319649 1.0815 13224393
-0.330549 -0.314807 1.06613 13027014
-0.371522 -0.382568 1.3214 13553358
-0.296377 -0.337535 1.15365 13158600
-0.269149 -0.322055 1.09603 11974326
-0.203758 -0.313252 1.06526 11908533
-0.0851737 -0.291472 0.987356 12369084
0.0440932 -0.333146 1.15837 12303291
0.232576 -0.265381 0.907178 11053224
-0.497038 -0.320297 1.09542 13092807
-0.453543 -0.319828 1.09534 13027014
-0.157723 -0.282238 0.96267 11447982
-0.919421 -0.421568 1.47808 13290186
-0.767382 -0.382433 1.33275 14277081
-0.134864 -0.325606 1.13815 12500670
0.112494 -0.318582 1.12092 10132122
0.15992 -0.278819 0.968919 10592673
-0.468018 -0.31817 1.10376 11382189
-0.438782 -0.316658 1.09904 12434877
-0.312488 -0.300301 1.04038 13750737
-0.288775 -0.306986 1.0674 12829635
-0.254907 -0.288238 0.99568 12171705
-0.138485 -0.336133 1.18709 13092807
0.330911 -0.232637 0.802623 12698049
0.698357 -0.438482 1.61983 12763842
-0.131552 -0.28132 0.980597 11974326
0.0213924 -0.291491 1.02673 12040119
0.119095 -0.316992 1.13082 9474192
0.155752 -0.271559 0.95396 9539985
0.172952 -0.26926 0.945637 10066329
-0.307368 -0.297964 1.04622 11316396
-0.227026 -0.304438 1.07509 11908533
0.0315243 -0.314905 1.1271 11316396
0.040065 -0.321799 1.15468 11119017
0.0419926 -0.321943 1.15533 11119017
0.0677922 -0.304647 1.08799 10592673
0.126214 -0.292254 1.04136 9671571
0.277671 -0.250202 0.881294 12171705
-0.403377 -0.30964 1.09629 11842740
-0.124494 -0.283193 1.00245 11316396
-0.0675411 -0.279266 0.989153 10921638
-0.0362668 -0.290052 1.03339 12237498
0.00506455 -0.301835 1.082 11250603
0.0478568 -0.310936 1.11999 10987431
0.272477 -0.267711 0.957134 11447982
-0.695921 -0.334186 1.19061 14079702
-0.536971 -0.321341 1.14566 12763842
-0.520258 -0.321361 1.14643 12171705
-0.480698 -0.31553 1.1247 11579568
-0.353436 -0.307716 1.0986 11184810
0.381173 -0.229286 0.814406 12040119
-0.0190976 -0.282293 1.01784 10000536
-0.93802 -0.410186 1.50738 12040119
0.137716 -0.264457 0.95928 8289918
-0.374938 -0.30569 1.11384 9934743
0.0208363 -0.292121 1.07491 9605778
0.0334316 -0.293383 1.08061 9737364
0.388081 -0.248833 0.91287 12829635
-0.491857 -0.315972 1.15969 10658466
-0.476559 -0.316987 1.16453 10461087
-0.242121 -0.289893 1.06254 9737364
-0.130786 -0.279926 1.02609 9671571
-0.118233 -0.281954 1.035 10000536
-0.106578 -0.286878 1.05583 9079434
0.0381704 -0.288036 1.06679 9408399
0.223706 -0.250463 0.919418 7829367
-0.475794 -0.314395 1.16255 9408399
-0.252562 -0.291635 1.07734 9013641
-0.223413 -0.303711 1.12885 9276813
-0.0796758 -0.276151 1.02028 9276813
0.0570009 -0.277307 1.03094 8553090
0.0964277 -0.273922 1.01853 7829367
0.124395 -0.275849 1.02774 7631988
-0.321047 -0.297038 1.10523 8158332
-0.307361 -0.294538 1.09534 8355711
-0.210965 -0.292818 1.09227 7763574
-0.207632 -0.297864 1.11359 8092539
-0.190874 -0.292229 1.09067 7960953
-0.184123 -0.290215 1.08251 8092539
-0.033031 -0.277316 1.03491 8224125
-0.00403061 -0.281306 1.05289 8487297
0.00121245 -0.282772 1.05927 8487297
0.102834 -0.271403 1.01596 7368816
0.174312 -0.261715 0.978391 7368816
0.203592 -0.254914 0.95112 7237230
0.257053 -0.250766 0.93603 7960953
0.329537 -0.23254 0.86269 9539985
-0.729559 -0.33379 1.25133 10263708
-0.680034 -0.329809 1.23665 10526880
-0.674792 -0.329258 1.23455 10461087
-0.669755 -0.328792 1.2328 10395294
-0.56887 -0.320165 1.20071 9605778
-0.546729 -0.317733 1.19139 9079434
-0.534337 -0.31731 1.19013 9145227
-0.521237 -0.315417 1.1827 9145227
-0.511408 -0.313153 1.17356 9079434
-0.488963 -0.310112 1.16167 8092539
-0.444338 -0.307011 1.1505 8026746
-0.426815 -0.305357 1.14427 7895160
-0.388777 -0.302187 1.13252 7237230
-0.367941 -0.297724 1.11456 7237230
-0.359127 -0.29656 1.11002 7039851
-0.376909 -0.31279 1.17785 7039851
0.180701 -0.255965 0.961824 7500402
0.249005 -0.248848 0.9347 7237230
0.333142 -0.231416 0.864661 9079434
-0.576338 -0.317807 1.19961 8684676
-0.526787 -0.313139 1.18189 8158332
-0.48046 -0.307429 1.15958 7105644
-0.424627 -0.317012 1.20284 6052956
0.295474 -0.236482 0.891229 7960953
0.301031 -0.234282 0.882099 8224125
0.333399 -0.23001 0.865313 8487297
0.324628 -0.230978 0.87577 7434609
-0.801257 -0.335979 1.35077 8355711
-0.481106 -0.314395 1.26752 6579300
-0.43838 -0.305629 1.22969 6250335
-0.431487 -0.306349 1.23329 5395026
-0.371597 -0.296473 1.1912 7368816
-0.369313 -0.296227 1.19017 7631988
-0.293972 -0.289703 1.16404 8355711
-0.247451 -0.284845 1.14412 8421504
-0.196523 -0.281954 1.13335 8487297
-0.175295 -0.278084 1.11674 8618883
-0.0109307 -0.252515 1.00823 8092539
0.0088099 -0.249787 0.99675 7829367
-0.805989 -0.33698 1.36636 7960953
-0.492357 -0.304512 1.23228 6776679
-0.460779 -0.302426 1.22419 6776679
-0.370058 -0.293185 1.18609 8750469
-0.35063 -0.29166 1.18002 8816262
-0.344312 -0.291244 1.17841 8882055
-0.316091 -0.28858 1.16753 9211020
-0.17444 -0.27479 1.11096 9671571
-0.158456 -0.272551 1.10146 9605778
-0.13717 -0.269984 1.09069 9803157
-0.131589 -0.269577 1.08909 9803157
-0.0788631 -0.261328 1.05376 9605778
-0.0734694 -0.260639 1.05087 9605778
-0.0573419 -0.258081 1.0399 9342606
-0.0555587 -0.257731 1.03837 9342606
-0.0449438 -0.255602 1.02913 9276813
-0.287178 -0.28276 1.15177 10000536
0.0337907 -0.239515 0.967128 8553090
0.0535579 -0.241687 0.978083 8421504
-0.726625 -0.306745 1.2524 8882055
-0.744361 -0.325905 1.34081 7895160
-0.727415 -0.32171 1.32207 7763574
-0.718612 -0.319881 1.31394 7763574
-0.727069 -0.33319 1.37555 7039851
-0.585227 -0.303297 1.24305 8158332
0.356458 -0.225976 0.92745 6842472
0.325627 -0.166676 0.649857 9934743
-0.788751 -0.336519 1.39997 9934743
-0.737619 -0.306272 1.27124 9934743
-0.694054 -0.316336 1.32097 8224125
-0.240676 -0.276891 1.16585 12105912
0.33962 -0.168379 0.681257 10066329
-0.437891 -0.281867 1.25633 10066329
-0.777438 -0.285664 1.27004 10329501
-0.865182 -0.329562 1.49096 10263708
-0.317634 -0.20242 0.874373 10066329
-0.34544 -0.256689 1.15427 10855845
0.504944 -0.201164 0.910619 7368816
-0.470231 -0.285981 1.31191 9934743
0.313473 -0.150602 0.644575 9803157
-0.49594 -0.278587 1.32216 9803157
-0.379227 -0.267307 1.31927 11316396
-0.192385 -0.235582 1.15008 10921638
-0.189735 -0.238972 1.16945 10921638
-0.846781 -0.287914 1.4704 9803157
-0.826911 -0.283899 1.49612 11382189
0.314637 -0.14413 0.735671 9408399
-0.371379 -0.23399 1.27539 10197915
0.355297 -0.128653 0.663048 6579300
-0.171186 -0.213748 1.2004 10921638
-0.862541 -0.282224 1.6287 10921638
-0.440958 -0.243401 1.39611 10724259
-0.321585 -0.228572 1.30455 11250603
-0.866371 -0.269466 1.56203 10921638
-0.288913 -0.225677 1.30313 11513775
0.124489 -0.176695 1.20614 7631988
0.137134 -0.16425 1.10492 7237230
0.161936 -0.17602 1.20358 7829367
0.176839 -0.175121 1.19732 7171437
0.295479 -0.150286 1.00282 7105644
0.309389 -0.149798 0.9999 7039851
0.327739 -0.147946 0.986205 7171437
0.361805 -0.151424 1.01744 7829367
-0.479392 -0.202306 1.43298 8816262
0.357864 -0.147932 1.03465 5987163
0.130418 -0.167886 1.20627 6118749
-0.278922 -0.182985 1.32488 6579300
-0.197013 -0.165067 1.17277 6908265
-0.161793 -0.162867 1.15622 6447714
-0.156205 -0.175671 1.27041 6579300
-0.108016 -0.175415 1.27225 6776679
-0.316078 -0.184008 1.35267 5789784
-0.260835 -0.1644 1.18051 6184542
-0.333625 -0.183556 1.36959 5789784
-0.0659947 -0.175451 1.31875 6184542
0.525138 -0.124575 0.934937 5789784
-0.680406 -0.195578 1.52605 6052956
-0.803205 -0.17177 1.30776 12171705
0.182955 -0.156728 1.32341 3947580
0.422191 -0.129427 1.06326 8947848
-0.694409 -0.141302 1.09701 11645361
-0.791924 -0.156698 1.27505 11579568
-0.60743 -0.143708 1.15363 3289650
-0.437643 -0.182677 1.59221 5987163
-0.321498 -0.182856 1.60604 5263440
0.156353 -0.132719 1.11299 3487029
-0.838959 -0.162533 1.38814 11842740
0.51305 -0.108255 0.94066 6381921
0.509908 -0.143545 1.37449 3750201
-0.901948 -0.175464 1.62729 8289918
0.122969 -0.10008 0.839286 3421236
0.480923 -0.111327 1.01475 10658466
0.332296 -0.0931407 0.815167 9737364
0.460291 -0.0997091 0.933956 9671571
-0.126963 -0.129922 1.31214 5263440
-0.219627 -0.125237 1.26858 7105644
-0.830442 -0.141388 1.44911 10724259
-0.223407 -0.124525 1.29081 6316128
0.495198 -0.0913737 0.91657 5789784
-0.669899 -0.106242 1.05425 11053224
-0.842452 -0.130084 1.43624 11447982
-0.71939 -0.121056 1.31166 8421504
0.363472 -0.0906533 0.99079 4671303
-0.414221 -0.123803 1.442 4539717
-0.157882 -0.0917518 0.958719 5526612
0.357622 -0.0884832 0.98384 4079166
0.489198 -0.0879115 0.994584 11776947
0.365895 -0.0882075 1.01052 4210752
-0.233556 -0.1164 1.43396 5460819
-0.0264956 -0.0921485 1.04734 5723991
0.0923332 -0.093997 1.09853 4144959
-0.816731 -0.12032 1.50307 6316128
-0.744844 -0.121136 1.5303 4342338
0.374286 -0.0798579 1.0286 4210752
0.454645 -0.0730256 0.907794 10329501
-0.191926 -0.0737449 0.865656 5592405
0.414958 -0.0781694 1.08048 8618883
0.435967 -0.0714437 0.940789 10790052
-0.552876 -0.0958665 1.31931 4144959
0.0211749 -0.0745778 0.963208 5131854
0.103903 -0.0757651 1.00675 5395026
0.101773 -0.0724167 0.931652 5460819
0.146445 -0.0628999 0.728858 4013373
-0.92779 -0.110398 1.63213 12895428
-0.468231 -0.0837322 1.11146 4342338
-0.358343 -0.0761454 0.958949 4408131
0.138168 -0.0671493 0.856544 4144959
0.427916 -0.0659036 0.889796 10987431
-0.289196 -0.087636 1.29577 5395026
0.042004 -0.0738171 1.0345 5066061
0.264531 -0.0613003 0.816848 5000268
0.341608 -0.0670168 0.979849 5526612
-0.900855 -0.100453 1.61273 13421772
0.0274855 -0.0734022 1.12035 5723991
-0.822019 -0.0900786 1.50241 9211020
-0.888683 -0.0860513 1.53086 10987431
0.389929 -0.0493685 0.801759 11119017
0.496159 -0.0520828 0.940485 5921370
0.406759 -0.0478723 0.806297 10263708
-0.752552 -0.0696259 1.35782 12566463
0.482627 -0.0465514 0.915308 5592405
0.13245 -0.0438274 0.856797 5395026
0.437032 -0.0445017 1.07791 9211020
0.353344 -0.0393516 0.698415 9539985
-0.909741 -0.0584932 1.55719 11513775
-0.72583 -0.049366 1.34521 5658198
0.362218 -0.0372814 1.07219 5855577
-0.000698872 -0.0388117 1.10461 6118749
0.4803 -0.0306302 1.17311 10197915
-0.0466824 -0.0309885 1.28483 6579300
0.344021 -0.0278154 0.926908 6052956
-0.887575 -0.0328758 1.49256 10658466
0.110987 -0.0265567 0.921745 4671303
0.144348 -0.0255017 1.08408 5460819
-0.888233 -0.0301407 1.49356 10724259
-0.913105 -0.029976 1.55299 13224393
-0.869501 -0.0295484 1.55845 8092539
0.387716 -0.0215897 1.04622 6184542
-0.903075 -0.0190853 1.50968 10921638
-0.255201 -0.0203295 1.00102 4605510
-0.741916 -0.0181514 1.30126 13553358
-0.814384 -0.0165908 1.44154 10526880
-0.464557 -0.0158542 1.28925 4671303
0.353589 -0.0182994 0.667188 5658198
-0.621714 -0.0159193 1.23034 5066061
0.357977 -0.00851995 0.955301 5526612
-0.931007 -0.00419907 1.56473 12961221
-0.296517 0.00701717 1.55878 6381921
-0.937897 0.00456063 1.5716 12698049
-0.909962 0.00562498 1.50348 11053224
0.356554 -0.000660487 0.92772 5723991
0.324183 -0.00407513 0.824855 8224125
-1.19655 0.0267065 2.15085 6250335
-0.840845 0.0134738 1.47429 8750469
-0.782272 0.011906 1.34743 13948116
-0.796177 0.0152095 1.37136 14145495
-0.962551 0.0284302 1.59424 12961221
-0.970242 0.0318674 1.60691 12829635
0.556969 0.0377914 1.15959 9211020
-0.294102 0.0283886 1.08864 5263440
0.298364 0.0150176 0.745728 8224125
-0.952114 0.054608 1.54163 10855845
-0.292363 0.0359643 1.14644 5526612
-0.879206 0.0649263 1.51756 6447714
0.286876 0.0405261 0.991945 4408131
0.298373 0.0425632 1.01928 4868682
0.336082 0.0319443 0.864886 5855577
-0.997999 0.0772484 1.62427 13553358
-0.299654 0.0376187 0.996575 4737096
0.300847 0.0458772 1.03893 4868682
-0.873787 0.0727916 1.47365 12500670
-0.916223 0.0792621 1.56311 10066329
-1.0009 0.0858507 1.61983 13092807
-0.316556 0.0615073 1.23347 5658198
-1.00495 0.0949267 1.62168 13355979
-0.363951 0.0649984 1.1733 5592405
-0.329075 0.0602144 1.11394 6316128
-0.861274 0.0865617 1.44372 12895428
0.367139 0.0481175 0.884259 11250603
-0.92658 0.100036 1.57108 7829367
-0.607914 0.0816167 1.30755 5131854
0.134473 0.105763 1.47325 7039851
0.419493 0.0718868 1.08296 5395026
-0.936767 0.109394 1.5791 9803157
-0.588854 0.0900303 1.34372 4671303
0.0973121 0.0699525 1.05022 7500402
-0.99392 0.116628 1.56892 11053224
0.179072 0.134383 1.56114 6908265
-0.852963 0.114298 1.4049 13355979
-0.31004 0.0833759 1.02935 5395026
-0.365438 0.110502 1.22957 6250335
0.51372 0.119395 1.20528 5921370
-0.963832 0.157866 1.59601 8487297
0.547317 0.103351 1.04105 9803157
0.157187 0.259773 2.12035 8158332
-0.970496 0.185558 1.58396 10395294
0.53168 0.117318 0.969821 8553090
0.477473 0.111341 0.921746 10592673
0.521098 0.120929 0.959337 8224125
0.335994 0.0678197 0.606888 7895160
-0.241928 0.147445 1.11683 6250335
-0.383046 0.157837 1.1613 5000268
-0.255034 0.161715 1.17836 7368816
-0.215751 0.153262 1.12573 7895160
0.179533 0.13566 0.990188 6776679
-0.220587 0.15829 1.1311 7895160
-0.323783 0.146385 1.05473 5789784
-0.109377 0.196326 1.2929 12434877
-0.334812 0.159474 1.08481 6052956
-0.391192 0.17711 1.17339 4934475
-0.243648 0.172503 1.1415 8289918
-0.383234 0.17489 1.14916 4868682
-0.314836 0.232786 1.44707 7171437
-0.823966 0.592601 3.37611 5987163
-0.419278 0.221113 1.36152 5658198
-0.827637 0.240146 1.45096 4473924
-0.95275 0.255429 1.5065 7829367
-1.50883 0.891628 4.67767 5329233
0.520873 0.172013 1.00359 6250335
-0.459748 0.251729 1.3188 4737096
-0.403677 0.242631 1.23358 4737096
0.453598 0.205424 1.03108 4539717
-0.485457 0.238494 1.05428 3881787
-0.438449 0.264403 1.14395 4408131
0.363871 -0.0940299 0.987521 4934475
-0.25631 -0.443045 1.19543 10658466
-0.987375 0.0728191 1.60268 13553358
0.32525 0.014857 0.762262 12040119
-0.806836 0.0355912 1.3771 13421772
-0.834521 -0.284896 1.45326 10526880
-0.839224 0.000115149 1.48065 8816262
0.361853 -0.207399 0.646776 7631988
0.356368 -0.00752631 0.855721 11250603
-0.341222 -0.360428 1.20561 13355979
-0.54258 -0.242643 1.40141 8882055
-0.315613 -0.349746 1.19101 12961221
-0.249953 -0.00299025 1.61137 6776679
-0.481311 -0.318187 1.08042 12369084
0.38612 -0.018846 0.799242 9803157
-0.0558298 -0.302763 1.05295 12829635
0.510212 0.175446 1.01188 6316128
0.2642 -0.170419 1.16571 7237230
-0.75442 0.203746 1.20141 6250335
0.334983 -0.161423 1.09745 7500402
-0.948548 0.245593 1.48424 12895428
0.386544 -0.0246349 0.802791 10790052
-0.133444 -0.291398 1.03475 10526880
0.0853655 -0.189843 1.33104 7697781
-0.122298 -0.281998 0.997783 10855845
0.259705 -0.264866 0.945275 10263708
-0.732306 -0.22237 1.58456 10000536
-0.513463 -0.320672 1.14395 12040119
-0.407646 -0.196675 1.39048 9671571
0.0226221 -0.292242 1.07548 9868950
-0.294502 -0.183565 1.28711 7829367
-0.00700361 -0.176351 1.24887 8026746
-0.13623 -0.280685 1.02899 9934743
0.0585577 -0.184375 1.3233 7368816
0.524533 0.153909 1.08169 9474192
-0.128634 -0.277085 1.02207 9474192
-0.0731915 -0.276952 1.02389 8816262
0.331807 -0.152995 1.07602 5329233
0.339487 -0.151871 1.06701 5658198
-0.457374 -0.311399 1.1596 9211020
0.421442 -0.0454091 0.834713 9539985
0.283964 -0.24485 0.919318 9013641
0.293001 -0.239454 0.896897 8947848
0.319021 -0.153045 1.09246 5460819
-0.631984 -0.322905 1.21889 9079434
0.340012 -0.150117 1.06862 5789784
0.0743994 -0.169197 1.2326 5197647
-0.887723 0.150416 1.44516 13355979
0.325416 -0.0644676 1.00396 4408131
-0.500491 -0.314876 1.2688 6381921
0.13803 -0.0645508 0.958213 4868682
-0.399798 -0.295871 1.18716 7697781
0.350596 -0.0652483 0.982371 5263440
-1.00542 0.11162 1.60873 13948116
-0.804038 -0.209014 1.64449 7566195
-0.263163 -0.283481 1.14664 9605778
0.334972 -0.0713926 0.956871 3881787
-0.199989 -0.277205 1.12083 9539985
0.416039 -0.118298 0.880578 11119017
-0.636404 -0.323684 1.32436 7895160
-0.568857 -0.307439 1.25251 7895160
-0.534626 -0.310849 1.26987 8289918
-0.0176183 -0.249173 1.00931 9342606
-0.812542 -0.117364 1.49984 5460819
-0.199922 -0.103857 1.26182 6776679
0.417668 -0.0768262 0.827572 8816262
-0.717633 -0.321209 1.32019 7829367
-0.835182 -0.124494 1.43177 11776947
0.462246 -0.0965873 0.937827 10592673
-0.378374 -0.348139 1.23172 12171705
-0.18326 -0.31664 1.09872 11579568
0.331041 -0.45328 1.10442 12500670
-0.441504 -0.324077 1.14515 10987431
0.343119 -0.452758 1.1028 12566463
-0.217389 -0.318598 1.11592 12237498
0.25603 -0.381066 0.914164 13750737
-0.13227 -0.322728 1.12993 12895428
0.164526 -0.304506 1.04666 10724259
0.360703 -0.438795 1.08043 12040119
-0.122961 -0.405582 1.00727 12632256
-0.171892 -0.407021 1.02243 12171705
0.159098 -0.290204 1.00351 9276813
-0.905084 -0.592659 1.58144 12763842
0.359613 -0.20556 0.648488 6908265
-0.258716 -0.287966 1.01533 9671571
-0.615695 -0.32711 1.19845 11119017
0.0286719 -0.457661 1.19761 12303291
-0.194795 -0.282337 0.997406 10921638
-0.103996 -0.278649 0.978999 10987431
0.486132 -0.819842 2.25088 12369084
-0.487603 -0.316767 1.15982 9803157
0.319138 -0.504896 1.35038 12632256
-0.0667862 -0.276896 0.977852 10329501
-0.740563 -0.473798 1.28602 13355979
-0.0515662 -0.281658 0.997427 11776947
-1.64485 -1.0374 2.97284 13355979
0.157792 -0.271752 0.94871 9605778
-0.0582911 -0.465051 1.25363 11908533
-0.684166 -0.330907 1.23544 10197915
-0.751695 -0.456372 1.28312 12500670
-0.642955 -0.32757 1.21989 10066329
0.433088 -0.447361 1.23084 12303291
-0.745399 -0.447121 1.26874 13027014
-0.593601 -0.32384 1.20239 9934743
0.0531074 -0.272292 1.01644 7566195
-0.520903 -0.319838 1.18294 10000536
0.231769 -0.251497 0.916595 7895160
0.241972 -0.25015 0.910177 8224125
0.331635 -0.172707 0.653847 9671571
0.139029 -0.258443 0.966823 6842472
-0.977597 -0.353053 1.69531 10263708
0.272116 -0.249522 0.921183 8882055
-0.911887 -0.346549 1.67382 10724259
-0.771225 -0.330646 1.36435 8553090
-1.01205 -0.357077 1.77072 10526880
-0.740641 -0.336036 1.38842 7105644
-0.43276 -0.255136 1.25499 9868950
-0.588921 -0.311187 1.26625 8289918
-0.852973 -0.258278 1.3386 10132122
-0.563481 -0.316546 1.29037 7566195
-0.182391 -0.212208 1.04509 10000536
-0.511723 -0.307889 1.24784 7434609
-0.19895 -0.220184 1.12109 9803157
-0.383262 -0.296626 1.19019 7368816
-0.846678 -0.244827 1.34654 10132122
0.341991 -0.156336 0.707612 9803157
-0.130548 -0.180685 1.26026 8882055
-0.192165 -0.168804 1.17515 7237230
-0.459619 -0.245505 1.36063 9013641
-0.167572 -0.171116 1.1948 7303023
-0.156063 -0.178584 1.26442 7631988
-0.844102 -0.238447 1.35332 9934743
-0.0449056 -0.178687 1.25526 8684676
-0.416477 -0.23695 1.31697 10132122
-0.663493 -0.201306 1.55266 6250335
0.346086 -0.154079 0.718012 9408399
-0.0239567 -0.175218 1.24191 6974058
-0.881345 -0.280273 1.68034 10790052
-0.85381 -0.210976 1.69345 4934475
0.313651 -0.152164 0.715748 10000536
-0.819324 -0.205988 1.64127 4802889
-0.432902 -0.231565 1.34813 9342606
-0.718798 -0.200436 1.57726 5263440
-0.13156 -0.209606 1.18745 11119017
-0.679172 -0.198947 1.55891 5395026
-0.512468 -0.22626 1.35071 9342606
-0.360603 -0.183137 1.37365 5197647
0.344542 -0.14845 0.724113 9605778
-0.184934 -0.174912 1.27636 5658198
-0.815929 -0.244657 1.52611 10855845
-0.829213 -0.12673 1.52319 5987163
-0.511416 -0.22844 1.42366 9276813
0.849184 -2.27945 1.07992 10921638
-0.577581 -2.70049 1.02758 10921638
0.310817 -0.0799801 0.567833 5066061
0.880608 -2.3716 1.0865 10592673
0.882007 -1.9731 1.12872 12040119
0.902168 -2.34324 1.10235 10526880
-0.775048 -0.104604 1.39767 10921638
-0.236382 -2.59862 1.06709 10592673
-0.287544 -2.23669 0.915161 12040119
0.471975 -2.42499 1.0775 10658466
0.0790842 -2.53159 1.08511 10395294
0.455579 -2.36826 1.05211 10526880
0.139457 -2.58829 1.20482 10921638
0.462904 -2.4229 1.07708 10197915
0.347647 -2.41473 1.05796 9737364
-0.617588 -2.64545 1.02135 10921638
0.428461 -2.38356 1.0576 10329501
0.727793 -2.05654 1.01384 10658466
-0.467479 -2.22674 1.12465 11908533
-0.448535 -2.83722 0.764723 9803157
-0.836249 -2.46401 1.30886 10724259
-0.404375 -2.86846 0.711745 9868950
0.891995 -1.98706 0.978933 12040119
0.883149 -1.98144 1.08896 11645361
-0.309425 -2.97794 0.943827 10132122
-0.427879 -2.86024 0.742607 10132122
0.829381 -1.95082 1.03498 11842740
0.216255 -2.29312 0.998758 9671571
-0.185839 -2.28582 1.01322 12171705
-0.468455 -2.81763 0.826418 10526880
-0.784122 -2.45007 1.24392 11184810
0.776053 -2.5029 0.866025 11447982
-0.824102 -2.47852 1.25854 11645361
0.00953737 -0.285324 1.01858 10329501
0.880707 -1.97191 1.1178 11908533
0.00487295 -0.174279 1.25214 6842472
-0.474944 -2.81059 0.834357 10263708
-0.640069 -2.47663 1.14429 12237498
0.883492 -1.99284 1.04007 11447982
-0.695184 -2.47284 1.11669 11053224
0.459713 -2.86594 1.0096 9539985
-0.616672 -2.59381 1.0827 11316396
-0.205539 -3.02409 0.990303 10329501
-0.452825 -2.83698 0.772875 9934743
-0.222464 -2.27473 0.985935 12040119
-0.466928 -2.81028 0.788152 9803157
-0.657044 -2.55506 1.14062 11513775
0.569002 -2.56944 0.845247 9934743
0.589693 -2.08926 0.98744 10329501
0.566981 -2.571 0.849885 9803157
0.886399 -2.63458 0.988646 11645361
0.312645 -2.29805 0.989182 10921638
0.339505 -0.230886 0.854659 9803157
-0.434599 -2.48949 0.995399 10987431
-0.706594 -2.48826 1.08811 10658466
-0.694413 -0.327141 1.23901 8355711
0.55645 -2.50097 0.798053 9408399
0.706839 -2.51643 0.85453 10724259
-0.657511 -2.57298 1.0263 10066329
0.665371 -2.51246 0.843938 10066329
0.624587 -2.52694 0.916097 8816262
0.771565 -2.50303 0.862555 11447982
-0.300389 -0.0756477 1.18197 4473924
0.743256 -2.49948 0.855712 10855845
-0.602834 -2.61424 1.0651 11184810
-0.641626 -2.49169 1.11194 11513775
0.298698 -2.59407 0.901021 9934743
-0.0383711 -2.61565 0.77293 10000536
0.354692 -2.58876 0.910689 10132122
-0.933184 -2.4761 1.4483 10592673
0.691739 -2.29123 1.04996 11579568
-0.169744 -2.64486 0.796637 9803157
-0.203402 -2.6915 0.864265 9671571
-0.500667 -2.75649 0.829037 10197915
-0.905015 -2.46078 1.49982 11250603
0.932505 -2.13205 1.0618 9803157
0.71219 -2.51224 0.937021 9671571
-0.933189 -2.45963 1.45741 10592673
-0.505013 -2.78212 0.873661 10592673
-0.510359 -2.75185 0.842602 10461087
-0.114562 -2.50566 1.06283 11842740
0.00051491 -2.66183 0.890814 9342606
0.315439 -2.60425 0.918472 9803157
-0.243225 -2.52725 1.04916 11053224
0.373785 -2.59206 0.922087 10000536
-0.293633 -2.55432 1.06699 10987431
-0.0300045 -2.68032 0.905159 9342606
0.0411788 -2.66228 0.906423 9408399
-0.540694 -2.76116 0.916307 10724259
0.12043 -2.63449 0.900137 9868950
-0.479939 -2.76427 0.940256 11053224
0.564515 -2.53763 0.923542 9803157
0.711235 -2.50618 0.93182 9605778
0.900277 -2.36724 0.949843 11776947
0.738548 -2.50426 0.937282 9605778
0.763611 -2.28494 1.05536 10329501
0.791447 -2.00781 0.971419 11842740
-0.566264 -2.71369 0.954639 10790052
-0.26895 -2.70227 0.870955 10526880
0.127841 -2.46541 1.07904 11513775
-0.602729 -2.55445 1.05671 11053224
-0.531804 -2.71035 1.00801 11447982
-0.52484 -2.72536 0.858403 10263708
0.801281 -2.21275 1.04773 11382189
-0.550833 -2.68333 0.996565 11382189
-0.506575 -2.77349 0.940211 11447982
0.794236 -2.0096 0.970481 12303291
-0.948408 -2.5426 1.43021 10790052
-0.431092 -2.91181 0.753807 10066329
0.967179 -1.88322 1.03563 11119017
-0.782579 -2.47791 1.36326 12105912
-0.487664 -2.72483 0.944179 11579568
-0.860106 -2.48134 1.48492 12040119
-0.4641 -2.57881 1.08223 11184810
-0.91216 -2.5349 1.42232 11053224
-0.571688 -2.67616 0.916475 10000536
-0.406903 -2.96119 0.817166 10724259
0.645407 -2.81401 0.953369 10592673
0.714113 -2.05196 1.00679 10658466
-0.487895 -0.200159 1.42486 8487297
0.478451 -2.4584 1.00065 9803157
-0.84329 -2.5088 1.33263 10855845
0.37663 -2.50948 1.0343 10987431
-0.881548 -2.5259 1.34985 11908533
0.857021 -2.25621 1.0473 10066329
-0.882238 -2.52653 1.33442 10526880
0.685447 -2.30708 1.05889 11184810
-0.82495 -2.50781 1.30686 10855845
0.657267 -2.31332 1.05797 11513775
0.477864 -2.86429 0.971443 9342606
-0.442978 -2.88355 0.764975 9737364
-0.22103 -2.54103 1.07348 11316396
0.96763 -2.8284 1.08102 9934743
-0.608805 -2.58497 1.00455 10987431
-0.801244 -2.50458 1.27214 10790052
0.749668 -2.3 1.06557 10921638
-0.842175 -2.52534 1.29447 12105912
-0.490768 -2.26322 0.932539 11513775
0.0476351 -2.51519 1.05328 10658466
-0.826966 -2.53262 1.29987 11250603
0.45344 -2.43358 1.0785 10658466
-0.164883 -3.01648 0.98178 10197915
0.344301 -2.43888 1.05558 10790052
-0.0768055 -3.00084 0.994905 10724259
0.736439 -2.37718 1.10175 10329501
0.532657 -2.8939 1.05542 10132122
0.547228 -2.90144 1.06589 10197915
-0.225591 -2.55448 1.07914 10724259
-0.774725 -2.50128 1.23239 10658466
0.815686 -1.95012 1.28171 10855845
-0.801279 -2.52347 1.26303 11053224
0.522051 -0.128026 1.0724 9079434
0.766321 -2.85574 1.08116 10987431
0.041673 -2.43811 0.992191 10066329
0.719555 -2.87202 1.08834 11053224
-0.441 -2.86215 0.785629 10790052
0.328715 -2.42351 1.0764 10526880
-0.448368 -2.88793 0.80692 10592673
0.503685 -2.36425 1.05528 10461087
-0.199072 -3.01793 0.987975 10724259
-0.863358 -2.47978 1.44233 11184810
-0.698139 -2.46781 1.195 11908533
-0.454854 -2.88991 0.819218 11184810
-0.915808 -2.49924 1.44153 11776947
-0.436255 -2.9266 0.857378 11382189
-1.00379 -2.54669 1.50389 10395294
-0.470181 -2.86672 0.798173 9803157
-0.368453 -3.00894 0.768057 10592673
-0.443901 -2.90369 0.86393 11053224
-0.886331 -2.48611 1.46368 11316396
-0.389494 -2.96844 0.735088 10526880
-0.574454 -2.37877 1.06706 11316396
-0.412574 -2.94078 0.729759 9474192
-0.696074 -2.49413 1.23115 12434877
-0.465794 -2.83257 0.816344 10987431
0.926002 -2.63683 1.00101 11250603
-0.914288 -2.51666 1.43542 10526880
-0.396828 -2.74414 0.914561 11579568
-0.150725 -2.99062 0.962581 10592673
0.528199 -2.91528 1.07123 10000536
-0.458803 -2.80984 0.774139 9605778
1.09253 -2.52554 1.04863 11513775
0.899222 -2.88464 1.15731 11250603
-0.370192 -2.99035 0.802634 11776947
0.137227 -2.75643 0.901575 10526880
-0.49632 -2.71319 0.817453 10790052
0.390805 -3.03742 0.764954 8816262
0.443796 -3.03246 0.785978 8355711
0.959242 -2.49075 0.905401 11316396
-0.200738 -2.40952 0.831239 9868950
-0.340529 -3.12171 0.734613 11184810
-0.0734815 -2.65425 0.781892 11119017
0.924806 -2.47565 0.939831 9342606
-0.230121 -2.21355 0.894683 12040119
-1.03884 -2.55025 1.60333 11053224
0.889296 -2.45791 0.905762 9276813
-0.127298 -2.67191 0.788483 11513775
0.687623 -2.54281 0.888622 9474192
-0.535562 -2.52764 0.984329 11053224
0.973619 -2.48614 0.905521 10790052
-0.494955 -2.80218 0.828927 11250603
0.769125 -2.52515 0.88849 10855845
-0.577276 -2.56521 1.01847 10263708
-0.60966 -2.64774 0.967405 10526880
-0.188718 -2.68707 0.798592 11711154
0.966692 -2.2894 1.23486 10526880
-0.375526 -2.79975 0.856308 11184810
-0.407054 -2.88734 0.840482 11513775
-0.403402 -2.90563 0.836205 11974326
-0.00789529 -2.62317 0.847543 9803157
-0.541562 -2.55948 0.96145 10461087
-0.599958 -2.64735 0.996253 10921638
0.431103 -2.68735 0.944778 9934743
-0.279797 -3.41447 0.871708 11053224
-0.351354 -3.23559 0.692632 10263708
