VERSION .7
FIELDS x y z rgb
SIZE 4 4 4 4
TYPE F F F F
COUNT 1 1 1 1
WIDTH 1349
HEIGHT 1
VIEWPOINT 0 0 0 1 0 0 0
POINTS 1349
DATA ascii
-0.122298 -0.281998 0.997783 10855845
0.259704 -0.264866 0.945275 10263708
-0.732311 -0.222368 1.58456 10000536
-0.513463 -0.320674 1.14395 12040119
-0.407646 -0.196675 1.39048 9671571
0.022622 -0.292241 1.07548 9868950
-0.294501 -0.183563 1.28711 7829367
-0.00700148 -0.176353 1.24887 8026746
-0.136229 -0.280685 1.02899 9934743
0.0585449 -0.184381 1.3233 7368816
0.524531 0.153921 1.08169 9474192
-0.128636 -0.277085 1.02207 9474192
-0.073192 -0.276951 1.02389 8816262
0.331806 -0.152993 1.07602 5329233
0.339489 -0.151871 1.06701 5658198
-0.457374 -0.311399 1.1596 9211020
0.421441 -0.0454084 0.834713 9539985
0.283965 -0.24485 0.919318 9013641
0.293002 -0.239453 0.896897 8947848
0.31902 -0.153046 1.09246 5460819
-0.631984 -0.322905 1.21889 9079434
0.340011 -0.150116 1.06862 5789784
0.0743999 -0.169196 1.2326 5197647
-0.88772 0.150398 1.44516 13355979
0.325421 -0.064464 1.00396 4408131
-0.500488 -0.314869 1.2688 6381921
0.138047 -0.0645609 0.958213 4868682
-0.399798 -0.29587 1.18716 7697781
0.350595 -0.0652479 0.982371 5263440
-1.00542 0.111625 1.60873 13948116
-0.804039 -0.209014 1.64449 7566195
-0.263163 -0.283482 1.14664 9605778
0.334971 -0.0713909 0.956871 3881787
-0.199988 -0.277204 1.12083 9539985
0.416047 -0.118296 0.880578 11119017
-0.636404 -0.323682 1.32436 7895160
-0.56886 -0.307437 1.25251 7895160
-0.534629 -0.310848 1.26987 8289918
-0.0176171 -0.249173 1.00931 9342606
-0.812543 -0.117362 1.49984 5460819
-0.199911 -0.103843 1.26182 6776679
0.417669 -0.0768277 0.827572 8816262
-0.717629 -0.321207 1.32019 7829367
-0.835185 -0.124494 1.43177 11776947
0.462248 -0.0965886 0.937827 10592673
-0.378385 -0.348143 1.23172 12171705
-0.183254 -0.316627 1.09872 11579568
0.331041 -0.45328 1.10442 12500670
-0.441504 -0.324073 1.14515 10987431
0.343121 -0.452761 1.1028 12566463
-0.217412 -0.318615 1.11592 12237498
0.256021 -0.381035 0.914163 13750737
-0.132266 -0.322726 1.12993 12895428
0.164522 -0.304502 1.04666 10724259
0.360699 -0.438794 1.08043 12040119
-0.122954 -0.405578 1.00727 12632256
-0.171886 -0.40702 1.02243 12171705
0.159094 -0.290203 1.00351 9276813
-0.90506 -0.592647 1.58144 12763842
-0.258714 -0.287965 1.01533 9671571
-0.615695 -0.32711 1.19845 11119017
0.0286629 -0.457645 1.19761 12303291
-0.194795 -0.282337 0.997406 10921638
-0.103996 -0.27865 0.978999 10987431
-0.487601 -0.316767 1.15982 9803157
0.319166 -0.50493 1.35038 12632256
-0.0667857 -0.276896 0.977852 10329501
-0.740565 -0.473794 1.28602 13355979
-0.051568 -0.281665 0.997427 11776947
0.157793 -0.271752 0.94871 9605778
-0.0582628 -0.465071 1.25363 11908533
-0.684164 -0.330906 1.23544 10197915
-0.751713 -0.45637 1.28312 12500670
-0.642955 -0.327571 1.21989 10066329
0.433076 -0.447375 1.23084 12303291
-0.745413 -0.447118 1.26874 13027014
-0.593603 -0.323841 1.20239 9934743
0.0531053 -0.272291 1.01644 7566195
-0.520904 -0.319836 1.18294 10000536
0.231769 -0.251492 0.916595 7895160
0.24197 -0.250148 0.910177 8224125
0.139029 -0.258437 0.966823 6842472
-0.977598 -0.353056 1.69531 10263708
0.272116 -0.249522 0.921183 8882055
-0.911887 -0.34655 1.67382 10724259
-0.771224 -0.330643 1.36435 8553090
-1.01205 -0.357076 1.77072 10526880
-0.740644 -0.336036 1.38842 7105644
-0.432762 -0.25513 1.25499 9868950
-0.588923 -0.311185 1.26625 8289918
-0.85297 -0.258276 1.3386 10132122
-0.563484 -0.316547 1.29037 7566195
-0.182391 -0.21221 1.04509 10000536
-0.511725 -0.307889 1.24784 7434609
-0.198941 -0.220184 1.12109 9803157
-0.38326 -0.296627 1.19019 7368816
-0.846679 -0.24483 1.34654 10132122
-0.130548 -0.180684 1.26026 8882055
-0.192165 -0.168802 1.17515 7237230
-0.459628 -0.245495 1.36063 9013641
-0.167573 -0.171118 1.1948 7303023
-0.156063 -0.178583 1.26442 7631988
-0.844103 -0.238451 1.35332 9934743
-0.044906 -0.178685 1.25526 8684676
-0.416475 -0.23695 1.31697 10132122
-0.663493 -0.201305 1.55266 6250335
-0.0239571 -0.175218 1.24191 6974058
-0.881337 -0.280273 1.68034 10790052
-0.853812 -0.210979 1.69345 4934475
-0.819325 -0.205987 1.64127 4802889
-0.432896 -0.231568 1.34813 9342606
-0.718798 -0.200436 1.57726 5263440
-0.131566 -0.209602 1.18745 11119017
-0.679172 -0.198947 1.55891 5395026
-0.51247 -0.22626 1.35071 9342606
-0.360602 -0.183135 1.37365 5197647
-0.184932 -0.174912 1.27636 5658198
-0.815934 -0.244663 1.52611 10855845
-0.829212 -0.126732 1.52319 5987163
-0.511413 -0.228438 1.42366 9276813
0.849184 -2.27945 1.07992 10921638
-0.577582 -2.70049 1.02758 10921638
0.880608 -2.3716 1.0865 10592673
0.882007 -1.9731 1.12872 12040119
0.902168 -2.34324 1.10235 10526880
-0.77505 -0.104609 1.39767 10921638
-0.236379 -2.59861 1.0671 10592673
-0.287543 -2.23669 0.91516 12040119
0.471975 -2.42498 1.0775 10658466
0.0790822 -2.53159 1.08511 10395294
0.455583 -2.36826 1.05211 10526880
0.139455 -2.58829 1.20482 10921638
0.462905 -2.4229 1.07708 10197915
0.347646 -2.41472 1.05797 9737364
-0.617585 -2.64545 1.02135 10921638
0.428458 -2.38356 1.0576 10329501
0.727794 -2.05654 1.01384 10658466
-0.467481 -2.22674 1.12465 11908533
-0.448534 -2.83722 0.764723 9803157
-0.836249 -2.46401 1.30886 10724259
-0.404375 -2.86846 0.711745 9868950
0.891996 -1.98707 0.978933 12040119
0.88315 -1.98144 1.08896 11645361
-0.309424 -2.97794 0.943827 10132122
-0.427884 -2.86024 0.742608 10132122
0.829381 -1.95082 1.03498 11842740
0.216257 -2.29312 0.998758 9671571
-0.185828 -2.28583 1.01321 12171705
-0.468455 -2.81763 0.826419 10526880
-0.784118 -2.45007 1.24392 11184810
0.776052 -2.50291 0.866024 11447982
-0.824101 -2.47852 1.25854 11645361
0.00953663 -0.285325 1.01858 10329501
0.880705 -1.97191 1.1178 11908533
0.00487456 -0.174279 1.25214 6842472
-0.474944 -2.81059 0.834358 10263708
-0.64007 -2.47663 1.1443 12237498
0.88349 -1.99283 1.04007 11447982
-0.695184 -2.47284 1.11669 11053224
0.459713 -2.86594 1.0096 9539985
-0.616672 -2.59381 1.0827 11316396
-0.20554 -3.02409 0.990302 10329501
-0.452826 -2.83698 0.772874 9934743
-0.222468 -2.27473 0.985935 12040119
-0.46693 -2.81027 0.788153 9803157
-0.657045 -2.55506 1.14062 11513775
0.569007 -2.56944 0.845247 9934743
0.589694 -2.08926 0.987442 10329501
0.566984 -2.571 0.849885 9803157
0.886397 -2.63457 0.988648 11645361
0.31265 -2.29805 0.989183 10921638
0.339505 -0.230886 0.854659 9803157
-0.434599 -2.48949 0.9954 10987431
-0.706593 -2.48826 1.08811 10658466
-0.694411 -0.327141 1.23901 8355711
0.556457 -2.50097 0.798049 9408399
0.706837 -2.51643 0.854529 10724259
-0.65751 -2.57298 1.0263 10066329
0.665368 -2.51246 0.843939 10066329
0.624589 -2.52694 0.916097 8816262
0.771561 -2.50303 0.862554 11447982
-0.300389 -0.0756417 1.18197 4473924
0.743252 -2.49948 0.855711 10855845
-0.602834 -2.61423 1.0651 11184810
-0.641628 -2.49169 1.11194 11513775
0.2987 -2.59407 0.901022 9934743
-0.0383734 -2.61566 0.772925 10000536
0.354693 -2.58876 0.910689 10132122
-0.614076 -0.321323 1.21117 8026746
0.691741 -2.29123 1.04997 11579568
-0.169743 -2.64484 0.796645 9803157
-0.203402 -2.6915 0.864264 9671571
-0.50067 -2.75649 0.829039 10197915
-0.364118 -0.308733 1.02742 11711154
0.932504 -2.13205 1.0618 9803157
0.712188 -2.51224 0.937021 9671571
-0.505014 -2.78212 0.873661 10592673
-0.51036 -2.75185 0.842603 10461087
-0.114564 -2.50566 1.06283 11842740
0.000517264 -2.66183 0.890818 9342606
0.315437 -2.60425 0.918473 9803157
-0.243225 -2.52726 1.04916 11053224
0.373784 -2.59206 0.922089 10000536
-0.293635 -2.55432 1.06699 10987431
-0.0300019 -2.68031 0.905161 9342606
0.0411783 -2.66228 0.906422 9408399
-0.540694 -2.76116 0.916307 10724259
0.120426 -2.63449 0.900138 9868950
-0.479937 -2.76427 0.940255 11053224
0.564515 -2.53763 0.923541 9803157
0.711238 -2.50618 0.931821 9605778
0.900277 -2.36724 0.949843 11776947
0.73855 -2.50427 0.937278 9605778
0.76361 -2.28494 1.05536 10329501
0.791448 -2.00781 0.971418 11842740
-0.566264 -2.71369 0.954639 10790052
-0.268932 -2.70228 0.870948 10526880
0.127841 -2.4654 1.07904 11513775
-0.602727 -2.55445 1.05671 11053224
-0.531803 -2.71035 1.00801 11447982
-0.524845 -2.72536 0.858403 10263708
0.801281 -2.21275 1.04773 11382189
-0.550833 -2.68333 0.996566 11382189
-0.506579 -2.77349 0.940211 11447982
0.794237 -2.00961 0.97048 12303291
-0.431094 -2.91181 0.753807 10066329
0.967179 -1.88322 1.03563 11119017
-0.782577 -2.47791 1.36326 12105912
-0.487665 -2.72483 0.944179 11579568
-0.829528 -0.151907 1.38646 11382189
-0.4641 -2.57881 1.08222 11184810
-0.675253 -0.313762 1.07873 12105912
-0.571689 -2.67616 0.916475 10000536
-0.406906 -2.96119 0.817167 10724259
0.645407 -2.81401 0.95337 10592673
0.714113 -2.05196 1.00679 10658466
-0.487896 -0.200159 1.42486 8487297
0.478454 -2.4584 1.00065 9803157
-0.84329 -2.5088 1.33263 10855845
0.376631 -2.50948 1.0343 10987431
-0.88155 -2.5259 1.34985 11908533
0.85702 -2.25621 1.0473 10066329
-0.882236 -2.52653 1.33442 10526880
0.685447 -2.30708 1.05889 11184810
-0.824954 -2.50781 1.30686 10855845
0.657266 -2.31332 1.05797 11513775
0.477865 -2.86428 0.971444 9342606
-0.442975 -2.88355 0.764974 9737364
-0.221033 -2.54103 1.07348 11316396
0.967631 -2.8284 1.08102 9934743
-0.608804 -2.58497 1.00455 10987431
-0.801242 -2.50458 1.27214 10790052
0.749668 -2.3 1.06557 10921638
-0.842177 -2.52534 1.29447 12105912
-0.490769 -2.26321 0.932541 11513775
0.0476344 -2.51519 1.05328 10658466
-0.826962 -2.53262 1.29987 11250603
0.45344 -2.43358 1.0785 10658466
-0.164888 -3.01648 0.98178 10197915
0.344299 -2.43888 1.05558 10790052
-0.0768056 -3.00084 0.994904 10724259
0.736441 -2.37718 1.10174 10329501
0.532656 -2.8939 1.05542 10132122
0.547229 -2.90144 1.06589 10197915
-0.225591 -2.55448 1.07914 10724259
-0.774725 -2.50128 1.23239 10658466
0.815689 -1.95012 1.28171 10855845
-0.80128 -2.52348 1.26303 11053224
0.522051 -0.128024 1.0724 9079434
0.766321 -2.85574 1.08116 10987431
0.0416691 -2.43812 0.99219 10066329
0.719555 -2.87202 1.08834 11053224
-0.440998 -2.86215 0.785629 10790052
0.328721 -2.42352 1.0764 10526880
-0.448369 -2.88793 0.806922 10592673
0.503684 -2.36425 1.05528 10461087
-0.199072 -3.01793 0.987976 10724259
-0.863359 -2.47978 1.44232 11184810
-0.698136 -2.46781 1.195 11908533
-0.454854 -2.88991 0.819217 11184810
-0.436256 -2.9266 0.857378 11382189
-0.0218787 -0.252581 1.01307 8684676
-0.470183 -2.86671 0.798174 9803157
-0.368453 -3.00894 0.768057 10592673
-0.443901 -2.90369 0.86393 11053224
0.392852 -0.0456692 0.984189 11119017
-0.38949 -2.96845 0.735088 10526880
-0.574456 -2.37877 1.06706 11316396
-0.412575 -2.94079 0.729757 9474192
-0.696073 -2.49413 1.23115 12434877
-0.465794 -2.83257 0.816342 10987431
0.926002 -2.63684 1.00101 11250603
0.334596 -0.106079 0.85461 8750469
-0.396829 -2.74414 0.914561 11579568
-0.150725 -2.99062 0.962581 10592673
0.528198 -2.91528 1.07123 10000536
-0.458802 -2.80984 0.774139 9605778
1.09253 -2.52554 1.04863 11513775
0.899222 -2.88464 1.15731 11250603
-0.370192 -2.99035 0.802634 11776947
0.137225 -2.75643 0.901576 10526880
-0.49632 -2.71319 0.817453 10790052
0.390806 -3.03743 0.764949 8816262
0.443796 -3.03246 0.785976 8355711
0.959243 -2.49075 0.905401 11316396
-0.200737 -2.40952 0.831238 9868950
-0.340529 -3.12172 0.734613 11184810
-0.0734798 -2.65426 0.781891 11119017
0.924805 -2.47565 0.939832 9342606
-0.23012 -2.21356 0.894682 12040119
0.388334 -0.0355133 0.950037 8947848
0.889296 -2.45791 0.905761 9276813
-0.127295 -2.67191 0.788483 11513775
0.687623 -2.54281 0.888622 9474192
-0.535562 -2.52764 0.984329 11053224
0.973618 -2.48614 0.905522 10790052
-0.494953 -2.80219 0.828926 11250603
0.769125 -2.52515 0.88849 10855845
-0.577276 -2.56521 1.01847 10263708
-0.609662 -2.64774 0.967405 10526880
-0.188719 -2.68707 0.798591 11711154
0.966691 -2.2894 1.23487 10526880
-0.375526 -2.79975 0.856309 11184810
-0.407054 -2.88734 0.840482 11513775
-0.403401 -2.90563 0.836205 11974326
-0.00789601 -2.62317 0.847543 9803157
-0.541561 -2.55948 0.961449 10461087
-0.599958 -2.64735 0.996255 10921638
0.431106 -2.68734 0.94478 9934743
-0.279797 -3.41447 0.871709 11053224
-0.351354 -3.23559 0.692631 10263708
-0.277022 -3.37983 0.849993 11250603
0.811243 -3.05069 0.843101 11447982
1.04805 -3.12185 0.977452 12040119
-0.323458 -3.26867 0.752228 11645361
0.933293 -2.18692 0.872844 10658466
-0.353726 -3.20607 0.689522 10132122
-0.170253 -2.21595 0.913689 11645361
0.734734 -2.37544 1.10202 10197915
-0.0258218 -3.17346 0.759998 11316396
-0.574095 -2.63826 1.025 11250603
0.495115 -2.58807 0.955385 10066329
-0.101821 -3.17635 0.746463 11645361
0.00355765 -3.15459 0.754327 10461087
-0.621446 -2.63571 1.01623 11119017
0.37932 -3.07531 0.780756 10132122
0.136361 -3.09705 0.739711 10197915
0.964235 -2.48364 1.0001 10066329
0.611626 -2.96799 0.753927 9408399
-0.36714 -3.18053 0.703523 10066329
-0.313163 -3.21166 0.753242 11645361
-0.154421 -2.54846 1.07552 9408399
0.723299 -2.54664 0.963739 9145227
0.188807 -2.2943 0.842626 10855845
0.357981 -3.1232 0.866564 8684676
0.515182 -3.09532 0.8829 9211020
0.595006 -3.08989 0.899829 9474192
0.606269 -3.08479 0.897922 9408399
0.51453 -3.0929 0.885028 9868950
-0.208671 -3.19366 0.787012 9605778
0.102365 -3.15801 0.838867 8816262
0.797456 -2.45394 0.901483 9408399
-0.125908 -3.19211 0.817954 9145227
-0.274675 -3.20996 0.79844 10395294
0.0494349 -2.15409 0.922567 9605778
0.820409 -2.37293 1.13018 9145227
0.0693495 -3.1183 0.859522 9408399
-0.353024 -3.11091 0.745776 11579568
0.0506665 -3.07064 0.82242 10000536
0.0484741 -3.06137 0.816521 9934743
-0.183261 -2.52999 1.07743 10921638
0.0729025 -3.13134 0.939159 9474192
-0.348184 -3.08353 0.786132 11250603
0.0356218 -3.08446 0.921268 9079434
0.886422 -2.37994 1.09251 10658466
-0.251036 -2.23376 0.964653 10329501
-0.368907 -2.15783 1.2186 10724259
-0.390447 -2.99582 0.798039 10855845
0.502572 -2.47432 1.00842 9737364
0.584395 -2.6184 0.910957 9276813
0.893199 -2.34424 0.997804 11447982
-0.475505 -2.66363 0.909617 11776947
0.48145 -2.95292 1.05978 9868950
0.31122 -2.96877 1.02765 10461087
0.341302 -2.96013 1.02691 10526880
0.370993 -2.9485 1.02223 10658466
0.24424 -2.96949 1.01131 10132122
0.259155 -2.97352 1.02156 10197915
0.298417 -2.96883 1.029 9737364
0.213209 -2.98151 1.02171 9079434
-0.0818426 -3.03915 1.00005 9868950
0.296216 -2.95927 1.03298 9539985
0.936655 -2.87312 1.14868 10987431
0.970308 -2.86918 1.15523 10724259
0.844961 -2.33727 1.08267 9605778
0.585567 -2.90464 1.07959 11119017
0.610328 -2.89957 1.08742 11447982
0.312695 -2.91585 1.01037 11250603
0.144199 -2.94561 0.996103 10855845
0.342053 -2.91469 1.02481 11908533
0.0568636 -2.9688 1.00173 10921638
-0.0951796 -2.98245 0.971796 10395294
-0.323161 -3.03559 0.973246 9276813
-0.0249313 -2.49981 1.06354 10921638
-0.252252 -3.01336 0.968645 10329501
0.620544 -2.32524 1.05081 10658466
-0.394063 -2.24807 0.932768 11776947
-0.34986 -3.12468 0.76373 11184810
-0.329844 -3.11658 0.765941 10921638
0.761237 -2.15928 0.928895 10790052
-0.352613 -3.09456 0.748015 10987431
-0.209093 -2.54361 1.07001 10855845
-0.0154974 -2.14145 0.406869 11382189
-0.38753 -3.0479 0.708563 9013641
-0.38535 -3.04874 0.709686 9605778
-0.389859 -3.05586 0.717753 9934743
0.365232 -2.32846 1.05247 10461087
0.331523 -2.27962 0.914578 10132122
0.908169 -2.22483 1.07596 9934743
-0.593699 -2.55279 1.04196 10790052
-0.358477 -3.10724 0.771612 10855845
-0.350097 -3.13421 0.763162 10658466
-0.339969 -3.1033 0.776644 11250603
-0.383605 -3.0452 0.729518 10724259
-0.362077 -3.09668 0.774267 10724259
0.877095 -1.94355 1.22078 11250603
-0.345489 -3.09787 0.782854 11513775
-0.398396 -3.02209 0.72302 9803157
-0.435919 -2.86421 0.751833 9539985
-0.386538 -3.04245 0.741713 10395294
-0.365656 -3.08184 0.777413 10592673
-0.415281 -2.92361 0.811464 11250603
-0.38858 -2.99475 0.707477 9868950
-0.393673 -2.93377 0.83042 11908533
-0.405015 -2.99438 0.72933 9803157
-0.371682 -3.03003 0.765855 10921638
0.339748 -2.95828 1.03931 10197915
-0.408988 -2.99001 0.73238 9605778
-0.350514 -3.03386 0.781695 11382189
-0.0667453 -3.21836 0.844805 9145227
-0.355281 -3.02252 0.787033 11513775
-0.377837 -3.01859 0.786339 10855845
-0.416227 -2.91399 0.81476 11053224
-0.383764 -3.01019 0.793809 10724259
0.103838 -2.96293 0.992808 10263708
-0.418765 -2.92651 0.829886 10921638
-0.371672 -3.13704 0.723421 11053224
-0.365866 -2.99841 0.800169 11447982
0.67688 -2.8937 1.07975 10263708
-0.422939 -2.93615 0.741187 8947848
-0.394519 -2.98473 0.789592 11447982
-0.364102 -3.10272 0.810009 11711154
-0.112876 -2.98994 0.971654 10526880
-0.588872 -2.64389 1.03545 10263708
0.419108 -2.93863 1.06026 10197915
-0.315265 -3.13937 0.926743 11184810
-0.420749 -2.93292 0.742791 10066329
-0.436371 -2.88232 0.792467 11053224
-0.414544 -2.93794 0.768079 10592673
-0.288585 -2.99903 0.939604 9868950
-0.382356 -2.98231 0.818794 11974326
-0.139926 -3.03539 1.01182 10921638
-0.420989 -2.92816 0.765805 10855845
-0.124787 -3.03483 1.01519 10855845
-0.400281 -2.95609 0.799483 10855845
-0.429973 -2.8997 0.750179 9803157
0.481121 -2.97407 1.11401 9079434
0.436468 -1.80585 1.10612 9211020
0.725891 -2.82571 1.03827 11053224
0.94599 -2.74306 0.961316 11119017
-0.175616 -2.11707 1.22025 10197915
-0.435559 -2.88164 0.748214 8618883
-0.0323007 -2.13573 0.955783 8618883
0.811478 -1.4718 1.09948 8816262
0.1136 -1.54723 1.01397 9211020
0.228654 -2.88945 0.921724 10197915
0.832609 -1.53959 1.15381 8092539
-0.279207 -2.23034 0.658632 8816262
-0.252419 -2.28315 0.692404 10592673
0.067547 -1.57642 1.01173 10329501
-0.224284 -2.41115 0.773972 10395294
0.926273 -2.2509 0.865918 9737364
-0.274397 -2.261 0.686165 10263708
-0.266109 -2.26331 0.688776 9868950
-0.239215 -2.42689 0.794453 10066329
-0.268113 -2.2509 0.691041 10000536
0.577861 -2.61916 0.907371 9671571
-0.256213 -2.25495 0.697689 10526880
-0.451409 -2.8485 0.805718 10724259
0.707704 -1.52414 1.04043 6974058
-0.432544 -2.85711 0.827557 11447982
0.982503 -2.17447 0.866562 9211020
0.845353 -2.50147 0.914245 11119017
-0.281647 -2.21918 0.694471 10329501
0.331672 -2.06076 0.699372 9934743
0.336509 -2.34375 0.870569 9605778
-0.226769 -2.33745 0.787805 10263708
-0.263155 -2.2097 0.706316 10592673
0.318079 -1.55836 0.999001 5921370
-0.274095 -2.19496 0.700367 9474192
0.302007 -1.55942 0.996628 5921370
0.231902 -2.00489 0.666403 8224125
0.983682 -2.18691 0.908622 10395294
-0.181558 -2.36026 0.831755 9474192
0.931199 -2.17027 0.895014 10263708
-0.270465 -2.18437 0.713928 10855845
0.978513 -2.16417 0.906864 10855845
0.500025 -2.78834 1.24448 9408399
-0.937692 -2.45179 1.40244 10461087
0.618998 -2.52726 0.920958 9605778
-0.273331 -2.17005 0.719099 10395294
0.973701 -2.1387 0.903058 10592673
-0.283539 -2.15209 0.710628 9934743
0.727415 -1.52597 1.04547 6645093
0.919204 -2.10715 0.891877 9737364
0.683865 -1.52549 1.0327 6118749
0.261405 -1.56773 0.997515 5987163
0.232433 -1.56942 0.992814 6513507
0.219947 -1.57487 0.999729 6974058
0.967758 -2.0509 0.87243 8816262
0.196335 -1.57932 1.00171 7631988
0.967187 -2.03342 0.875655 8684676
0.177069 -1.5798 0.997368 8158332
-0.214625 -2.33166 0.893712 9671571
-0.452018 -2.73 0.891237 11447982
0.912514 -2.41797 1.15107 8947848
0.913371 -2.05142 0.897465 9868950
0.330044 -2.64143 1.22698 9539985
0.202022 -1.57852 0.997905 7039851
-0.495904 -2.68705 0.850922 10724259
0.546407 -2.08232 0.865356 8684676
0.963835 -2.04358 0.911062 10461087
0.118093 -1.58548 0.984391 7763574
0.108906 -1.5851 0.981194 7434609
0.908701 -2.02613 0.89433 9934743
-0.482558 -2.70175 0.89584 11842740
0.092082 -1.58765 0.981416 7960953
0.0733423 -1.59072 0.982106 7895160
0.959208 -1.98562 0.878559 9079434
0.0656424 -1.5906 0.979789 8026746
0.0300706 -1.59749 0.979241 7566195
-0.00523755 -1.60179 0.977733 7829367
-0.31391 -2.06757 0.733382 10395294
-0.0286641 -1.60438 0.976232 8289918
-0.0486442 -1.60642 0.974643 8158332
0.956944 -2.07456 0.960334 10066329
0.369604 -2.27874 1.01535 9276813
0.268047 -2.13438 0.892067 9145227
-0.293431 -2.06023 0.741519 10921638
0.96198 -2.00226 0.923121 10921638
0.503919 -2.20655 1.029 9539985
0.956136 -1.92847 0.888457 8750469
0.259868 -2.22327 1.01236 9671571
0.287472 -2.22958 1.02234 9868950
0.369041 -2.1795 0.996553 10132122
-0.298519 -2.03919 0.778745 10855845
0.953987 -1.89833 0.894819 9276813
-0.699124 -2.78772 1.21015 11776947
-0.10103 -1.61777 0.977793 8421504
-0.307083 -1.99364 0.757901 10790052
0.397739 -2.08565 0.962282 8158332
0.417004 -1.95524 0.856264 7763574
0.441073 -2.00753 0.904526 7763574
0.431209 -1.98842 0.889501 7105644
0.158328 -1.96279 0.821227 7631988
0.56724 -2.09809 1.0128 6316128
0.607686 -2.10719 1.02786 6316128
-0.198811 -1.6338 0.973446 7829367
0.95611 -1.87413 0.895747 7763574
0.879178 -1.86814 0.887038 9474192
-0.0110835 -2.11847 0.944107 8553090
0.542878 -2.06445 0.998504 7566195
0.575175 -2.00151 0.949804 7039851
0.220062 -1.56506 0.903587 9211020
0.66836 -2.02474 0.990058 7631988
0.885231 -2.00159 1.01265 7829367
0.00896013 -1.57051 0.90546 8026746
0.947501 -1.83508 0.901862 8816262
-0.0488115 -1.57566 0.899452 7631988
0.875754 -1.8328 0.889076 9737364
0.334782 -2.0888 1.02709 10197915
0.865303 -1.9042 1.22738 8816262
0.483971 -2.10355 1.08577 9408399
0.358814 -2.0388 1.00519 9803157
-0.0972552 -1.58283 0.896139 8026746
-0.157152 -1.59278 0.894799 7960953
0.86006 -1.76771 0.882187 9342606
0.887895 -1.78285 0.902435 9868950
0.280083 -1.54948 0.928946 6974058
0.386406 -1.93784 0.967322 5855577
0.936779 -2.02135 1.15701 10132122
-0.303077 -2.02178 0.920291 10855845
0.267622 -2.04354 1.05282 10526880
0.932316 -1.79092 0.932667 10461087
-0.303008 -2.034 0.939037 10395294
-0.634446 -2.60493 1.04036 10921638
0.202563 -1.98374 1.0203 10395294
-0.675566 -2.61986 1.05413 10132122
0.390553 -1.88526 0.957968 6710886
0.96442 -2.45922 0.923516 10855845
-0.543136 -2.51141 0.991942 11382189
0.235854 -1.55915 0.92775 8289918
0.87973 -1.72301 0.906637 9408399
0.864996 -1.72116 0.904395 9737364
0.9225 -1.73169 0.932959 10724259
-0.328358 -1.98471 0.959122 10461087
-0.344642 -2.04697 1.02394 10855845
-0.540735 -2.5885 0.907793 11382189
-0.165013 -1.96582 0.978339 10592673
0.878529 -1.70258 0.905816 10921638
0.93017 -1.99005 1.23952 10263708
0.455521 -1.54062 0.949012 6974058
-0.650244 -2.58476 1.06249 10921638
0.876129 -1.68519 0.907608 10197915
-0.597668 -2.56863 0.934482 9408399
0.87571 -1.67216 0.914506 9803157
0.666495 -2.96313 0.743366 10263708
0.536198 -2.81565 0.571796 10132122
-0.0506705 -3.17192 0.756129 11053224
0.18945 -3.10862 0.765277 9737364
0.244898 -1.94856 1.12688 8092539
-0.0970178 -2.52898 1.06211 9079434
0.138867 -3.00571 0.684931 8882055
0.588823 -2.45757 1.27819 8355711
0.721399 -3.07518 0.915802 9474192
-0.395356 -2.61868 1.06527 10000536
0.698094 -3.13101 0.969338 9737364
-0.828441 -2.53576 1.31272 10790052
0.0731871 -2.98405 0.852717 8947848
0.201173 -2.54386 1.39614 10197915
0.575462 -2.91645 1.05114 10066329
1.20134 -2.81625 1.13698 12369084
-0.125746 -3.04901 1.0033 9605778
0.463497 -2.91761 1.05978 10000536
0.357755 -2.80308 0.968474 10921638
0.350705 -2.61982 0.878568 9934743
-0.387681 -2.73153 0.845404 11645361
0.172279 -1.92562 1.09515 9013641
0.19829 -1.92078 1.09481 7895160
-0.151036 -1.99037 1.11676 9474192
0.960266 -2.77194 0.93613 11119017
-0.334726 -1.93164 1.03484 10526880
-0.257892 -1.93601 1.0571 10724259
-0.208101 -1.91511 1.04145 11184810
-0.0396381 -1.89395 1.05134 11382189
0.166394 -2.02207 0.873446 8026746
0.218918 -1.84141 1.04466 10197915
0.282888 -1.68226 0.856238 9474192
0.909724 -2.35953 1.05486 11250603
0.910107 -2.35909 1.05754 11447982
0.120035 -2.1315 0.977237 7960953
0.12826 -2.12893 0.976473 8355711
0.849322 -1.98951 0.996048 8553090
0.5476 -1.60873 0.825697 8816262
0.874568 -2.37621 1.13653 9211020
0.573875 -2.38768 1.10314 9145227
-0.792743 -2.5464 1.32668 11645361
-0.131008 -2.68563 0.798724 11711154
1.23428 -2.77659 1.09501 10658466
-0.0618707 -2.13937 0.923838 8947848
-0.125018 -2.98501 0.950285 10000536
-0.156087 -2.16558 0.930682 9145227
0.69096 -2.87616 1.06707 10461087
0.655423 -2.44963 0.78976 9737364
0.766276 -2.85625 1.06785 10329501
0.933874 -2.46398 0.886647 11513775
0.776191 -2.83991 1.05521 10461087
1.13527 -2.63185 1.13049 11645361
0.0418151 -2.98792 1.00944 10921638
-0.285622 -2.19828 0.936598 9671571
1.04526 -2.62715 0.930562 11447982
0.466364 -2.49036 0.795633 9474192
-0.0342855 -2.9559 0.964634 11053224
1.28699 -2.68188 1.2317 9408399
0.512501 -2.91811 1.06984 9934743
-0.268149 -2.68461 0.800874 11447982
1.13168 -2.59041 1.09486 11908533
0.584429 -2.85381 1.02821 10526880
0.879922 -2.47509 0.908344 11579568
0.638252 -2.85224 1.04056 10658466
1.21917 -2.59842 1.143 10000536
-0.237588 -3.05909 1.01367 10461087
1.16773 -2.61925 1.16107 11645361
0.729422 -2.82544 1.04353 10921638
0.908282 -2.44028 0.895317 9539985
0.942933 -2.87216 1.14238 10329501
0.805395 -2.81702 1.06448 11513775
1.14966 -2.6166 1.16824 11579568
0.829495 -2.84575 1.08133 11382189
0.198567 -2.66501 0.952429 9868950
-0.293129 -2.65948 0.770913 11119017
0.230497 -2.58272 0.879013 10329501
1.21352 -2.7094 1.08216 10395294
0.297877 -2.57725 0.892442 10526880
-0.354132 -2.9218 0.898449 10790052
-0.119984 -2.26977 1.01769 11513775
0.187762 -2.63893 0.766423 10855845
0.371572 -2.55445 0.892707 10724259
1.10311 -2.67087 1.03887 11119017
1.02931 -2.46467 0.983397 11053224
0.16159 -2.72862 0.854968 10592673
0.898759 -2.39807 0.883134 10855845
-0.825811 -2.54677 1.25703 10461087
0.974066 -2.5164 0.928809 11316396
1.15335 -2.59974 1.0091 10066329
1.01359 -2.4336 0.966013 10855845
0.880034 -2.6398 0.980141 11382189
-0.0358515 -2.66265 0.862877 9145227
1.14879 -2.67373 1.09544 11382189
-0.63333 -2.56351 0.985371 9408399
1.17663 -2.50587 1.24346 11250603
-0.522815 -2.56082 0.968846 11447982
-0.289643 -3.27007 0.727865 11711154
-0.591236 -2.57565 0.92599 9145227
0.14221 -3.11946 0.762788 10197915
0.174041 -3.09523 0.748238 10263708
0.87622 -3.00479 0.871084 11250603
1.07862 -2.32881 0.992323 10855845
-0.143816 -3.19782 0.818629 9145227
0.359681 -2.50618 1.02945 11250603
-0.378016 -2.83386 0.869931 11316396
0.716708 -2.92453 1.09793 10132122
0.513109 -2.95069 1.06771 9934743
0.0736012 -3.01022 1.0163 9342606
0.478035 -2.92548 1.06357 8487297
-0.405438 -2.94578 0.81305 11053224
-0.0357702 -2.96561 0.970375 10395294
1.2213 -2.51237 1.18901 10461087
1.05335 -2.28093 0.968908 11382189
1.20029 -2.4759 1.15937 9737364
1.05614 -2.27803 0.965987 10197915
0.9107 -2.37975 0.9569 11776947
1.23146 -2.47993 1.29657 12105912
1.20599 -2.56441 1.27494 11645361
-0.420837 -2.68437 1.03071 11513775
1.16481 -2.43861 1.10787 10132122
-0.565939 -2.47427 1.02264 10987431
-0.493231 -2.70234 0.844676 10263708
0.0409645 -2.65711 0.837142 9671571
-0.481673 -2.71789 0.873141 11908533
0.93064 -2.50524 0.923256 11250603
-0.182533 -2.99263 0.982635 11382189
0.915266 -2.37721 0.978269 11513775
0.955623 -2.50723 0.931195 11053224
0.0751343 -2.83323 0.933705 11119017
0.387861 -2.91222 1.03195 11184810
0.556661 -2.89362 1.06086 11119017
1.11013 -2.38309 1.20486 11250603
-0.680477 -2.57691 1.05661 10263708
-0.417448 -2.90613 0.826446 11513775
0.82346 -3.02653 0.832636 11579568
-0.11833 -3.17939 0.744872 11776947
0.895893 -2.38717 1.14836 9671571
-0.509227 -2.58295 0.948634 11776947
-0.46822 -2.74365 0.877961 11579568
0.806876 -2.06835 0.932126 11053224
0.792002 -3.08736 0.947488 9276813
0.855685 -3.10108 0.978772 9934743
0.876876 -3.09483 0.978515 10329501
0.491852 -3.10237 0.883353 9145227
0.506393 -3.0977 0.882798 9276813
0.628766 -3.08601 0.90542 9539985
0.222326 -3.13628 0.846251 9013641
0.301159 -3.12558 0.857708 9013641
-0.204326 -3.15185 0.746539 9671571
-0.165109 -3.19699 0.811776 9079434
0.629967 -2.92394 1.07926 10132122
0.602325 -2.91963 1.06434 9803157
-0.55393 -2.64607 0.884808 9474192
-0.384786 -3.00419 0.790802 10855845
0.818534 -2.8415 1.00578 11053224
0.365124 -2.24572 0.737253 8684676
0.484321 -2.19463 0.725053 7895160
-0.283352 -2.31723 0.693678 9671571
-0.254977 -1.54894 1.16404 7895160
0.759008 -2.20912 0.774368 6250335
0.988991 -2.44901 0.936671 8947848
0.731954 -2.21657 0.777557 7697781
1.03299 -2.17682 1.13655 11579568
-0.301829 -2.21911 0.65478 8816262
-0.298055 -2.29131 0.709302 10197915
0.778582 -1.31426 0.856453 9276813
0.843347 -1.46793 1.20015 9605778
0.932979 -2.20136 0.853674 10855845
-0.286481 -2.23493 0.709986 9539985
0.930736 -2.1866 0.855886 10658466
-0.329328 -2.13023 0.707063 9868950
0.922363 -2.12642 0.891751 10132122
0.828324 -1.30388 0.831723 7566195
-0.306894 -2.12752 0.754539 10592673
-0.320314 -2.10782 0.749703 9605778
0.531964 -1.99974 0.806394 8618883
0.855776 -1.49327 1.18729 9539985
-0.292453 -3.27367 0.73412 11579568
-0.338623 -1.96663 0.794119 10658466
-0.295607 -2.03593 0.861941 10263708
0.94504 -1.82568 0.903073 9737364
-0.348261 -1.91887 0.805066 11119017
-0.409447 -1.63639 1.06455 10395294
0.818849 -1.44839 0.866639 10197915
0.247814 -1.55304 0.967587 6645093
0.866122 -1.73387 0.864324 10987431
0.887462 -1.48787 0.950301 10263708
0.938555 -1.75294 0.898361 8224125
0.67199 -1.55617 1.01156 8224125
0.380674 -1.69177 0.744559 6645093
0.881447 -1.70027 1.2857 10658466
0.864611 -1.5127 1.14814 8816262
0.318543 -1.56332 0.945392 7697781
0.926314 -1.71978 0.89844 9145227
1.04511 -2.11848 1.15335 11711154
-0.21927 -1.60909 0.904759 7500402
0.333954 -1.84855 0.935092 9211020
-0.34205 -2.02408 1.00374 10790052
0.801698 -1.49288 0.995575 7960953
-0.122624 -1.59306 0.908771 7368816
-0.326507 -1.97235 0.963247 10132122
-0.0695874 -1.58181 0.903042 7237230
0.0247895 -1.57305 0.914521 7697781
0.688658 -2.05549 1.23792 10395294
-0.0824716 -1.62472 0.988554 7434609
0.378895 -1.69619 0.807458 9145227
-0.0658749 -1.61876 0.986631 7960953
0.921958 -1.98426 1.23797 10592673
-0.188321 -2.52374 0.784507 7500402
-0.216912 -1.95901 1.03553 8684676
-0.524701 -2.80187 0.895456 11119017
0.171289 -1.92084 1.07278 9803157
0.100694 -1.58809 0.987167 8684676
0.132433 -1.92142 1.07001 9408399
-0.281169 -2.34206 0.696897 8947848
0.451988 -2.03561 1.2693 8158332
-0.264302 -2.34464 0.700522 10197915
-0.242208 -2.42664 0.748082 9145227
0.46331 -1.97166 1.19801 7960953
-0.181552 -2.46119 0.774876 8289918
-0.172926 -2.47255 0.782192 8224125
0.985784 -2.3414 0.857393 10790052
-0.158656 -2.53105 0.815929 8026746
-0.224173 -2.49818 0.783406 7566195
-0.136969 -2.52014 0.812832 7960953
-0.209252 -2.54526 0.811773 7171437
-0.0387239 -2.01709 1.15955 9079434
-0.193064 -2.55073 0.817043 7105644
-0.797096 -2.5054 1.38981 12105912
-0.153276 -2.51296 0.801358 7171437
-0.0131461 -2.42045 0.77482 7171437
-0.0992388 -2.51985 0.812584 6908265
-0.0720226 -2.50373 0.807289 6710886
-0.195112 -3.00526 0.96484 10329501
0.12677 -1.57526 0.97184 7566195
0.0733265 -2.42496 0.788628 7171437
-0.324875 -2.32506 0.676033 8224125
0.342255 -3.11847 0.862153 9408399
0.0916078 -2.49461 0.828189 7039851
0.39578 -3.11451 0.873225 9474192
0.146439 -2.42671 0.797569 7105644
0.492274 -2.59012 0.923276 8816262
0.189983 -2.50859 0.849497 6776679
0.223536 -2.454 0.823441 6579300
0.184248 -2.38586 0.781916 7039851
0.238423 -2.45392 0.825429 6513507
0.199271 -2.38519 0.783534 6908265
0.24845 -2.50438 0.855128 6513507
0.239914 -2.37682 0.784308 6645093
-0.245773 -2.55041 0.791366 7303023
0.258733 -2.35506 0.774935 6645093
0.401207 -2.52346 0.890551 6710886
-0.0587081 -1.85485 0.997767 11053224
-0.130116 -2.57175 0.818726 7105644
0.359797 -2.31439 0.768966 7105644
0.049129 -3.10495 0.863435 8882055
0.772797 -1.53115 1.19633 8750469
0.0835973 -3.12364 0.903627 7960953
0.315445 -2.49803 0.86821 8618883
-0.387383 -3.05627 0.71186 10263708
0.352803 -2.50101 0.875024 8289918
-0.34226 -3.09946 0.777686 11579568
-0.293747 -2.53384 0.868935 9605778
0.528792 -2.93474 1.05282 10329501
-0.119187 -1.58715 0.93059 7697781
0.679331 -2.55428 0.957951 7895160
0.264918 -2.2678 0.727668 5855577
0.847868 -1.47273 1.2488 11184810
0.804203 -1.56399 1.11042 8026746
-0.347064 -1.83779 0.795936 10855845
-0.316619 -2.28853 0.664714 9276813
-0.33952 -2.25596 0.691607 8421504
0.964391 -2.29158 0.915927 10855845
0.94393 -2.48023 0.894027 12369084
0.234091 -2.28412 0.735427 6908265
-0.245275 -2.43774 0.855092 9671571
-0.225795 -1.59779 0.916119 7829367
0.096827 -2.94326 0.987529 11382189
0.847449 -1.51735 1.0463 9079434
0.212011 -2.09944 0.734629 8947848
-0.255952 -2.43455 0.886014 9934743
0.681095 -2.54736 0.887775 9934743
0.505134 -2.34786 0.957485 7763574
-0.483436 -2.70792 0.878186 11316396
-0.357806 -2.16286 0.711235 7960953
0.460234 -2.156 0.828199 9474192
0.46241 -1.87732 1.12087 9013641
-0.343773 -1.61168 0.903493 7500402
0.0297295 -1.57797 0.931897 7434609
0.312451 -2.92434 1.02716 11842740
0.867022 -2.01437 0.956686 10855845
-0.359477 -2.14112 0.719302 9079434
0.919443 -2.03419 0.980721 11579568
-0.304505 -2.17564 0.754333 9934743
0.00762463 -1.58111 0.931029 7303023
-0.244349 -2.39728 0.917998 9934743
-0.375668 -1.97333 0.728553 8026746
0.83748 -1.49346 1.17464 11184810
0.925556 -2.35917 1.10753 11250603
-0.00956771 -2.08911 0.894684 7763574
0.0552032 -2.40961 1.02614 8750469
0.292595 -1.97898 0.856587 7895160
-0.445501 -2.86875 0.763401 9803157
-0.0299912 -2.32503 0.956417 9342606
-0.336345 -1.91097 0.784464 10132122
-0.341592 -2.13886 0.777732 10592673
-0.0908149 -2.526 1.05854 9145227
0.683183 -2.36863 1.11629 10066329
0.901684 -1.97024 1.06514 12303291
-0.455295 -2.7273 0.890685 11447982
-0.37258 -1.92907 0.808194 10592673
0.390508 -3.11767 0.870188 8816262
-0.338823 -1.88838 0.784794 10921638
0.536531 -3.09386 0.887418 9276813
0.380417 -1.96892 0.984344 9934743
-0.343092 -2.08966 0.779406 11250603
-0.34463 -1.51385 1.01806 9868950
0.0383792 -1.9861 0.943209 10000536
-0.375495 -2.00312 0.728782 8158332
-0.368889 -1.90488 0.801346 10197915
0.472607 -1.9702 0.840363 9408399
0.879898 -1.97354 1.08535 12040119
0.489702 -1.85287 0.756244 9868950
0.0590569 -1.60045 0.997912 7631988
0.535074 -2.11982 0.969148 9934743
0.399045 -1.93975 0.977289 7368816
0.244726 -1.56559 0.990457 8750469
-0.342804 -1.87506 0.789433 10658466
0.906525 -1.9673 1.19777 11382189
0.179441 -2.17031 0.954486 9408399
0.896597 -1.95392 1.08326 12369084
0.186683 -1.9145 1.07294 9934743
0.0246813 -1.55957 1.05999 9605778
0.214014 -1.91121 1.07482 9145227
0.127647 -1.4463 1.12847 7960953
0.239435 -1.89573 1.06354 9737364
0.0594446 -1.45212 1.11936 8355711
-0.310678 -1.61085 0.893605 7829367
0.271668 -1.89732 1.0715 10197915
-0.0966573 -1.46843 1.09351 8684676
0.886815 -1.95909 1.12089 11974326
-0.104935 -1.46812 1.09051 8750469
-0.342807 -1.61428 0.890814 8421504
0.11889 -2.49178 0.830329 7105644
0.22924 -1.56296 0.949383 8553090
0.365804 -1.8725 1.06819 9737364
0.216401 -1.98806 1.0303 9671571
0.484063 -1.87616 1.09512 9671571
0.294015 -2.47832 0.854117 8421504
0.231467 -1.56163 0.931718 10066329
-0.434993 -2.80619 0.87037 11711154
0.392305 -1.9615 1.04153 7039851
0.762762 -1.87046 1.1481 9145227
0.772065 -1.87164 1.15117 9145227
0.883964 -1.95646 1.1267 11579568
0.0728728 -1.3836 1.15357 9605778
0.846965 -1.86687 1.1608 10790052
0.614321 -2.03724 1.18186 10132122
0.0891482 -1.9087 1.06107 9079434
-0.368986 -1.62996 0.901788 9342606
0.176622 -1.93115 1.10658 9276813
-0.261909 -2.40372 0.838808 10000536
-0.403942 -1.79005 0.846134 10132122
0.224821 -1.4359 1.13209 7434609
0.0551995 -1.4755 1.14009 8421504
0.365989 -2.91118 1.0286 11974326
-0.101497 -1.87852 1.00016 8947848
0.883233 -1.91331 1.15163 11776947
-0.0359367 -1.87287 1.01133 9145227
-0.352855 -1.796 0.80355 10855845
-0.384992 -1.63991 0.907331 10066329
-0.362973 -2.10176 0.717863 8289918
0.916799 -1.46766 0.967358 9868950
0.404638 -1.90351 1.14047 9671571
-0.366172 -1.8086 0.820951 10790052
0.0360651 -1.48159 1.14036 9013641
0.194056 -1.95229 1.0734 10461087
-0.394821 -1.82727 0.838106 10987431
0.00693339 -1.48182 1.13236 8553090
-0.406722 -1.75356 0.767747 9013641
-0.222552 -1.83731 0.952717 10066329
-0.411135 -1.56113 1.12964 9934743
0.791257 -2.27551 1.07385 10263708
0.881263 -1.90627 1.17156 12040119
-0.37323 -2.03284 0.735265 9605778
-0.0930572 -2.20325 0.920044 10329501
-0.035122 -1.46517 1.10539 8750469
-0.36134 -1.5796 0.956244 10066329
0.0453995 -2.15646 0.922068 9474192
0.507116 -2.14756 0.989989 9671571
-0.226703 -1.55 1.16206 9605778
0.800151 -2.07974 0.996867 11513775
0.926549 -1.63859 0.924257 9474192
-0.0235326 -1.48553 1.13037 8882055
-0.107221 -2.09775 0.900692 6908265
-0.0948439 -1.94062 1.04547 8553090
-0.265351 -2.05375 0.842356 7697781
-0.0613161 -1.94199 1.05344 8947848
0.0134771 -2.10199 0.932031 8355711
0.0237764 -1.92977 1.05721 9342606
0.834012 -2.01744 1.01614 9013641
0.159277 -1.89854 1.05088 9671571
0.911809 -1.87292 0.950009 11447982
-0.367179 -1.94718 0.803769 11184810
0.889622 -1.98838 1.06232 12171705
-0.387024 -1.91922 0.782865 10790052
0.0900208 -1.80874 1.01352 10592673
-0.367365 -1.65433 0.905646 11579568
-0.389512 -1.89482 0.785089 10263708
0.836753 -1.27349 0.85916 7960953
0.173413 -1.43143 1.11397 8026746
-0.344932 -1.85022 0.790522 10921638
0.896567 -1.77693 0.951129 11316396
-0.404969 -1.82505 0.762806 8224125
0.215216 -1.96906 1.01212 9539985
-0.382918 -1.87412 0.820426 10329501
-0.231525 -1.55642 1.22037 8026746
0.93493 -1.70575 0.91988 9605778
0.886508 -1.9245 1.1319 12040119
-0.349916 -1.81831 0.801328 10658466
-0.402805 -1.77974 0.763875 9211020
0.888833 -1.71146 0.954165 11316396
0.864198 -1.92768 1.17163 12105912
0.920074 -1.57425 0.935236 10000536
-0.3637 -1.79105 0.814426 11119017
-0.270747 -1.9689 1.03642 8092539
-0.0128713 -1.93852 1.05924 9079434
0.791097 -1.45864 1.30461 8421504
0.385725 -1.88361 1.07934 9474192
0.303916 -1.88397 1.06817 9474192
0.450758 -1.87682 1.09376 9079434
0.109056 -1.91604 1.07275 8882055
-0.0324274 -2.14863 0.965898 7566195
-0.159669 -1.83885 0.966937 10395294
-0.113811 -1.8256 0.961675 10987431
0.451623 -1.84924 1.10919 11250603
0.733144 -1.86495 1.18284 11447982
0.884468 -1.63485 0.972795 11776947
0.195897 -1.80373 1.02941 10921638
-0.161382 -1.50068 1.11302 9211020
0.497047 -1.57061 0.970521 9803157
-0.407082 -1.73413 0.852015 10461087
0.866704 -1.53574 1.1231 11250603
-0.0809626 -1.62436 0.918813 9803157
-0.379424 -1.64471 0.798172 10658466
0.268247 -1.5768 0.85453 9539985
0.277489 -1.69404 1.00491 9934743
-0.0479462 -1.51958 1.18454 8487297
0.260413 -2.18333 0.977497 9474192
-0.107554 -1.49137 1.12478 8947848
0.820493 -1.45857 1.30704 9079434
-0.41927 -1.69091 0.920708 10395294
-0.134736 -1.63266 0.909369 10461087
0.638974 -1.57202 1.00396 10987431
0.586842 -1.55479 0.990898 10461087
-0.388615 -1.61184 0.849183 10263708
0.0843617 -1.57795 0.915786 8618883
0.242298 -1.56116 0.933559 9605778
0.307718 -1.56348 0.951506 9671571
0.527424 -1.62458 1.08234 9079434
-0.375418 -1.5807 0.830285 10329501
0.319679 -1.55853 0.96423 8355711
-0.382812 -1.53481 1.11784 9145227
0.285903 -2.08942 0.972724 8684676
0.207788 -2.37056 0.778944 7500402
0.204701 -1.56998 0.982818 7829367
0.344876 -1.56556 1.00958 7697781
0.400187 -1.56278 1.0187 7631988
0.407074 -1.56188 1.01907 7697781
0.425564 -1.56044 1.02142 8026746
0.706338 -1.56238 1.08992 8618883
0.68204 -1.55904 1.07961 8553090
0.517558 -1.55876 1.04066 7631988
0.654994 -1.56017 1.07483 8158332
0.0683504 -2.11783 0.932376 7960953
-0.00566459 -2.13839 0.940979 7105644
-0.429942 -2.81828 0.869241 10724259
0.890577 -1.98275 0.995497 9276813
-0.458958 -2.81399 0.769522 8882055
0.288696 -1.99158 0.875843 7500402
0.106447 -2.95531 1.007 11711154
-0.270051 -2.1477 0.923183 8092539
-0.433948 -2.85095 0.829934 10724259
0.749826 -1.85609 0.856062 8224125
-0.371182 -2.92996 0.932842 11184810
0.4114 -2.11822 1.01611 8355711
-0.52619 -2.54514 0.973057 11053224
0.550281 -2.04487 0.983484 8487297
0.889349 -1.42916 0.920224 9539985
0.73067 -2.01168 0.993691 9145227
-0.485919 -2.74054 0.800721 9934743
0.907281 -1.89775 0.929544 11382189
-0.348179 -3.07093 0.781258 11645361
0.245746 -2.0381 0.949819 10592673
-0.357712 -1.96905 0.788941 10000536
-0.399568 -2.91343 0.832837 11776947
-0.391114 -1.89382 0.746363 8289918
-0.168568 -2.9951 0.968289 10263708
-0.222391 -3.02956 0.995282 10132122
0.904405 -1.98013 1.04529 12040119
-0.279851 -1.40225 1.02946 10526880
-0.492262 -2.60344 0.926938 11513775
-0.360308 -1.93551 0.816082 10855845
0.889881 -1.93435 1.11554 12171705
-0.179497 -2.32698 1.00735 10658466
-0.40249 -1.79897 0.762227 8882055
-0.119393 -3.04667 1.00247 9605778
0.181181 -1.93283 1.00861 9868950
-0.408458 -2.96841 0.725067 9671571
0.878368 -1.9439 1.15385 11776947
-0.442522 -2.83402 0.849715 11184810
0.270422 -1.95805 1.07602 10724259
-0.170425 -2.14826 0.918735 7566195
0.917298 -2.39128 0.96982 11579568
-0.124477 -1.95778 1.05768 9211020
0.232111 -2.93639 1.01484 10987431
0.0518566 -1.92274 1.05531 9408399
0.0822733 -3.16042 0.83562 9145227
0.5405 -1.87867 1.10879 9868950
-0.388352 -2.95511 0.821324 11711154
0.429552 -1.8927 1.12455 8487297
0.337014 -2.92181 1.02675 11447982
-0.393547 -1.64921 0.855964 11119017
0.126955 -2.97158 1.0073 9342606
-0.0325646 -1.82569 0.977971 10461087
0.388527 -1.82976 0.969635 9934743
0.675492 -1.86112 1.16241 11316396
-0.157471 -2.51708 0.785023 7237230
0.893138 -1.60912 0.969222 12632256
0.0115493 -2.57828 0.841467 6776679
-0.038698 -2.51358 0.817344 6579300
0.829993 -1.25629 0.995572 11316396
0.0227205 -2.45065 0.790541 6184542
0.68425 -1.58679 1.03299 10921638
-0.429348 -1.85238 0.887543 11250603
0.741735 -1.48512 1.32673 9737364
0.285081 -2.46521 0.845478 8289918
0.447643 -1.56412 0.97583 10461087
-0.270021 -1.98633 1.05925 8355711
0.482561 -1.55482 0.971524 9211020
0.388681 -1.56719 0.970674 9605778
0.128286 -2.36351 0.996147 8618883
-0.243628 -1.60906 0.906646 8026746
-0.386321 -1.40177 0.836971 10329501
0.388709 -2.26405 0.97373 9079434
0.288432 -1.62746 1.05417 7895160
0.162812 -2.30281 0.970459 9605778
0.0712768 -1.93903 1.08248 9276813
0.894741 -2.31573 1.11965 9276813
0.843717 -1.46487 1.26741 11119017
0.905645 -1.37035 0.979636 9539985
0.37492 -2.10556 0.932267 9605778
0.292422 -1.56566 0.997409 7960953
0.316492 -1.9253 1.11768 9145227
0.328822 -1.5652 1.00531 8092539
0.920394 -2.00006 0.969399 12303291
0.360886 -1.56352 1.0105 7697781
0.474591 -1.89634 1.11692 9539985
0.460553 -1.55897 1.02759 7763574
0.445548 -1.90205 0.820392 8158332
0.493572 -1.55829 1.0344 8158332
0.55447 -1.56138 1.05294 7960953
0.229531 -1.97543 0.846879 7237230
0.622848 -1.56058 1.06785 8421504
0.304629 -1.9561 0.84736 6842472
0.876025 -1.55594 1.1208 10066329
0.500423 -1.83504 0.785676 7105644
0.835523 -1.49899 1.14351 10000536
0.167723 -1.94244 1.11285 9079434
-0.0801627 -2.08549 0.895261 6710886
-0.421453 -1.4936 0.853235 10790052
0.673087 -1.88237 1.14344 9803157
-0.365557 -2.17217 0.812336 10987431
0.748809 -1.87154 1.14616 9737364
-0.327537 -2.11658 0.778243 10987431
0.778093 -1.88405 1.16427 9474192
0.388765 -1.45502 1.07377 10526880
0.836797 -1.32082 0.985614 11184810
0.149022 -1.94554 1.11737 9276813
-0.0913164 -3.45887 0.865082 7566195
0.213889 -1.94648 1.13017 9013641
0.924585 -2.04693 0.919819 11513775
0.324781 -1.94573 1.14962 9145227
0.351359 -1.92347 1.13164 8947848
0.350776 -2.20664 0.956617 10197915
0.0582546 -1.48269 1.15742 9211020
0.811553 -1.87324 1.16406 9013641
-0.150453 -1.96237 1.08476 9342606
-0.000244319 -3.17777 0.834388 9079434
0.931617 -2.40635 1.20483 10395294
-0.188935 -2.69895 0.82539 11382189
-0.0878364 -2.65633 0.819177 10000536
-0.342734 -2.10867 0.825977 11119017
0.842109 -1.38496 0.97334 11119017
0.826539 -2.07644 0.981754 11842740
-0.171155 -1.94263 1.07001 10197915
0.353966 -2.27746 1.06547 10461087
-0.336014 -1.87835 0.977506 9342606
0.944719 -1.91019 0.888889 11513775
0.916426 -1.60142 0.919747 9868950
0.909163 -1.41216 0.430287 6316128
-0.236237 -1.83886 0.959062 10132122
0.698361 -1.89294 0.851759 10658466
-0.434395 -1.80641 0.892752 11382189
-0.240814 -1.9146 1.04189 11053224
-0.359994 -2.18426 0.917176 8553090
0.246493 -3.43327 0.76623 10132122
-0.276635 -2.14644 0.900683 7697781
0.116042 -1.88362 1.07536 10921638
0.274133 -1.82213 1.04458 11184810
0.617356 -2.06983 0.878822 9079434
0.4001 -1.87508 1.12359 11053224
-0.215664 -3.16416 0.486678 10461087
-0.155261 -3.15716 0.495345 11645361
0.923599 -1.39669 0.446317 5395026
0.751944 -1.87531 1.19878 11776947
0.81295 -1.84686 1.18482 11645361
0.869375 -1.61718 0.94707 11711154
-0.304387 -2.03444 1.0042 10197915
0.89639 -1.27216 0.505709 6184542
-0.151391 -2.24634 0.946902 10461087
0.908598 -1.70169 0.922336 11842740
-0.137018 -3.26993 0.66772 10197915
-0.304086 -3.26441 0.629616 9934743
-0.389655 -1.73151 0.853728 10855845
-0.0439521 -1.58452 0.952232 7631988
0.410745 -1.7783 1.05473 11119017
0.0139806 -1.58298 0.962446 7697781
0.502149 -1.77792 1.07607 11382189
0.0946989 -1.59324 0.997282 8289918
0.543862 -1.7624 1.0671 12105912
0.23042 -1.5667 0.991409 8092539
-0.383971 -1.69803 0.841946 11316396
0.20116 -1.57213 0.992303 8092539
0.899621 -1.34462 0.456233 6513507
-0.246089 -2.56961 1.07263 9539985
0.432925 -1.87052 0.775272 9342606
0.898943 -2.88031 1.08663 10921638
-0.442064 -1.66251 0.81067 8882055
0.769369 -1.52265 1.12283 9934743
0.388503 -1.87723 1.12372 11119017
-0.413795 -2.95694 0.732301 10263708
0.91398 -1.26887 0.58105 6776679
-0.479775 -2.64534 0.915803 11250603
0.562032 -1.86606 1.14887 10987431
-0.343086 -3.27431 0.688385 10395294
0.8992 -1.60296 0.937535 12171705
0.118506 -2.17215 0.858722 7697781
-0.300363 -3.26641 0.700663 11447982
-0.0769244 -2.16376 0.966532 8224125
-0.347186 -3.24778 0.688265 10197915
0.884601 -1.66293 1.11675 11842740
1.1052 -3.09284 0.93709 10329501
-0.316606 -3.27963 0.742432 11382189
1.09236 -3.05443 0.921588 11382189
0.847019 -3.04291 0.854321 11711154
0.858885 -1.87801 1.39758 12632256
-0.347259 -3.23795 0.725578 11513775
0.751185 -3.00782 0.804324 10329501
0.720103 -3.005 0.797577 10197915
0.531545 -3.06379 0.806734 9934743
-0.396709 -1.69226 0.821516 11119017
0.281968 -3.11359 0.790859 10000536
0.306811 -3.08973 0.774826 9934743
0.318074 -3.09044 0.778565 10066329
0.368086 -3.07668 0.779008 10066329
0.0774585 -3.12098 0.746591 9737364
0.215186 -3.08482 0.749474 9539985
0.927571 -2.98481 0.852294 12303291
-0.401105 -1.6117 0.865863 10658466
-0.0933342 -3.13462 0.734395 9671571
0.306702 -1.56446 0.956683 10066329
-0.12487 -3.14163 0.736827 10066329
-0.328529 -3.1848 0.726994 11184810
1.07194 -3.09007 1.02309 10395294
0.0762995 -1.57759 0.963225 7829367
0.374956 -2.50892 0.882542 8421504
0.702676 -3.07713 0.912509 9211020
-0.0315197 -1.58185 0.943825 7960953
0.517344 -2.53284 0.915625 7237230
-0.0380322 -3.10942 0.742266 9079434
0.224677 -3.1787 0.884257 8618883
0.838338 -1.72675 1.10448 11053224
0.32819 -3.12208 0.85713 8618883
0.428771 -3.10894 0.87223 8816262
0.46456 -3.10406 0.877405 8947848
0.561667 -3.09482 0.895395 9408399
-0.163866 -3.1419 0.743607 9605778
0.380651 -3.11337 0.867847 9408399
0.410339 -3.10964 0.872459 9474192
0.00413215 -1.88642 1.02942 9474192
0.494124 -3.0991 0.885467 9868950
0.779071 -2.55769 0.905871 11974326
-0.323644 -3.19948 0.764988 11842740
0.716337 -2.88658 1.03317 11447982
0.0583056 -3.16297 0.836074 9474192
0.423069 -2.90236 1.03701 11119017
-0.0840538 -3.18839 0.826045 9474192
0.704305 -2.59202 0.907241 11711154
-0.348475 -3.19347 0.769919 11119017
-0.31646 -3.16241 0.751959 11053224
-0.257629 -3.20016 0.807228 10724259
0.43544 -1.56188 1.02849 7829367
-0.327415 -3.293 0.891785 10790052
-0.460373 -1.43707 0.920323 11053224
1.05675 -2.9951 1.03473 12303291
-0.388644 -3.07739 0.716896 10066329
-0.337017 -3.11301 0.770983 11513775
-0.356125 -3.0896 0.748902 11447982
-0.388327 -3.05728 0.70828 9145227
-0.357495 -3.0301 0.787706 11579568
-0.364943 -3.09828 0.778763 10921638
0.0537419 -3.10971 0.919575 9079434
-0.352977 -2.05099 0.951408 9934743
-0.453702 -1.40204 0.909395 10724259
-0.318465 -3.22412 0.948677 10855845
-0.386839 -3.06078 0.748489 11250603
0.981698 -1.56497 0.411166 6447714
0.0232018 -3.08577 0.93436 9408399
0.0502771 -3.12952 0.993382 8750469
-0.404048 -1.33952 0.867077 9803157
-0.354611 -3.05249 0.791124 10790052
-0.317351 -3.21522 1.00951 10790052
-0.343077 -2.32719 0.708542 9539985
0.842259 -1.2962 1.24189 10724259
0.0535458 -3.08057 0.985772 10066329
-0.394492 -1.19486 0.800111 11119017
0.400115 -2.98884 0.999243 10526880
0.131454 -2.05688 0.874619 9013641
1.25161 -2.84253 1.11747 12105912
-0.363449 -3.0075 0.79706 11119017
-0.397575 -1.31169 0.853935 10066329
0.841342 -1.19641 1.00778 11776947
