# .PCD v0.7 - Point Cloud Data file format
VERSION 0.7
FIELDS x y z rgb
SIZE 4 4 4 4
TYPE F F F U
COUNT 1 1 1 1
WIDTH 1093
HEIGHT 1
VIEWPOINT 0 0 0 1 0 0 0
POINTS 1093
DATA ascii
0.105251 0.128089 0.78260601 1246379828
0.111061 0.127801 0.78067303 1246314035
0.122789 0.12743001 0.77804399 1246183220
0.125745 0.12737399 0.77761102 1246183476
0.13577899 0.127381 0.77732301 1246511928
0.14253899 0.12715399 0.77573103 1246642744
0.158225 0.126912 0.77375001 1247629383
0.162919 0.126689 0.77224898 1247761225
0.191861 0.125488 0.76403999 1248023369
0.214729 0.124529 0.75748801 1248813139
0.222928 0.124223 0.75537002 1249208157
0.237965 0.124519 0.750431 1245786407
0.23879001 0.12548099 0.74999398 1243878669
-0.21833999 0.113214 0.680839 1269605789
-0.208736 0.115595 0.69444698 1268684685
-0.204555 0.116257 0.69818199 1268289927
0.0773063 0.133091 0.78756601 1244669725
0.13801201 0.13482 0.795739 1245780752
0.145109 0.134734 0.79500699 1245780234
0.15174399 0.134253 0.79198903 1245714954
0.166356 0.133689 0.78822398 1245714183
-0.163738 0.124822 0.71824902 1245852716
0.00620104 0.241329 1.36643 1267497320
-0.14739799 0.121275 0.687334 1245320972
-0.261619 0.126188 0.68203098 1246961935
0.176782 0.217347 1.10571 1249203777
0.0947228 0.207195 1.0495 1246246696
0.175873 0.222394 1.10027 1248941118
-0.039447501 0.27774999 1.3229899 1249864795
0.552939 0.239171 1.11849 1248205829
-0.54747599 0.24426 1.15648 1267236718
0.117401 0.22627801 1.05616 1247891264
-0.0070528002 0.33543101 1.39969 1267827056
-0.519045 0.25791201 1.08667 1248878413
0.00780555 0.343393 1.4239 1266971748
0.70075703 0.33117101 1.35726 1267300713
0.022545399 0.31504601 1.28546 1249076051
0.30579299 0.30021399 1.2191 1268136716
0.42673001 0.29133999 1.18055 1268334871
0.44013101 0.29101399 1.17892 1268467742
0.73651999 0.330654 1.33134 1267169897
-0.39026499 0.28316301 1.1605 1268137237
-0.37434801 0.28271401 1.15832 1267479307
0.056246601 0.34885901 1.4127001 1248944206
0.28794801 0.29672799 1.19877 1268334096
-0.23511399 0.29459801 1.18931 1268200971
-0.119999 0.343977 1.38185 1249207378
0.095588103 0.26581001 1.06194 1246312233
-0.145807 0.31059799 1.23684 1248604955
0.119363 0.27237201 1.07542 1248022850
0.74273998 0.335141 1.29098 1267104105
0.189105 0.29988 1.1556799 1248015646
0.54359102 0.300091 1.14845 1266951942
0.191166 0.31051701 1.15918 1247819032
0.59753698 0.33254701 1.18259 1267423800
0.651389 0.36558899 1.2546901 1267160114
0.68038899 0.38155499 1.29004 1267752247
0.181485 0.249742 1.1264 1247030293
-0.59381002 0.26423001 1.1815701 1249076052
0.188998 0.32277799 1.39942 1249074763
0.32565999 0.28619799 1.23892 1267017984
-0.12876 0.33664101 1.4580899 1249140295
-0.116304 0.339591 1.4703799 1249469776
-0.081177801 0.339122 1.4675 1249666898
-0.019149801 0.339742 1.4686199 1249535312
-0.0092636496 0.334896 1.44768 1249074761
0.0136189 0.33279699 1.4381599 1249140554
0.0289819 0.33493501 1.4469 1249864277
0.066357397 0.33064201 1.42765 1248877382
0.176018 0.328089 1.41404 1248548928
-0.16029499 0.324756 1.39978 1247362080
-0.14447901 0.32659701 1.4072 1247626286
0.196932 0.33162999 1.40344 1249273169
-0.1226 0.32877499 1.3911099 1249798484
-0.106219 0.329261 1.39274 1249602134
-0.087851197 0.32937801 1.3927799 1267168866
-0.063942797 0.32941401 1.39235 1267167839
-0.051112801 0.329669 1.3931 1266774362
0.0621242 0.33624399 1.41774 1249733205
0.089941099 0.33532 1.41321 1266971487
-0.141427 0.313104 1.18826 1248934433
0.119357 0.279921 1.07567 1248483914
0.769768 0.31966701 1.27915 1269143945
0.78131598 0.30944601 1.25205 1266972776
0.054677099 0.33649501 1.41897 1249601105
-0.14418 0.32769501 1.38714 1249469262
0.324756 0.28251699 1.19446 1267544069
0.092193402 0.328677 1.41863 1248877382
0.053516101 0.332946 1.4378099 1248877123
-0.17056701 0.12503999 0.71967798 1247760457
0.26112601 0.123791 0.739227 1243615759
0.233739 0.125865 0.752442 1243812619
0.27833101 0.121628 0.731785 1247892298
0.085493401 0.12879699 0.78753501 1246379570
-0.029854201 -0.40868101 1.27713 1266975350
-0.089601301 0.13725001 0.92141497 1267949899
0.22741599 0.108845 0.735497 1268947087
0.220052 0.108931 0.73633999 1268618122
0.215719 0.109122 0.73778999 1268486536
0.20409501 0.109479 0.74061298 1268289157
-0.273873 -0.365888 1.20698 1247039818
-0.217613 0.158429 1.2244999 1249789997
-0.37004501 -0.32517999 1.15321 1268882323
0.019970501 0.16446599 1.4294699 1268879486
-0.043906599 0.16304199 1.41997 1268221554
0.0616665 0.156928 1.4319 1269076865
0.202733 -0.34045801 1.25929 1269933979
0.147984 -0.33904901 1.2599699 1269341842
0.60897899 -0.30656001 1.15449 1269342093
0.045207798 -0.33592999 1.26673 1269079183
0.48489401 -0.32751599 1.24097 1268749959
0.108436 0.089567199 0.96002299 1269998485
0.0618467 -0.33383101 1.26572 1270526883
0.347752 -0.329983 1.25481 1269868440
0.35263199 -0.32988 1.25449 1269934233
0.43647999 -0.32780799 1.2478499 1269671061
-0.44027099 0.0905995 1.15846 1267423550
0.530949 0.085375801 1.25337 1267552557
-0.43383101 0.050051101 1.19003 1267490110
-0.331496 -0.292555 1.20253 1247697487
-0.0280372 -0.289143 1.19277 1267829118
0.23179799 0.0355132 1.2125601 1268411200
-0.236101 -0.28088799 1.25467 1246644799
-0.0301736 -0.281573 1.2681201 1268158083
-0.130647 -0.278981 1.27087 1249144932
0.409594 0.020109501 1.4466799 1269000767
0.36869201 0.019239601 1.38077 1268805451
-0.11394 -0.26281601 1.27029 1248880991
-0.147513 -0.25602001 1.27121 1246710592
0.210195 -0.0053616199 1.2251101 1270591644
0.50957102 -0.0093177799 1.23695 1269142660
0.000504628 -0.0110512 1.19493 1270524056
-0.26427001 -0.0124657 1.21375 1267037284
0.62914503 -0.0114058 1.30007 1267958900
0.393617 -0.178404 1.2764699 1269802900
0.52193999 -0.0155084 1.29897 1268090229
0.46237001 -0.0155618 1.28655 1267959413
0.30399799 -0.0174182 1.25138 1268814720
0.055985399 -0.0176559 1.20468 1269144200
0.19790301 -0.173682 1.27586 1269735824
0.24496999 -0.17343999 1.27539 1269275272
-0.089329302 -0.070225202 1.28767 1248550482
0.48639101 -0.173926 1.2850699 1268157050
-0.206513 -0.070216298 1.27912 1248812877
0.59707499 -0.17100701 1.26758 1268814723
-0.33551499 -0.069945298 1.26526 1249075281
0.62279898 -0.16963799 1.25869 1268946309
0.627361 -0.16903099 1.25457 1268946309
-0.51156199 -0.0633789 1.1404999 1248683354
0.29872999 -0.171376 1.27485 1269802130
0.38567901 -0.171528 1.27821 1270130582
0.61600101 -0.168814 1.2651401 1270525341
0.0281136 -0.170185 1.28466 1269737366
0.124208 -0.169166 1.27992 1270065817
0.137614 -0.16898499 1.27898 1270328989
0.69455397 -0.160476 1.23279 1269209738
0.53220999 -0.166526 1.2849 1270000024
-0.16719601 -0.104778 1.2880599 1269211799
-0.0492777 -0.091745503 1.2654099 1247763544
-0.425302 -0.093798101 1.20674 1267896453
-0.19640499 -0.098824903 1.27982 1268290444
-0.40777999 -0.33105999 1.11713 1249210214
-0.145767 -0.38733101 1.27935 1248618338
-0.247054 -0.364777 1.21905 1247171144
-0.209014 -0.36831799 1.23362 1247236684
-0.14815 -0.37593201 1.286 1249802865
0.027703 -0.354375 1.2553999 1267041142
-0.0305652 -0.355892 1.26732 1268356490
0.0041908901 -0.35255501 1.25553 1267961732
0.59634697 -0.285041 1.0514801 1268289149
0.62051302 -0.28005099 1.03406 1269275531
0.083031401 -0.34126699 1.26002 1269671573
0.62629801 -0.28794599 1.0650899 1268420477
-0.421076 -0.303105 1.1506 1268224904
-0.016264301 -0.33888999 1.26608 1267565690
0.188749 -0.33570501 1.24947 1270195606
0.207847 -0.33630401 1.25097 1269275785
0.61003101 -0.26952499 1.01241 1269408402
0.24243499 -0.341593 1.2737499 1267565942
0.275132 -0.334764 1.24948 1269340813
0.60592997 -0.29789001 1.11406 1268420992
-0.0067562601 -0.33483499 1.2633801 1269079183
0.026368801 -0.33480901 1.26235 1268881804
0.45973599 -0.32901901 1.23022 1268881543
0.062574498 -0.33284101 1.2603 1270328992
0.219511 -0.33072299 1.25429 1270328219
0.247495 -0.330412 1.2524199 1269801877
0.573246 -0.316199 1.1938601 1268881543
-0.208055 -0.32311299 1.24569 1244210457
0.34983599 -0.32789299 1.24652 1269605268
0.36800301 -0.32741201 1.24433 1269407889
0.410052 -0.32745701 1.2432899 1269079177
0.47106001 -0.325562 1.2349499 1268552833
0.50676602 -0.32369301 1.22741 1269144970
0.52577698 -0.32216001 1.22153 1268881543
-0.0304556 -0.32865101 1.2658 1268420999
0.150989 -0.328482 1.2600501 1271053488
0.48595199 -0.322505 1.22956 1269605268
-0.25388601 -0.31525701 1.2366101 1248749405
-0.191882 -0.31974301 1.25072 1267105395
0.0185801 -0.32586101 1.2663701 1268355460
0.38056099 -0.32252601 1.24423 1270132125
-0.32848501 -0.30687299 1.2147 1246776393
0.389171 -0.32156 1.24643 1269408402
0.41154999 -0.32077101 1.24298 1269671320
0.431162 -0.32149699 1.245 1269539734
0.445023 -0.32025 1.24017 1269671320
0.45769301 -0.31933999 1.23656 1269737113
0.48234701 -0.320326 1.23937 1269605781
0.50309199 -0.318717 1.23305 1268816265
-0.21147799 -0.31541401 1.2475899 1247895129
-0.0303721 -0.32121101 1.2631299 1268421255
0.018618099 -0.32295701 1.26797 1268289667
0.61995399 -0.28532499 1.11614 1269210510
-0.27742001 -0.30749899 1.23277 1247828821
-0.30581501 -0.30047101 1.21394 1244407328
0.26323301 -0.317619 1.2659301 1269737113
0.58811897 -0.30417499 1.20745 1269408400
-0.231251 -0.30660501 1.24599 1248026200
0.54793203 -0.30804101 1.2287 1269145230
0.629453 -0.28202301 1.1363699 1268750472
-0.025539599 -0.308622 1.25966 1267565947
0.51987898 -0.305439 1.23199 1268882058
0.61795801 -0.28846601 1.16619 1268750472
-0.20780499 -0.30213499 1.25315 1268092290
-0.025508899 -0.305011 1.25861 1267565691
0.55528599 -0.305581 1.24379 1268684679
0.60419399 -0.29029301 1.20305 1268553093
0.63932198 -0.27208599 1.15008 1268684679
-0.230699 -0.28658301 1.25113 1267763070
-0.0303399 -0.290025 1.2653199 1268355462
-0.025473701 -0.288495 1.25911 1267829118
-0.251883 -0.28088099 1.24874 1247237197
-0.20935901 -0.27904001 1.25333 1247763280
-0.19719601 -0.269631 1.25508 1266710386
0.041230898 -0.26920199 1.2743599 1269474195
-0.025332799 -0.26268899 1.25554 1268026497
-0.207774 -0.257566 1.25332 1249604972
0.317871 -0.26292899 1.26046 1269211021
-0.38638899 -0.245005 1.2178299 1268553612
-0.101415 -0.25806001 1.26686 1246052664
-0.137603 -0.25426701 1.26601 1246907719
0.52306497 -0.252426 1.25195 1268947851
-0.362306 -0.24022201 1.23176 1249801835
-0.113588 -0.25597301 1.29608 1248551517
-0.352276 -0.236972 1.22392 1249670249
-0.057248201 -0.247088 1.26895 1268750221
-0.077755898 -0.245028 1.26783 1249604201
-0.335664 -0.235043 1.24472 1249867628
-0.30512601 -0.236679 1.25149 1268750220
-0.32491499 -0.233492 1.2447799 1249801835
-0.31277499 -0.23326001 1.25115 1249341284
-0.105275 -0.23298401 1.27553 1247301701
-0.123044 -0.230042 1.2783 1249867115
-0.15185601 -0.225917 1.26697 1268289155
-0.050964199 -0.22746301 1.27143 1247169864
-0.060090799 -0.222509 1.26361 1268289414
-0.029980799 -0.221604 1.25797 1268289669
0.022225199 -0.219942 1.2736599 1269211023
0.684479 -0.204799 1.1720099 1268552578
0.0190809 -0.21865501 1.27589 1269013644
0.65898103 -0.20922001 1.23045 1269473935
-0.091342703 -0.208359 1.2604899 1268421253
0.384343 -0.200049 1.25343 1268749957
0.70118898 -0.18738399 1.17001 1268684419
-0.030029301 -0.195815 1.26294 1268289156
-0.0160846 -0.194662 1.28544 1268486535
0.070214599 -0.18382999 1.30019 1269210763
0.094720401 -0.18397699 1.30022 1269209738
0.106196 -0.181282 1.28258 1269605008
0.13336401 -0.179414 1.2805099 1268485757
0.138043 -0.179244 1.27924 1268683136
0.169972 -0.179166 1.27754 1269472653
0.20602401 -0.179974 1.2814 1269604493
0.69619501 -0.163605 1.15757 1269012099
-0.0144828 -0.178408 1.2905999 1268420223
0.0097911097 -0.178949 1.29321 1268748929
0.037312899 -0.178913 1.29194 1269077893
0.222901 -0.177645 1.27671 1268354423
0.23741999 -0.17775699 1.27689 1268420216
0.25309199 -0.177543 1.27491 1268683390
0.27235001 -0.177628 1.27474 1268814976
0.29079601 -0.177202 1.2712801 1269275271
0.29403099 -0.177237 1.2713799 1269406857
0.32707301 -0.179738 1.2864 1269604493
0.35575899 -0.179593 1.28438 1269736081
0.39236599 -0.179434 1.28197 1269275531
0.42910501 -0.179379 1.28023 1269407887
0.458601 -0.179012 1.2767299 1269407374
0.53612298 -0.178258 1.2689101 1269144714
0.60574597 -0.17540701 1.24775 1269012614
0.62780797 -0.17240401 1.2273901 1269013126
0.64120698 -0.17104401 1.21804 1268815748
0.64942503 -0.16958299 1.20823 1269012102
0.65673703 -0.167163 1.19222 1269012358
0.70157897 -0.16690201 1.18883 1267367275
0.087402701 -0.17711 1.28948 1269472652
0.115977 -0.176369 1.28353 1269604490
-0.0158043 -0.171395 1.26688 1269802390
0.12364 -0.174125 1.27968 1270525338
0.17601299 -0.173691 1.27482 1269538446
0.24471501 -0.172142 1.27317 1270130582
-0.030116901 -0.168378 1.26974 1268157568
0.058215398 -0.171602 1.28813 1270395552
0.31002799 -0.171404 1.27713 1270328219
0.319621 -0.17140999 1.2768 1270394012
0.34979799 -0.171336 1.27514 1269472909
0.42034301 -0.171534 1.27377 1269472652
0.54534298 -0.171363 1.26782 1268551548
0.61305499 -0.16814899 1.24351 1268683649
0.61607403 -0.16769101 1.2403001 1268946821
0.660478 -0.167583 1.23787 1269012101
0.67178899 -0.166924 1.23298 1268814723
0.69287503 -0.163828 1.2112499 1269341577
0.450542 -0.170433 1.2767 1270262169
0.53139597 -0.16976701 1.26903 1269538446
0.26509199 -0.167872 1.278 1270328989
0.37469301 -0.16594701 1.27218 1269342349
0.55573899 -0.164359 1.2658499 1269342349
0.23314001 -0.160484 1.28743 1269407629
-0.030081199 -0.153256 1.26996 1268289154
0.14708801 -0.156496 1.29959 1270460575
0.48306701 -0.15355401 1.27671 1269078922
0.076972097 -0.142506 1.30143 1269736337
0.54165 -0.140221 1.27685 1270197658
0.265158 -0.127728 1.2846 1268617856
0.266325 -0.12579601 1.28255 1271052197
0.39000601 -0.124827 1.28371 1269737107
-0.030058401 -0.119871 1.27279 1268223875
0.456714 -0.117833 1.27924 1269408142
-0.48652801 -0.084451497 1.11066 1248883043
-0.48491901 -0.085453004 1.12161 1249210726
-0.47001001 -0.086649202 1.13403 1249671790
-0.39106899 -0.093844198 1.22707 1249737070
-0.38306499 -0.094167501 1.23027 1266711665
-0.354045 -0.096488297 1.25475 1267040886
-0.34657201 -0.096609898 1.25573 1267172473
-0.32583401 -0.095553301 1.24282 1267304829
-0.31268799 -0.095843799 1.2453901 1267633279
-0.29668501 -0.096797898 1.25524 1267962246
-0.19187 -0.098778397 1.27197 1268422796
-0.22756299 -0.095894501 1.26019 1266909044
-0.20862301 -0.096689902 1.26825 1267106423
-0.14365201 -0.097979099 1.27951 1268553873
-0.13576899 -0.098091103 1.28037 1268619153
-0.113575 -0.098357603 1.28224 1268554125
0.15676001 -0.099804103 1.2845 1270394267
0.053879201 -0.098436698 1.2939399 1269472910
0.096012197 -0.098485202 1.2922601 1269604751
0.124835 -0.092051901 1.2163 1271117990
-0.044606298 -0.093459398 1.28093 1249144681
0.381733 -0.095547304 1.28277 1269933716
0.39574501 -0.0954559 1.28091 1269275786
-0.170928 -0.073822103 1.22738 1268160910
-0.36067799 -0.073110797 1.27663 1266973559
-0.45768899 -0.066273801 1.20522 1248024396
-0.44875899 -0.068055898 1.2315 1248090701
-0.78104001 -0.40332001 -0.34783801 1269406090
-0.40224701 -0.067502499 1.2201999 1248419411
-0.37766799 -0.0675046 1.21866 1249208156
-0.80133301 -0.299227 -0.27872699 1268947338
-0.67732602 -0.39391601 -0.218025 1271644857
-0.74565703 -0.31100199 -0.21878099 1267760752
-0.303509 -0.069532402 1.26978 1248153407
-0.72092199 -0.306288 -0.201084 1269144463
-0.820059 -0.33305401 -0.32667199 1269669264
-0.69194102 -0.39243299 -0.221775 1267892597
-0.89421499 -0.42222399 -0.49717399 1268351349
-0.75274599 -0.41675299 -0.311075 1269932954
-0.867769 -0.46678501 -0.50019097 1269801364
-0.74032301 -0.316228 -0.21988299 1266905956
-0.73218501 -0.40006599 -0.27790099 1269472914
-0.86634499 -0.46179801 -0.49338299 1269076613
-0.77647799 -0.41915801 -0.35420901 1269406092
-0.72361898 -0.377983 -0.421437 1247958605
-0.73987401 -0.31857601 -0.220066 1268748160
-0.74417502 -0.353468 -0.25769299 1270394016
-0.70197803 -0.37709901 -0.221636 1268747909
-0.018297199 -0.032556199 1.1470799 1268418935
-0.75515699 -0.39532 -0.30087599 1269603471
-0.781757 -0.4023 -0.344533 1269208198
-0.72191203 -0.363318 -0.40558201 1246641975
-0.70718402 -0.36820599 -0.240087 1269736603
-0.70898598 -0.36695701 -0.22116099 1268945287
-0.72677302 -0.361341 -0.40627301 1249405280
-1.07547 -0.42852899 -0.62322098 1268944769
-0.78099501 -0.33784199 -0.290631 1270327192
-0.84480602 -0.35707301 -0.37573799 1269405320
-0.70376003 -0.33972499 -0.210732 1269605017
-0.77163702 -0.38564301 -0.32796201 1269800850
-0.722803 -0.32503399 -0.236141 1268222075
-0.74753797 -0.375747 -0.27738801 1269406608
-0.76889902 -0.33838001 -0.278312 1270458780
-0.73899603 -0.356262 -0.40832099 1249142365
-0.84931898 -0.36498699 -0.39240801 1269800078
-0.84042799 -0.59739298 -0.60543299 1269275022
0.21326301 -0.0117635 1.22216 1269603209
-0.73014897 -0.49798501 -0.30217201 1270196640
0.35294399 -0.0115814 1.17834 1268287089
-0.73449302 -0.30599901 -0.203076 1269736600
-0.74102801 -0.50577199 -0.23315001 1269868189
-0.75057101 -0.31110001 -0.214535 1268550010
0.47080699 -0.0100437 1.28028 1269669515
-0.64086401 -0.384379 -0.37056601 1268750222
-0.884633 -0.56373 -0.60355997 1269275020
-0.641056 -0.38402799 -0.37089801 1245525551
-0.78673702 -0.32168099 -0.28421399 1270525087
-0.00427922 -0.0068421001 1.28536 1269998997
-0.94800299 -0.59878403 -0.62294 1269077127
-0.82593298 -0.291347 -0.30301201 1269670289
-0.836429 -0.29702899 -0.146892 1268816265
-0.89125198 -0.52508301 -0.58791298 1269077127
0.077643402 -0.0049306098 1.23368 1269276556
0.0969477 -0.00540841 1.27993 1269802900
0.109836 -0.0054512299 1.28008 1269210504
-0.76869297 -0.28497601 -0.33410501 1269472910
-0.85306501 -0.475205 -0.49925601 1269801620
-0.80490398 -0.29844299 -0.28145599 1268880516
-0.73696601 -0.403725 -0.30536199 1269471372
-0.71595699 -0.37802199 -0.419227 1248352848
-0.83694899 -0.449633 -0.45490599 1269800590
-0.74447501 -0.40065199 -0.30274999 1270129813
-0.72511899 -0.38692901 -0.26446399 1270328223
-0.70155603 -0.366258 -0.34005699 1269735571
0.34726501 -0.0045014201 1.2798899 1269472907
-0.71243602 -0.36586899 -0.40374699 1249734760
-0.86725301 -0.448055 -0.49138901 1270325905
-0.73364401 -0.375494 -0.42385599 1247300159
-0.764449 -0.392748 -0.32269499 1270261915
-0.73220098 -0.371499 -0.262766 1269538453
-0.787229 -0.39172101 -0.34944701 1269734542
-0.89253098 -0.43262899 -0.51253098 1269997456
-0.75730097 -0.37644899 -0.30347401 1269405323
-0.75627601 -0.319502 -0.24863 1270328223
-0.78673798 -0.388145 -0.34271801 1270260886
-0.73617101 -0.35647401 -0.40716699 1268946573
-0.85646302 -0.347624 -0.390726 1270063247
-0.77486902 -0.37865201 -0.321697 1269735057
-0.75339502 -0.36862299 -0.295239 1270064538
-0.76354599 -0.362791 -0.44439301 1249141846
-0.74378699 -0.353376 -0.40879601 1266708064
-0.75567198 -0.35472101 -0.42726299 1245328685
-0.81154901 -0.38081899 -0.36702099 1269471112
-0.73248398 -0.35035199 -0.25041199 1269933211
-0.75358498 -0.35003099 -0.41023901 1248483661
-0.80601698 -0.37532601 -0.35288799 1269536906
-0.72281098 -0.34457201 -0.219734 1267892338
-0.76753402 -0.35879499 -0.29964501 1270064022
-0.78305 -0.306577 -0.26561901 1269670291
-0.72745299 -0.33714101 -0.219614 1268221046
-0.73597997 -0.33642301 -0.23033901 1269933979
-0.85720801 -0.37266001 -0.40658101 1269141631
-0.79803002 -0.349188 -0.322384 1269867411
-0.830181 -0.278929 -0.29343799 1268221816
-0.62528098 -0.40030599 -0.37990099 1248946271
0.52367997 0.063897699 1.25205 1269525833
-0.44217399 0.067396604 1.18855 1267094580
0.52489299 0.073486298 1.24411 1269525057
-0.15793701 0.075229801 1.22348 1268738111
-1.81594 -1.42783 -0.95202798 1269275281
-0.67915702 -0.44573599 -0.32097101 1270459809
-0.443425 0.080684699 1.1772701 1267161919
-0.637357 -0.39360201 -0.37269399 1266973558
-1.1364599 -0.79510897 -0.70028698 1269340816
0.53286099 0.104233 1.23364 1269267542
-0.63964403 -0.38896999 -0.37158599 1249670251
-1.26257 -0.88529098 -0.73468399 1268814212
0.109671 0.091333002 0.98966199 1268024180
-0.80328798 -0.54928601 -0.238052 1270065567
-0.64346701 -0.380418 -0.369941 1247565135
-0.75876701 -0.27873299 -0.23693299 1268617856
-0.90499997 -0.306934 -0.38158 1268812412
-0.64656901 -0.37366199 -0.36838001 1266710383
-0.68646598 -0.41449499 -0.30372 1269999258
-0.73326999 -0.451231 -0.246454 1270459807
-0.158774 0.137594 1.2302999 1268666144
-0.193326 0.129923 1.15081 1249457678
-0.027022099 0.160909 1.40004 1268155761
-0.84808898 -0.30398101 -0.332228 1269209481
-0.74133301 -0.28197801 -0.234258 1268484988
-0.69780302 -0.405963 -0.233307 1269802395
-0.76330203 -0.44451499 -0.287916 1269799824
-0.975748 -0.55939102 -0.51273 1269472403
-0.87405401 -0.490123 -0.493864 1268879748
-0.69396597 -0.37570399 -0.40019599 1248090187
-0.77930599 -0.44510299 -0.290068 1270327708
-0.85981899 -0.50168598 -0.21965501 1270393501
-0.90410101 -0.49252999 -0.50369799 1269603987
-0.77372003 -0.42484701 -0.286084 1269931410
-0.761087 -0.41908199 -0.259857 1270393501
-0.93010598 -0.489032 -0.58245802 1268747908
-0.70796102 -0.36895299 -0.40290099 1249208414
-0.72669899 -0.37679401 -0.42223299 1248419410
-0.71655798 -0.36727199 -0.40383199 1248155725
-0.77556998 -0.41273201 -0.28811401 1269537675
-0.71612197 -0.36540401 -0.40436801 1249273950
-0.22701199 0.17260601 1.23525 1249200690
-0.73800403 -0.289186 -0.233642 1268221815
-0.71236199 -0.37779099 -0.213824 1268156022
-0.87862903 -0.43675199 -0.490123 1269735057
-0.77789199 -0.39983499 -0.29002199 1269865354
-0.75160497 -0.37160701 -0.430453 1246709308
-0.82831198 -0.311158 -0.319013 1270524571
-0.88116997 -0.43114099 -0.49088901 1268945028
-0.94892001 -0.47312301 -0.604958 1268879748
-0.75784802 -0.38492399 -0.25003201 1270262428
-0.85620499 -0.46631199 -0.49083799 1269800594
-0.77358299 -0.38108501 -0.29495099 1269471625
-0.78589898 -0.37934101 -0.34536999 1269800335
-0.64001298 -0.37143299 -0.366043 1247498318
-0.824377 -0.335089 -0.360075 1268352631
-0.76771802 -0.32114899 -0.27218601 1269472653
-0.64212102 -0.36714199 -0.36509901 1247366470
-0.773633 -0.327344 -0.28670901 1270524571
-0.864757 -0.431725 -0.48627499 1269602960
-0.83906299 -0.35989201 -0.39279801 1269010561
-0.76396 -0.28766501 -0.214912 1268551812
-0.74645603 -0.38894901 -0.304124 1269406092
-0.61159801 -0.388336 -0.389162 1248485975
-0.78308702 -0.281295 -0.24699099 1269737115
-0.80887997 -0.308667 -0.29493099 1269867411
-0.88552201 -0.44840199 -0.51201099 1269931921
-0.71966201 -0.340657 -0.22336601 1268024957
-0.883717 -0.36359999 -0.44011199 1270129041
-0.79862398 -0.56385702 -0.21574999 1269736603
-0.64592201 -0.36180601 -0.37536401 1245788469
-0.78585899 -0.33117899 -0.42663801 1249270861
-0.77203798 -0.55735201 -0.51020002 1269077641
-0.77077597 -0.28039899 -0.22849099 1269275533
-0.62598801 -0.44784099 -0.244812 1269342357
-0.81612098 -0.292234 -0.286897 1269341324
-0.83455497 -0.482021 -0.492228 1268945281
-0.78049397 -0.55668199 -0.52118498 1269209227
-0.77444601 -0.40433699 -0.33797199 1269471885
-0.80978203 -0.53211898 -0.48233601 1268880523
-0.63684303 -0.378593 -0.36742499 1266841461
-0.70026499 -0.43157199 -0.27401 1270130844
-0.86477101 -0.345357 -0.41704899 1268615033
-0.75932902 -0.36517 -0.44279599 1246314040
-0.83251798 -0.48721099 -0.49225199 1268485506
-0.70902002 -0.31268799 -0.205634 1269341074
-0.76955402 -0.448241 -0.33179101 1270195354
-0.69408101 -0.40164399 -0.244857 1269472914
-0.679676 -0.38831601 -0.22369 1269405577
-0.74754697 -0.416673 -0.309127 1270195608
-0.843198 -0.46258599 -0.48724601 1269602703
-0.71089602 -0.37980399 -0.41681501 1248418386
-0.68019301 -0.47303399 -0.328724 1269670039
-0.84709799 -0.297299 -0.352299 1268681854
-0.96107298 -0.32249901 -0.49190801 1269010308
-0.761545 -0.55198699 -0.471358 1269276052
-0.73055297 -0.286589 -0.217529 1269342096
-0.728993 -0.288858 -0.217878 1269671061
-0.65062898 -0.44644201 -0.27041501 1269934239
-0.73418498 -0.29241401 -0.205898 1269999258
-0.74957901 -0.29845801 -0.23416901 1270065049
-0.85762399 -0.325982 -0.31538501 1269537676
-0.861516 -0.327317 -0.381616 1268416112
-0.74047202 -0.501248 -0.44157299 1269670293
-0.72164899 -0.355975 -0.240458 1270196637
-1.02517 -0.374854 -0.60387498 1268418684
-0.76973999 -0.33814999 -0.278117 1268682883
-0.77169299 -0.31301999 -0.27133 1270196376
-0.62850797 -0.37618801 -0.375824 1245788471
-0.61102498 -0.35878399 -0.39173999 1244473383
-0.86450601 -0.423071 -0.341281 1270194836
-0.70189297 -0.43158299 -0.27431899 1270196637
-0.81920302 -0.33307299 -0.33857501 1269997714
-0.67530501 -0.41071999 -0.233354 1270394016
-0.81178802 -0.39702001 -0.34960201 1269536906
-0.77985001 -0.32695201 -0.29481199 1269603469
-0.76546103 -0.34400699 -0.41291401 1247958091
-0.78064001 -0.332427 -0.301653 1269537163
-0.76326799 -0.329613 -0.27417701 1269472399
-0.79044199 -0.331936 -0.444437 1269339784
-1.00254 -0.403575 -0.60398102 1268616576
-0.73790401 -0.40998101 -0.29821 1270129556
-0.74283803 -0.41064301 -0.29809001 1269010819
-0.73424298 -0.401779 -0.28564101 1270392987
-0.69092298 -0.37867299 -0.2254 1270393503
-0.756356 -0.408932 -0.31418601 1270524573
-0.74295598 -0.40125999 -0.29856399 1269734544
-0.72264397 -0.391249 -0.26624799 1270854052
-0.86232698 -0.45553401 -0.50659001 1269340045
-0.74670798 -0.39614001 -0.29791501 1269734544
-0.85635501 -0.44536999 -0.488951 1268945028
-0.74868202 -0.38867399 -0.29861099 1269601928
-0.69467503 -0.36293101 -0.224041 1268879235
-0.87499797 -0.38807201 -0.38588801 1269931410
-0.72886002 -0.37623101 -0.267571 1269998743
-0.728185 -0.37054399 -0.26246899 1269932952
-0.70957702 -0.33234999 -0.225804 1268352889
-0.75190902 -0.37840199 -0.29920501 1269470855
-0.71609998 -0.33689901 -0.220753 1268221303
-0.807832 -0.43020201 -0.28014299 1270721952
-0.79490101 -0.51356202 -0.481989 1269670291
-0.67528498 -0.44062799 -0.26622301 1270131360
-0.86674601 -0.55797899 -0.59562403 1268813953
-0.78282201 -0.509736 -0.42649901 1269735571
-0.62568599 -0.37726501 -0.38142499 1249012579
-0.68574202 -0.44574299 -0.27182999 1269736603
-0.62616402 -0.37637201 -0.38100001 1247894868
-0.85974598 -0.54860002 -0.57520199 1268813955
-0.692725 -0.44333699 -0.30682001 1270328226
-0.815759 -0.52038699 -0.49773601 1269340813
-0.76238501 -0.483255 -0.43315899 1269209227
-0.64809299 -0.414179 -0.235838 1267892594
-0.70883101 -0.35818899 -0.223837 1268288125
-0.69067597 -0.443275 -0.277509 1269868189
-0.82332301 -0.48177201 -0.477882 1269735573
-0.68151999 -0.43496999 -0.258959 1270328739
-0.74298501 -0.35426399 -0.408721 1247893584
-0.61209899 -0.35658401 -0.392885 1243815962
-0.70961899 -0.363435 -0.21866401 1267563632
-0.85385603 -0.29128399 -0.33011201 1269011334
-0.96025401 -0.311189 -0.49035501 1268747136
-0.89037198 -0.303159 -0.39112499 1268022897
-0.882447 -0.30345199 -0.38578701 1268615033
-0.88537002 -0.30879301 -0.393994 1267628138
-0.764238 -0.42479101 -0.36447701 1269011074
-0.925026 -0.326361 -0.470139 1268944769
-0.68734699 -0.387532 -0.22011299 1268418168
-0.81291002 -0.304333 -0.31372699 1269209481
-0.97080302 -0.28769901 -0.47202799 1268089460
-0.801763 -0.26245299 -0.2318 1269012101
-0.87060201 -0.36193001 -0.437563 1269076354
-0.95861101 -0.31085101 -0.476513 1268813180
-0.74708903 -0.37118599 -0.429506 1244668698
-0.76477998 -0.346403 -0.29954001 1271117224
-0.97435802 -0.423599 -0.60803902 1268155512
-0.792198 -0.266718 -0.248558 1269078152
-0.756504 -0.34128201 -0.42780799 1246511676
-0.82914001 -0.277841 -0.27355501 1269077894
-0.63126999 -0.36092201 -0.37519401 1248156759
-0.77219898 -0.498216 -0.42664701 1269209488
-0.86448598 -0.35298499 -0.55597001 1268681856
-0.84907401 -0.34097499 -0.38771799 1268878973
-0.76399302 -0.34567299 -0.440788 1267893369
-0.88807303 -0.29944101 -0.36523601 1268286322
-0.91875798 -0.307951 -0.45691001 1268943998
-0.68312001 -0.378048 -0.22522999 1268747392
-0.75191301 -0.29995799 -0.228533 1268880516
-0.70801198 -0.33400899 -0.176617 1269670293
-0.70390397 -0.43669099 -0.283842 1269802136
-0.853535 -0.51934302 -0.51427501 1269735057
-0.70971698 -0.334178 -0.19009501 1269670293
-0.856179 -0.294453 -0.34609899 1268352118
-0.82376897 -0.49409401 -0.48811001 1269209233
-0.67404401 -0.41667899 -0.211427 1268880258
-1.1542701 -0.37192801 -0.66993201 1267694702
-0.74783701 -0.386875 -0.30546501 1269142660
-0.69873202 -0.417402 -0.27235699 1270459808
-0.754125 -0.30969301 -0.246099 1269011847
-0.81732303 -0.32818401 -0.355046 1269142147
-0.67206103 -0.39477199 -0.24293999 1270327710
-0.89169598 -0.50796801 -0.58848703 1268616576
-0.70608401 -0.313851 -0.208894 1270919845
-0.80434299 -0.29125199 -0.424373 1249337937
-0.82287598 -0.46608299 -0.45753199 1269011848
-0.75680703 -0.378288 -0.29506499 1270129815
-0.68012297 -0.39308101 -0.213606 1269011074
-0.92515397 -0.44406399 -0.56275302 1269405832
-0.79675698 -0.370617 -0.360973 1268154226
-0.685417 -0.38946599 -0.227837 1270130844
-0.76826203 -0.42682901 -0.351307 1269273991
-0.72964603 -0.27300599 -0.220917 1270131612
-0.90554601 -0.32003999 -0.43958899 1249864281
-0.81177199 -0.295407 -0.304939 1269341066
-0.807118 -0.44147599 -0.42578301 1269208711
-0.90207797 -0.429077 -0.532031 1269207423
-0.95406997 -0.335412 -0.52974999 1268615804
-0.947923 -0.33432201 -0.50304198 1269800078
-0.82160801 -0.446933 -0.40043199 1269339784
-0.80835199 -0.42886201 -0.42773399 1268945026
-0.73913801 -0.39807701 -0.28830099 1269998229
-0.85834599 -0.31185001 -0.376266 1268417908
-0.76062202 -0.40807801 -0.30522501 1269603985
-0.80607897 -0.37553 -0.375478 1267234149
-0.70789897 -0.380274 -0.24908 1270262430
-0.83349198 -0.434834 -0.44604 1269077127
-0.782004 -0.41216201 -0.35662299 1269076612
-0.724985 -0.37290701 -0.422093 1248088646
-0.71021402 -0.36379099 -0.40191901 1247300160
-0.79151899 -0.296408 -0.281468 1269735825
-0.71991801 -0.37826699 -0.25913799 1270328221
-0.88779598 -0.35725999 -0.457746 1268878975
-0.70020002 -0.36739001 -0.21584199 1268155253
-0.772829 -0.324395 -0.28469601 1270919329
-0.96977502 -0.30281901 -0.49094799 1268023667
-0.87742603 -0.42878601 -0.50822002 1268813955
-0.73136598 -0.37154499 -0.263962 1269670293
-0.78293002 -0.26607499 -0.25424799 1268946566
-0.76695901 -0.51032799 -0.42243901 1269604500
-0.83243001 -0.276986 -0.259435 1268485757
-0.69332099 -0.46621999 -0.28265199 1270328740
-0.76744002 -0.50208497 -0.426213 1269472660
-0.82857502 -0.333514 -0.350995 1269405832
-0.85862303 -0.28703499 -0.35483 1268418937
-0.77640402 -0.499571 -0.41559899 1269669780
-0.65207303 -0.42265001 -0.23215801 1269933211
-0.62699199 -0.36606801 -0.439455 1266973297
-0.79970998 -0.482115 -0.44609901 1269405320
-0.74295801 -0.323165 -0.244692 1269538192
-0.670021 -0.42291301 -0.21082699 1268023924
-0.79525298 -0.278972 -0.25535199 1269078152
-0.99282998 -0.40943599 -0.62145901 1268287098
-0.90126699 -0.307652 -0.39596799 1268483699
-0.77432799 -0.276005 -0.23025499 1269275531
-0.82605302 -0.485917 -0.49610001 1269209488
-0.88160598 -0.30422801 -0.38775101 1268023148
-0.665052 -0.392019 -0.244565 1268946055
-0.72670001 -0.42823699 -0.29908401 1269077898
-0.64692301 -0.37763 -0.227742 1270591141
-0.83427501 -0.371595 -0.38900301 1269340039
-0.82842702 -0.46488699 -0.48877001 1268681856
-0.80181998 -0.44737899 -0.40725201 1269800848
-0.84811002 -0.47177401 -0.45738199 1268682369
-0.71556902 -0.39983299 -0.268307 1269999256
-0.742028 -0.40498701 -0.290723 1270392734
-0.69853801 -0.37780201 -0.21291199 1269208711
-0.697761 -0.37412 -0.21429101 1267628909
-0.77554899 -0.404623 -0.34350899 1269537163
-0.68590701 -0.36152801 -0.20349599 1270854567
-0.77972198 -0.39176399 -0.345393 1269997714
-0.691594 -0.35526901 -0.18454801 1269407121
-0.928828 -0.44321001 -0.59991002 1267760752
-0.756733 -0.37307999 -0.296657 1269800077
-0.91443402 -0.43447801 -0.55858803 1268813186
-0.797921 -0.27924201 -0.269896 1269998996
-0.88313699 -0.40126401 -0.51751399 1268353404
-0.77934998 -0.36143601 -0.346513 1269141377
-0.87899202 -0.32041299 -0.38869601 1268747387
-0.763933 -0.352198 -0.31485701 1268945026
-0.70130199 -0.316912 -0.207386 1269209481
-0.75489199 -0.340137 -0.42529699 1246050354
-0.80311698 -0.32087299 -0.31384501 1269471370
-0.82653803 -0.49272799 -0.48974201 1267892599
-0.71495402 -0.430502 -0.30079299 1268749191
-0.70784402 -0.423298 -0.28934401 1269538189
-0.92690402 -0.31825399 -0.47524199 1268747133
-0.69198501 -0.411735 -0.267865 1269078923
-0.71371901 -0.42451701 -0.286787 1270196125
-0.85130101 -0.36979699 -0.40811899 1269602182
-0.91396201 -0.31672201 -0.44046801 1268351861
-0.84179199 -0.47801399 -0.50253099 1268419197
-0.82373297 -0.47192201 -0.44576401 1269340813
-0.86039102 -0.33317101 -0.383973 1268746873
-0.70228702 -0.391884 -0.24972899 1270591395
-0.69635898 -0.38669401 -0.238471 1269933465
-0.91468197 -0.325993 -0.461234 1268220529
-0.85702002 -0.45366701 -0.49690199 1269143436
-0.71683502 -0.375 -0.419698 1247630151
-0.79373902 -0.39776099 -0.34616601 1269668492
-0.97274899 -0.46609899 -0.65986401 1268419454
-0.69562101 -0.35167101 -0.189602 1269868188
-0.92071199 -0.43780899 -0.568762 1268747649
-1.0163701 -0.37097201 -0.62871701 1267957874
-0.73604703 -0.34695199 -0.41061899 1244077332
-0.71162999 -0.34370899 -0.218192 1267233380
-0.749165 -0.383248 -0.290059 1270130329
-0.74994898 -0.297106 -0.22354899 1269932950
-0.90671003 -0.30948001 -0.40662 1267694183
-0.76674497 -0.35582599 -0.30328801 1271183271
-0.96345299 -0.427477 -0.59727901 1268353404
-0.78065002 -0.35602 -0.33912599 1270787232
-0.77782798 -0.35031301 -0.30907601 1270458265
-0.75543398 -0.34065101 -0.28264201 1270393755
-0.75647098 -0.30756301 -0.24749801 1270591391
-0.782058 -0.348777 -0.34829 1270063507
-0.74517399 -0.33479899 -0.259875 1270855334
-0.74177903 -0.30388799 -0.245261 1269538192
-0.71324903 -0.343344 -0.20434099 1270065565
-0.722525 -0.322734 -0.22306 1269867157
-0.77621901 -0.33285701 -0.42366701 1267694185
-0.75014299 -0.32041299 -0.251948 1269143689
-0.83656102 -0.28704399 -0.312296 1269012101
-0.74863303 -0.31648499 -0.246214 1269801364
-0.97527802 -0.38941401 -0.58604002 1268681597
-0.78947699 -0.326592 -0.41864601 1269339010
-0.84898901 -0.287801 -0.337075 1269472653
-0.78849202 -0.275823 -0.247045 1269275531
-0.78417301 -0.27444699 -0.240472 1268749957
-0.74919897 -0.267573 -0.20289899 1268750218
-0.76578999 -0.26979899 -0.20292801 1268420994
-0.76685899 -0.278254 -0.255346 1270196633
-0.729877 -0.281495 -0.20458201 1269144463
-1.06056 -0.346313 -0.64865202 1268221046
-0.779724 -0.59046501 -0.440745 1269473431
-0.79406399 -0.296994 -0.27926001 1268288379
-0.81002003 -0.60978901 -0.459681 1269407638
-0.81427097 -0.30226499 -0.30293801 1269406860
-0.76205099 -0.553563 -0.470373 1268223364
-0.82503402 -0.30648699 -0.324514 1269471883
-0.865987 -0.278923 -0.319392 1269208711
-0.74398297 -0.308837 -0.226909 1269472399
-0.90559202 -0.429903 -0.534702 1268024438
-0.77468401 -0.32919699 -0.43503699 1248680005
-0.79984701 -0.30175501 -0.42497599 1248086587
-0.828161 -0.275334 -0.30149099 1268814980
-0.85334897 -0.51707798 -0.55470097 1268288125
-0.85689503 -0.52019203 -0.54609102 1268617091
-0.84689301 -0.51817203 -0.46562901 1268813440
-0.77095097 -0.339744 -0.42393699 1248548421
-0.712538 -0.42666599 -0.289965 1268944768
-0.71026701 -0.349053 -0.216846 1268154225
-0.75220299 -0.297169 -0.235936 1269341067
-0.71856099 -0.359698 -0.249202 1270328221
-0.92145401 -0.30991301 -0.45732 1268812412
-0.78662199 -0.28739399 -0.261179 1269604496
-0.96874201 -0.406656 -0.58782798 1268616063
-0.73151499 -0.413636 -0.29346099 1270064536
-0.88051498 -0.49332601 -0.559452 1268616576
-0.75865197 -0.34953299 -0.438205 1244210466
-0.72948998 -0.279024 -0.177312 1269012877
-0.74319297 -0.48348299 -0.31722099 1270525089
-0.82582802 -0.44874299 -0.44994599 1268419197
-0.93617201 -0.33327901 -0.49237001 1268746360
-0.76321298 -0.37930301 -0.38120601 1269273733
-0.84847999 -0.27192599 -0.288903 1268025207
-0.88088799 -0.456588 -0.53685302 1269142920
-0.80491602 -0.26461801 -0.25472599 1269341326
-0.801112 -0.26421401 -0.33273399 1267696499
-0.79062098 -0.50322402 -0.42285001 1269143695
-0.78495002 -0.32336301 -0.42450401 1267364966
-0.77970201 -0.32746899 -0.29429299 1269800848
-0.70078599 -0.33852401 -0.211531 1270130844
-0.737333 -0.43416899 -0.29940701 1269800849
-0.75985497 -0.363056 -0.298832 1270195093
-0.765881 -0.330336 -0.27906701 1270590364
-0.77381003 -0.334728 -0.293879 1270392985
-0.80609399 -0.56015003 -0.53123999 1268551299
-0.76545298 -0.30078501 -0.249898 1270064536
-0.874816 -0.414554 -0.49204299 1269142153
-0.71992999 -0.373723 -0.42099601 1246839868
-0.72004598 -0.330064 -0.220636 1268089459
-0.78970701 -0.32008001 -0.301153 1269670032
-0.749919 -0.36916301 -0.29030201 1271116708
-0.82240403 -0.33080801 -0.34735101 1269866128
-0.82591802 -0.36134699 -0.375882 1270260629
-0.78911799 -0.35023999 -0.32963401 1270392472
-0.72656798 -0.30808699 -0.21279199 1269407635
-0.78721398 -0.35231599 -0.31942701 1270327193
-0.72584802 -0.33441401 -0.231215 1269670291
-0.757218 -0.32932699 -0.26723501 1269668751
-0.68462098 -0.355602 -0.204698 1269604757
-0.82542998 -0.46944201 -0.452409 1269538194
-0.86515599 -0.424384 -0.48543099 1269668751
-0.74204099 -0.329795 -0.247649 1269998743
-0.73987198 -0.364113 -0.32771301 1270919331
-0.78595799 -0.384725 -0.33974999 1269997714
-0.81372702 -0.35366401 -0.35919401 1268878975
-0.68785697 -0.37529299 -0.223538 1268484218
-0.79943001 -0.35453799 -0.33781499 1270063507
-0.75616199 -0.32768399 -0.26595801 1269934494
-0.88424402 -0.45647299 -0.53885102 1269274252
-0.71706402 -0.32287401 -0.21329001 1269736086
-0.845146 -0.36120701 -0.39490199 1269273985
-0.77365398 -0.378176 -0.34955099 1270260885
-0.75792098 -0.36078599 -0.292613 1270918816
-0.717448 -0.39021799 -0.260847 1270854054
-0.91364098 -0.47944599 -0.57485098 1268945026
-0.74289101 -0.31057799 -0.20428599 1269605014
-0.88502598 -0.29120699 -0.36361799 1267168615
-0.84571803 -0.51121598 -0.49516401 1267893110
-0.70981097 -0.31889501 -0.218494 1269012874
-0.78564399 -0.32731199 -0.30759501 1269931921
-0.96398801 -0.313308 -0.49339899 1268023666
-0.84603 -0.34286201 -0.370361 1268417908
-0.78075802 -0.32100201 -0.293176 1270130583
-0.81424499 -0.36405399 -0.36985999 1270063762
-0.77343702 -0.302919 -0.262528 1270392985
-0.96754801 -0.42409101 -0.59299201 1268418425
-0.64450902 -0.37462401 -0.368058 1249670509
-0.95743501 -0.42110699 -0.58996999 1268484477
-0.755822 -0.347231 -0.289915 1269537162
-0.70195299 -0.34837499 -0.21876 1269141378
-0.869295 -0.52744299 -0.45722601 1269276049
-0.68488598 -0.37405899 -0.19078299 1269933981
-0.70332497 -0.370287 -0.23290899 1269867670
-0.76790899 -0.33454099 -0.28949401 1270918816
-0.81764901 -0.46137899 -0.41766599 1269537676
-0.68106401 -0.391866 -0.213223 1269208710
-0.81194699 -0.308204 -0.31866899 1269274503
-0.757734 -0.33935201 -0.271314 1270788772
-0.89677101 -0.38349399 -0.50101 1268879488
-0.98565298 -0.41091499 -0.59886497 1269208198
-0.879426 -0.41217899 -0.471403 1268418937
-0.74711102 -0.382478 -0.28565899 1269801364
-0.85316402 -0.42221999 -0.464683 1269405832
-0.72688401 -0.371108 -0.253692 1270327969
-0.75120598 -0.32600299 -0.250631 1269472914
-0.72961903 -0.319134 -0.210206 1268552324
-0.76727802 -0.391958 -0.298816 1270393501
-0.959378 -0.340018 -0.526057 1268813442
-0.68493497 -0.34869099 -0.20608699 1269670809
-0.73720199 -0.25881401 -0.20061301 1269670291
-0.774957 -0.388908 -0.32365799 1269932950
-0.655545 -0.41187701 -0.217869 1270066080
-0.64202702 -0.37918201 -0.36920601 1267170935
-0.94999802 -0.34098601 -0.51312602 1267365737
-0.719441 -0.44611299 -0.28228599 1269605016
-0.98171401 -0.35159099 -0.56886399 1269471372
-0.77541101 -0.466903 -0.437556 1270590366
-0.69531101 -0.423049 -0.28498501 1269934233
-0.67061502 -0.411569 -0.225448 1269340299
-0.68197101 -0.393125 -0.220311 1268813953
-0.89699399 -0.30382901 -0.38583601 1268154736
-0.83564001 -0.49783599 -0.49043199 1269931664
-0.84498399 -0.50107998 -0.51452202 1269275020
-0.75900298 -0.32836801 -0.267638 1271314089
-0.75568497 -0.36069599 -0.29251599 1270458778
-0.731453 -0.34387901 -0.243894 1269932950
-0.80263603 -0.46627599 -0.45942599 1269603469
-0.76305097 -0.299934 -0.249213 1269801364
-0.74354601 -0.36532301 -0.298971 1269539223
-0.72299701 -0.42383701 -0.29015401 1270724265
-0.75213498 -0.359467 -0.33117101 1269078671
-0.72900999 -0.352173 -0.25255799 1268881293
-0.74700302 -0.35460901 -0.30593199 1269538966
-0.73176402 -0.34766799 -0.237749 1268749707
-0.72506601 -0.344253 -0.207912 1267104362
-0.822649 -0.37068599 -0.43414599 1268089972
-0.82322502 -0.36127201 -0.42186099 1268945538
-0.69626302 -0.189815 -0.42941999 1268092288
-0.81578797 -0.356058 -0.417465 1269537418
-0.76384503 -0.323089 -0.298677 1269209740
-0.751881 -0.31030399 -0.219217 1269276303
-0.75761902 -0.31013 -0.253961 1268617603
-0.76108301 -0.308575 -0.271743 1269604496
-0.743967 -0.300679 -0.12662099 1269079185
-0.83617598 -0.46817699 -0.39834201 1268946057
-0.76717103 -0.309995 -0.27932799 1269932950
-0.79923099 -0.322615 -0.365152 1269076867
-0.81965101 -0.32791299 -0.395861 1268286836
-0.78163999 -0.30795899 -0.311955 1269933204
-0.70582902 -0.205553 -0.355423 1248485973
-0.77150398 -0.28494701 -0.24355499 1269867670
-0.80038601 -0.29845801 -0.34278899 1269472653
-0.75210202 -0.26282901 -0.154461 1269342357
-0.83441901 -0.30238801 -0.396202 1268615801
-0.74642998 -0.36596599 -0.30945399 1269209227
-0.764678 -0.362196 -0.348463 1269078156
-0.73480499 -0.35119599 -0.25687701 1269933981
-0.714867 -0.339367 -0.21303999 1269341326
-1.0274301 -0.39796901 -0.58644098 1268616063
-0.784518 -0.42199799 -0.293547 1269801366
-0.760692 -0.34863701 -0.31202099 1269538700
-0.73725599 -0.328859 -0.208858 1269999258
-0.72942901 -0.32541099 -0.193645 1269999773
-0.78685302 -0.34750199 -0.36363101 1267695987
-0.81240302 -0.33012199 -0.339077 1270064536
-0.76515198 -0.33064499 -0.27829799 1270195606
-0.76225901 -0.311665 -0.25893199 1270722209
-0.81370902 -0.31358501 -0.33353901 1268813440
-0.75390798 -0.32735801 -0.27215499 1268749191
-0.75674403 -0.276885 -0.20598499 1268221556
-0.767645 -0.31334499 -0.269593 1270393501
-0.79497099 -0.339986 -0.372078 1268090232
-0.64000398 -0.177459 -0.40051699 1247959370
-0.79623699 -0.21098401 -0.474738 1244996633
-0.80650097 -0.33451 -0.379545 1268156023
-0.74453503 -0.30666199 -0.22779199 1269276303
-0.84153199 -0.34915701 -0.44993699 1269406092
-0.79140198 -0.32656601 -0.345047 1269341067
-0.682625 -0.198797 -0.38238701 1249673265
-0.773785 -0.320557 -0.28317401 1269801618
-0.765926 -0.32096899 -0.27253601 1270590364
-0.77117801 -0.32735401 -0.28740099 1269669262
-0.726565 -0.33019 -0.23846 1268352889
-0.83305401 -0.37132901 -0.38786101 1270129301
-0.73779398 -0.37252301 -0.27534801 1270261915
-0.72535199 -0.334705 -0.22889 1270459294
-0.74766898 -0.34250799 -0.27432001 1269603469
-0.72754103 -0.35143101 -0.249345 1270393501
-0.85756099 -0.33385599 -0.37982699 1268286322
-0.76466799 -0.36822501 -0.31522301 1270327194
-0.84424001 -0.42025399 -0.462975 1269602956
-0.81227201 -0.35442299 -0.35812199 1269865870
-0.82283098 -0.30637401 -0.32350901 1268813953
-0.80757201 -0.300286 -0.303633 1269998996
-0.85966003 -0.291293 -0.33699501 1269209223
-0.808725 -0.33517799 -0.35839999 1269142147
-0.826006 -0.343171 -0.364562 1268878205
-0.74759197 -0.369517 -0.289722 1269538192
-0.76379001 -0.300634 -0.248643 1269933461
-0.85613102 -0.31766701 -0.36833 1268417908
-0.80973399 -0.36256599 -0.35870999 1269207940
-3.06792 -0.96249598 -0.189201 1268221558
-0.73990101 -0.35585201 -0.265679 1270459294
-0.83746201 -0.27769199 -0.32408601 1269537676
-0.82252997 -0.37051499 -0.38088399 1269733514
-0.88768899 -0.311912 -0.38192099 1268746873
-0.78207803 -0.31137601 -0.28231201 1269538446
-0.87017798 -0.285752 -0.33866701 1268484730
-0.78511399 -0.27499899 -0.26122999 1269275274
-0.81159598 -0.331478 -0.34044501 1269537418
-0.75813103 -0.301799 -0.243077 1270065047
-0.72676003 -0.37564299 -0.274239 1269473430
-0.77477002 -0.27506199 -0.23018099 1269012361
-0.76005 -0.38300601 -0.372188 1269340297
-0.76247901 -0.359808 -0.29809001 1268944769
-0.73750901 -0.373566 -0.27561 1270262430
-0.76118898 -0.379253 -0.35773301 1269274504
-0.82050502 -0.31501499 -0.328161 1269076867
-1.0899301 -0.31012899 -0.57148898 1268220275
-0.83263302 -0.309306 -0.379208 1268087658
-0.75078702 -0.359624 -0.30463099 1269537678
-0.76594502 -0.28003201 -0.217134 1269011848
-0.75744498 -0.31016001 -0.250981 1270985638
-0.82399797 -0.30735999 -0.36177999 1268089459
-0.72505099 -0.32771999 -0.53894198 1269076612
-0.78105998 -0.28939 -0.26062399 1270327708
-0.79646599 -0.29657999 -0.29797101 1269932433
-0.763143 -0.397104 -0.314587 1269735057
-0.76601499 -0.35252199 -0.32915801 1268945535
-0.76733702 -0.35322499 -0.31240201 1268682109
-0.78989297 -0.29415199 -0.281544 1269800848
-0.75984502 -0.34870601 -0.31169099 1269011331
-0.74454802 -0.30732399 -0.225721 1268946055
-0.78134102 -0.35541001 -0.34370801 1270656927
-1.03636 -0.479655 -0.50199598 1268155765
-0.74606198 -0.338144 -0.262786 1269406603
-0.701038 -0.31720701 -0.18238901 1269275533
-0.73316401 -0.33000401 -0.20615099 1268090231
-0.76637 -0.23124699 -0.155965 1268881291
-0.82040501 -0.31381899 -0.36203501 1268418422
-0.73346603 -0.326662 -0.21045201 1269932950
-0.818407 -0.31369701 -0.361682 1269273731
-0.75840098 -0.287065 -0.230653 1269736084
-0.78666103 -0.347305 -0.36221501 1269142917
-0.73444098 -0.32558799 -0.18887401 1270196637
-0.76265699 -0.34124401 -0.308557 1269932179
-0.788369 -0.351071 -0.37214699 1268945281
-0.738693 -0.31844601 -0.206625 1268484990
-0.795811 -0.34014001 -0.36932799 1268023666
-0.66530198 -0.410781 -0.234339 1269012363
-0.80468202 -0.231791 -0.21487901 1269077641
-0.75735301 -0.322694 -0.246389 1269932950
-0.81532401 -0.490024 -0.43922901 1269472401
-0.80874503 -0.253508 -0.28882101 1268485501
-0.78262001 -0.32859001 -0.32682699 1269537676
-0.83973801 -0.352063 -0.38302299 1269142145
-0.75349897 -0.31294101 -0.22741701 1270064536
-0.93472099 -0.39071599 -0.50747001 1268747389
-0.96740502 -0.40125799 -0.43224999 1268682109
-0.80124497 -0.32855201 -0.358821 1269142660
-0.70355397 -0.41985399 -0.28101 1268156282
-0.84587401 -0.345909 -0.38890401 1269998227
-0.769629 -0.30559701 -0.230487 1269932950
-0.82339901 -0.329326 -0.39117399 1268483701
-0.86612499 -0.341674 -0.38338101 1268945279
-0.80365998 -0.464632 -0.479736 1268880262
-0.80883801 -0.47076499 -0.42703 1269340813
-0.67615998 -0.39408001 -0.24732301 1269538453
-0.65028501 -0.37876201 -0.218412 1271381942
-0.73196602 -0.42481399 -0.29452601 1269603985
-0.85418302 -0.48087299 -0.51710403 1268880262
-0.77432901 -0.35410801 -0.32030499 1269735318
-0.84861797 -0.47017401 -0.499625 1269142920
-0.83909702 -0.46619701 -0.477413 1269603471
-0.88193399 -0.48984101 -0.49702701 1269142666
-0.73656797 -0.411506 -0.32685101 1270064536
-0.70856702 -0.39566001 -0.29071999 1270393762
-0.77467197 -0.42693099 -0.39883101 1270129815
-0.68651003 -0.38167101 -0.263776 1269933465
-0.83461899 -0.45361701 -0.488718 1268550270
-0.85720301 -0.46502301 -0.51139098 1269537678
-0.815431 -0.43748599 -0.49904701 1269142920
-0.77881199 -0.41901499 -0.42208901 1269077125
-0.74960101 -0.40464199 -0.352873 1269602956
-0.70080602 -0.38324001 -0.237913 1270788774
-0.82785201 -0.43710899 -0.44190401 1269603471
-0.71567702 -0.381327 -0.29095799 1270327708
-0.74475598 -0.38453901 -0.427802 1249141589
-0.74786502 -0.397351 -0.294651 1269735055
-0.85865498 -0.44463599 -0.49588501 1268485758
-0.84731197 -0.439495 -0.47809699 1269010821
-0.73982698 -0.38079101 -0.42409301 1249341023
-0.74843699 -0.39567 -0.294687 1269537675
-0.74273998 -0.389952 -0.31661499 1269538192
-0.71775401 -0.37750599 -0.29232001 1270130329
-0.68320203 -0.36359301 -0.1955 1270196637
-0.75511998 -0.39190099 -0.340363 1269340813
-0.71367198 -0.36246201 -0.40239999 1247365437
-0.69385898 -0.36065 -0.250539 1269933465
-0.83315802 -0.41770899 -0.494975 1269275020
-0.74768603 -0.381935 -0.30562899 1270591141
-0.69011903 -0.35420999 -0.25550601 1269736086
-0.70228302 -0.36364701 -0.21600901 1267760494
-0.793118 -0.39780301 -0.37136799 1269076354
-0.79066801 -0.397407 -0.34794 1269602699
-0.83819097 -0.41367 -0.43712801 1269273991
-0.723777 -0.36418399 -0.278025 1269932950
