# .PCD v0.7 - Point Cloud Data file format
VERSION 0.7
FIELDS x y z rgb
SIZE 4 4 4 4
TYPE F F F U
COUNT 1 1 1 1
WIDTH 1167
HEIGHT 1
VIEWPOINT 0 0 0 1 0 0 0
POINTS 1167
DATA ascii
0.195994 0.30775899 0.75371802 1268612706
0.196894 0.308624 0.753672 1249401924
0.206026 0.42506099 1.02854 1244932389
0.204899 0.426359 1.02795 1244208666
0.20733599 0.426319 1.0284801 1246379577
0.20377199 0.42765701 1.02737 1244077080
0.20620801 0.42761701 1.02789 1245261354
0.208645 0.427578 1.02841 1246970943
0.205081 0.42891499 1.0273 1245063975
0.20638999 0.43017399 1.02723 1245985077
0.38625699 -0.098299101 1.27976 1268748938
0.38472 -0.096667297 1.28045 1268946317
0.38780501 -0.096549802 1.27955 1268748938
0.383183 -0.095035702 1.28114 1268288387
0.38626799 -0.094918199 1.2802401 1267959422
0.38935301 -0.094800703 1.27933 1267367285
0.38473099 -0.093286499 1.28093 1249603174
0.38627899 -0.091537401 1.28071 1267235699
0.205456 0.42591599 1.02068 1245063975
0.204337 0.42720401 1.02009 1244471838
0.206755 0.427165 1.02061 1245985077
0.203219 0.42849201 1.01951 1243682322
0.20563699 0.42845199 1.02003 1244735010
0.208055 0.428413 1.02055 1246511162
0.20451801 0.42974001 1.0194401 1243682322
0.205817 0.430989 1.01938 1244471838
0.42826599 -0.101387 1.23105 1249274209
0.42677301 -0.099801399 1.23172 1266906734
0.42976901 -0.099687301 1.23084 1267169906
0.42527899 -0.098216303 1.23239 1268354180
0.428276 -0.0981021 1.23151 1268946317
0.43127301 -0.097988002 1.23063 1269012110
0.426783 -0.096516997 1.23218 1269933212
0.428287 -0.094817698 1.23197 1270064798
0.324458 -0.095746502 1.30999 1268222593
0.322907 -0.094099998 1.31068 1268025214
0.32602 -0.0939814 1.30977 1268748938
0.321356 -0.092453398 1.31138 1267893628
0.324469 -0.092334896 1.31047 1268288386
0.327582 -0.092216298 1.30955 1268353670
0.322918 -0.0906884 1.31117 1249866345
0.32448 -0.088923298 1.31095 1249340001
0.28213799 -0.094033301 1.30989 1269077902
0.28060299 -0.092403702 1.31058 1268354179
0.28368399 -0.092286304 1.30968 1268617351
0.27906799 -0.090774097 1.31127 1267827836
0.28214899 -0.090656698 1.31037 1267367284
0.28523001 -0.090539403 1.3094701 1267235698
0.28061399 -0.089027099 1.31106 1249866346
0.282161 -0.087280199 1.31085 1266775148
0.52418703 0.29283801 0.80048901 1267433080
0.52344298 0.293695 0.80010003 1267696250
0.52505201 0.29366899 0.80044502 1267827836
0.52269799 0.294552 0.79971099 1268354180
0.52430803 0.29452601 0.80005598 1268419973
0.52591699 0.29449999 0.80040097 1268551559
0.52356303 0.29538301 0.799667 1268683145
0.52442801 0.29621401 0.79962301 1268551559
-0.52205199 -0.29597601 1.26279 1268944515
-0.52326798 -0.294617 1.26329 1268812415
-0.52075303 -0.294608 1.26265 1268812929
-0.52448398 -0.29325801 1.26379 1267891570
-0.52196902 -0.29324901 1.26315 1267694191
-0.519454 -0.29324001 1.26252 1267497069
-0.52318501 -0.29188901 1.26366 1249535322
-0.52188599 -0.290521 1.26352 1249733471
-0.309679 -0.29491201 1.2630399 1249535833
-0.31096101 -0.29348001 1.26357 1267234151
-0.30831 -0.29347 1.2629 1267299944
-0.312242 -0.29204699 1.2641 1268550011
-0.30959201 -0.29203701 1.26343 1268484218
-0.306941 -0.29202801 1.26276 1268286839
-0.310873 -0.290604 1.26396 1269931664
-0.309504 -0.28916201 1.2638201 1270392472
-0.27432501 -0.29469001 1.27082 1266905186
-0.27562699 -0.293235 1.27136 1268089460
-0.27293399 -0.29322499 1.27068 1268286839
-0.27692899 -0.29177901 1.2719001 1269076355
-0.27423599 -0.29177001 1.27122 1269471113
-0.271543 -0.29176 1.27053 1269207941
-0.275538 -0.29031399 1.27175 1270392215
-0.274147 -0.288849 1.27161 1270589851
0.28771499 0.44042301 1.05747 1244669471
0.286569 0.441742 1.05687 1226576652
0.28904599 0.44170201 1.0574 1267170674
0.28542301 0.44306099 1.05627 1243814160
0.2879 0.443021 1.0568 1247300928
0.29037601 0.442981 1.05733 1269472652
0.28675401 0.44433999 1.0562 1244011537
0.28808501 0.44561899 1.0561301 1267104877
0.23919199 -0.095417403 1.30032 1268354179
0.23768499 -0.093816698 1.301 1269801879
0.240711 -0.093701497 1.30011 1268880777
0.236177 -0.092216097 1.30168 1269012363
0.23920301 -0.092100799 1.30079 1268354433
0.24223 -0.091985501 1.2999001 1267893882
0.23769601 -0.090500101 1.30147 1266906987
0.239214 -0.088784203 1.30126 1249866599
0.20657299 -0.090987504 1.31552 1269012110
0.20505901 -0.089380503 1.31621 1268814731
0.20809799 -0.089264803 1.31531 1269012110
0.203546 -0.087773599 1.31689 1267235699
0.20658401 -0.087657899 1.31599 1266775148
0.209622 -0.087542199 1.3151 1267367285
0.20507 -0.086050898 1.3166699 1249734760
0.206595 -0.084328197 1.31646 1267104113
0.14081199 0.29752201 0.70450699 1249728825
0.140084 0.298361 0.70412701 1249267760
0.14165799 0.29833499 0.70446402 1267098177
0.139356 0.29919899 0.70374697 1249267756
0.14093 0.299173 0.70408398 1266833976
0.14250299 0.29914799 0.704422 1267623236
0.140202 0.30001199 0.703704 1249333036
0.141047 0.30082399 0.70366102 1266833975
-0.035324901 -0.29047099 1.26404 1271512495
-0.0366918 -0.28894299 1.2646 1270986664
-0.033864599 -0.28893301 1.26388 1271249579
-0.038058601 -0.287415 1.26516 1269473682
-0.035231501 -0.28740501 1.26445 1269605525
-0.0324044 -0.287395 1.26373 1269737110
-0.036598399 -0.28587601 1.26501 1268288125
-0.0351381 -0.284338 1.26486 1269011334
0.196357 0.31952399 0.76218402 1248612406
0.19556899 0.32043201 0.76177299 1268218203
0.197272 0.32040399 0.76213801 1245719058
0.19478001 0.32133901 0.761361 1269072482
0.196484 0.32131201 0.76172602 1248612663
0.19818801 0.321284 0.76209199 1245785884
0.195696 0.32221901 0.76131397 1268415325
0.196611 0.32309899 0.76126802 1248349491
0.215909 0.528862 1.22232 1246708279
0.214527 0.53045303 1.2216001 1246445109
0.21751399 0.53040397 1.22224 1249142361
0.213145 0.53204399 1.22088 1246576695
0.216132 0.531995 1.2215199 1246576694
0.219119 0.53194702 1.22216 1268814466
0.21475001 0.53358603 1.2208 1245589801
0.216355 0.53512901 1.22071 1247300931
0.27870801 0.454548 1.07314 1268486275
0.27753699 0.45589599 1.07253 1269933465
0.280067 0.45585501 1.07307 1244537883
0.27636701 0.45724401 1.07192 1270195865
0.27889699 0.457203 1.0724601 1248221775
0.281427 0.45716199 1.073 1226576650
0.27772599 0.45855001 1.0718499 1268222590
0.27908599 0.45985699 1.07178 1244273940
0.48641601 0.289249 0.76679999 1249470812
0.48570299 0.29007101 0.76642698 1248220745
0.48724499 0.29004601 0.76675802 1249273433
0.48498899 0.290892 0.76605499 1246049576
0.48653099 0.290867 0.76638502 1247628608
0.488074 0.290842 0.766716 1249207125
0.485818 0.29168901 0.76601201 1246181162
0.486646 0.292485 0.76596999 1246312748
-0.64950502 -0.36988601 1.28764 1267761267
-0.65071899 -0.368597 1.28819 1267958646
-0.64828199 -0.36850399 1.28747 1267761267
-0.65193301 -0.36730799 1.28873 1268682369
-0.64949602 -0.36721501 1.28802 1268616576
-0.64705902 -0.36712301 1.2873 1268550783
-0.65070999 -0.365926 1.28856 1268945541
-0.64948702 -0.36454499 1.28839 1268419197
0.139902 0.304447 0.709167 1266768182
0.139166 0.30529401 0.70878297 1249333036
0.140756 0.30526799 0.70912403 1267426112
0.13843 0.306142 0.70839798 1249333036
0.14002 0.30611601 0.70873898 1266768182
0.14161099 0.30609 0.70907998 1267689284
0.139284 0.306963 0.70835501 1249333036
0.140139 0.30778399 0.70831102 1266768182
0.25489101 0.46844101 1.09065 1269537418
0.25369 0.46982399 1.09003 1270458520
0.256286 0.46978101 1.09058 1249536345
0.252489 0.47120601 1.0894001 1270326934
0.25508499 0.47116399 1.08995 1269800590
0.25768101 0.471122 1.09051 1247430969
0.25388399 0.47254699 1.08933 1270458520
0.255279 0.473887 1.08926 1270129555
0.33035299 -0.350833 1.26429 1268748679
0.328812 -0.34919599 1.26499 1268880523
0.33190599 -0.349078 1.26408 1267630197
0.32727101 -0.34755999 1.26568 1268947086
0.330365 -0.347442 1.26477 1268551557
0.33345899 -0.34732401 1.26386 1248878164
0.328823 -0.34580499 1.26547 1268946316
0.330376 -0.344051 1.26525 1268551300
0.41034499 0.73838001 1.70477 1249667153
0.40838599 0.74063498 1.70375 1249864277
0.41262001 0.74056602 1.7046601 1266839126
0.406427 0.74289 1.70272 1266970458
0.41066101 0.74282098 1.70363 1267233885
0.414895 0.74275303 1.70454 1267233884
0.40870199 0.745076 1.70261 1267233631
0.41097701 0.74726301 1.70249 1267694181
-0.450479 -0.360946 1.24937 1268616063
-0.451718 -0.35963199 1.24993 1268089719
-0.449231 -0.35953701 1.2492 1268221305
-0.45295599 -0.35831699 1.2504801 1269076614
-0.45047 -0.35822201 1.24975 1268418684
-0.44798401 -0.358127 1.24902 1268747649
-0.451709 -0.35690701 1.2503099 1269997716
-0.450461 -0.355497 1.25014 1269142407
-0.48840401 -0.35963199 1.23921 1267629681
-0.48961601 -0.358345 1.23975 1268221818
-0.487183 -0.35825199 1.23904 1267563888
-0.49082699 -0.35705799 1.2403001 1269998229
-0.48839501 -0.35696599 1.23958 1269077127
-0.485962 -0.35687301 1.23887 1268287611
-0.48960701 -0.35567901 1.2401299 1269735057
-0.48838601 -0.35429999 1.23996 1269273993
0.203289 0.43665999 0.99439597 1245327399
0.202197 0.43791699 0.99382597 1246380087
0.204557 0.437879 0.99433202 1244077332
0.201104 0.43917501 0.99325502 1247038017
0.203465 0.439136 0.99376202 1245458985
0.205826 0.439098 0.994268 1243945746
0.202373 0.44039401 0.993191 1246248501
0.203641 0.44161299 0.99312699 1244866849
-0.47554401 -0.35732001 1.24935 1268155512
-0.47677299 -0.356015 1.24991 1268747649
-0.474307 -0.355921 1.24918 1268352891
-0.47800201 -0.354711 1.25046 1269142920
-0.47553501 -0.354617 1.24973 1268484990
-0.47306901 -0.354523 1.24901 1268287611
-0.47676399 -0.35331199 1.25029 1269406092
-0.47552601 -0.35191399 1.25012 1269208713
0.41213599 -0.339421 1.2725199 1269538972
0.41055599 -0.337744 1.27323 1268749456
0.41372699 -0.337623 1.2723 1269144214
0.408977 -0.33606699 1.27394 1269802144
0.41214699 -0.33594599 1.27301 1268946835
0.41531801 -0.335825 1.2720701 1268946835
0.410568 -0.33426899 1.27372 1269867937
0.412159 -0.33247101 1.2735 1269210007
0.27327499 0.49253801 1.10673 1268682368
0.272053 0.493945 1.1060899 1270327705
0.27469599 0.493902 1.10666 1245458468
0.27083001 0.49535301 1.10545 1270195606
0.27347299 0.49531001 1.10602 1248024394
0.27611601 0.495267 1.10659 1226444806
0.27225 0.49671799 1.1053801 1266906728
0.27366999 0.49808201 1.10531 1243879951
0.51216298 0.48585999 1.15218 1248944465
0.510948 0.487259 1.1515501 1249273173
0.51357502 0.48721701 1.15211 1247628608
0.50973302 0.48865801 1.15091 1249338966
0.51235998 0.48861501 1.15148 1248878672
0.51498598 0.48857301 1.15204 1246905399
0.51114398 0.49001399 1.15084 1249010001
0.51255602 0.49137101 1.1507699 1248418121
-0.44938001 -0.286102 1.25046 1269997716
-0.45060199 -0.28473601 1.25096 1270063509
-0.448075 -0.28472701 1.25032 1269931923
-0.451823 -0.28336999 1.25147 1269208200
-0.449296 -0.28336099 1.2508301 1269142407
-0.44677001 -0.28335199 1.25019 1269077127
-0.45051801 -0.28199601 1.25133 1268550270
-0.449213 -0.28062099 1.2512 1268550270
1.00682 -0.33338201 1.56734 1249077861
1.00466 -0.33109099 1.56831 1249341033
1.00899 -0.330926 1.56704 1248025173
1.0025001 -0.32879999 1.56928 1249867377
1.00684 -0.32863501 1.56801 1248880482
1.01117 -0.32846999 1.56674 1248946275
1.00468 -0.326343 1.56898 1249341033
1.00685 -0.32388699 1.56868 1248748896
-0.206484 0.36852899 0.72075301 1249400632
-0.20733801 0.36951199 0.72030801 1249203253
-0.205492 0.36948201 0.72070301 1248874288
-0.20819101 0.37049499 0.71986198 1249072183
-0.20634601 0.37046501 0.72025698 1247953701
-0.204501 0.370435 0.720653 1247361565
-0.20720001 0.37144801 0.71981102 1248940597
-0.20620801 0.372401 0.71976101 1248348460
-0.36787501 -0.339957 1.14691 1268945026
-0.36901399 -0.33874699 1.14742 1268616061
-0.36672699 -0.33866 1.14675 1269208198
-0.37015399 -0.337538 1.14794 1268352889
-0.36786601 -0.33745101 1.14727 1269208198
-0.36557901 -0.337363 1.14659 1269931921
-0.36900601 -0.33624101 1.1477799 1269273991
-0.36785799 -0.33494401 1.14762 1268484475
0.100377 -0.336077 1.27443 1268354172
0.098910503 -0.334519 1.27509 1268091000
0.101855 -0.334407 1.27423 1269275274
0.097443603 -0.33296201 1.27575 1268288125
0.100388 -0.33285001 1.2748899 1269209481
0.103333 -0.33273801 1.27402 1269735571
0.098921202 -0.331292 1.27555 1268288379
0.100399 -0.32962301 1.27534 1268748930
0.277549 0.52050602 1.13861 1244208148
0.276281 0.52196503 1.1379499 1243814160
0.27902001 0.52192003 1.13854 1249011290
0.27501401 0.52342403 1.13729 1244076561
0.277753 0.52337903 1.13788 1248813656
0.28049201 0.52333498 1.13846 1269538192
0.27648601 0.52483797 1.13721 1248155981
0.27795801 0.52625299 1.13714 1269735571
0.109346 -0.33336401 1.25726 1269275024
0.107898 -0.331826 1.25791 1269472403
0.110806 -0.33171499 1.25705 1268682887
0.106449 -0.33028799 1.2585599 1269867161
0.109357 -0.33017701 1.2577 1270393505
0.112265 -0.330066 1.25685 1269669782
0.107908 -0.328639 1.25836 1270327712
0.109367 -0.32699001 1.25815 1269472403
0.33351001 -0.32867399 1.26648 1266773863
0.33196801 -0.32703701 1.26717 1268551046
0.335062 -0.32691899 1.26626 1249272665
0.33042699 -0.32540101 1.2678699 1268616840
0.33352101 -0.32528299 1.26696 1266971242
0.336615 -0.325165 1.26605 1266707553
0.33197999 -0.32364699 1.26765 1268551046
0.33353201 -0.32189199 1.26744 1266970985
0.14351401 0.31797299 0.69355398 1266833975
0.142793 0.31880301 0.69317698 1249398829
0.144352 0.31877801 0.69351101 1267360319
0.14207201 0.31963301 0.69279999 1249201450
0.14363 0.319608 0.69313401 1266899768
0.145189 0.319583 0.69346899 1267360319
0.14290901 0.320438 0.69275802 1249398829
0.143747 0.32124299 0.69271499 1266833975
0.51334399 0.507164 1.15739 1249075794
0.51211601 0.508578 1.15675 1248549450
0.51476997 0.50853503 1.15732 1247891520
0.51088899 0.50999099 1.15611 1248615243
0.513542 0.50994802 1.15668 1248417864
0.51619601 0.50990498 1.15725 1247102004
0.51231498 0.511361 1.15604 1249799517
0.51374 0.51273102 1.15597 1249207380
0.43814901 -0.31739801 1.26364 1269077908
0.436575 -0.31572601 1.2643501 1269209237
0.439735 -0.315606 1.26342 1269472409
0.43500099 -0.314055 1.2650599 1270590890
0.43816099 -0.31393501 1.26413 1269998753
0.44132099 -0.31381401 1.2632 1269603995
0.43658599 -0.31226301 1.26484 1271051441
0.43817201 -0.31047201 1.2646199 1269538202
0.27070501 0.55387902 1.18662 1244142355
0.26936999 0.55541599 1.18593 1244339476
0.27225599 0.55536902 1.18655 1245918508
0.26803499 0.55695301 1.18523 1244339732
0.27092099 0.55690598 1.18585 1246378801
0.27380699 0.55685902 1.18647 1268419454
0.269586 0.55844301 1.18515 1247760452
0.27113599 0.55993301 1.18507 1269735054
0.488989 -0.31416699 1.2591 1268749456
0.48740199 -0.312482 1.25981 1269604765
0.490587 -0.312361 1.25887 1269933730
0.48581499 -0.31079701 1.26052 1269933730
0.48899999 -0.31067601 1.25959 1269341593
0.492185 -0.31055501 1.2586499 1268486284
0.48741299 -0.30899099 1.2603 1267170424
0.489012 -0.30718499 1.26008 1249801071
0.534154 -0.31278399 1.25369 1268946065
0.53255701 -0.31108901 1.25441 1268880272
0.53576201 -0.310967 1.2534699 1268880272
0.53096098 -0.30939499 1.25512 1267695998
0.53416502 -0.30927199 1.25418 1267103861
0.53737003 -0.30915001 1.25324 1266709103
0.53256899 -0.30757701 1.2549 1267038068
0.53417701 -0.30576 1.25468 1268156549
0.21690799 0.58533198 1.23182 1248021046
0.215497 0.58695501 1.2310899 1245718291
0.218546 0.58690602 1.23174 1267627361
0.21408699 0.588579 1.23035 1244863498
0.217135 0.58852899 1.2309999 1248218424
0.220184 0.58848 1.23166 1269074292
0.215725 0.59015298 1.23027 1245849877
0.217363 0.59172702 1.23018 1248350011
0.51647002 0.512806 1.16302 1247759934
0.51523501 0.51422799 1.16237 1249865310
0.517905 0.51418501 1.16295 1247233590
0.514 0.51564997 1.1617301 1249273173
0.51666999 0.515607 1.1623 1248483657
0.51933903 0.51556301 1.16287 1246641712
0.51543403 0.51702899 1.16166 1248549450
0.51686901 0.51840699 1.16158 1247694399
0.470074 -0.31347001 1.27275 1269406868
0.46847701 -0.311775 1.27347 1270656935
0.47168201 -0.31165299 1.27253 1270327970
0.46688101 -0.31007999 1.2741899 1269012110
0.47008601 -0.30995801 1.27325 1269406868
0.47329 -0.309836 1.27231 1269670040
0.46848899 -0.308263 1.27397 1249866346
0.47009701 -0.30644599 1.2737401 1267104113
0.82665598 1.36996 2.8559301 1249667416
0.823268 1.37386 2.8541601 1249338451
0.83059102 1.37374 2.8557301 1249272658
0.819879 1.3777601 2.8523901 1249535830
0.82720298 1.37764 2.85396 1249535830
0.83452702 1.37752 2.85553 1249272658
0.82381499 1.3815399 2.85219 1249799002
0.82775003 1.3853199 2.85199 1249470037
-0.18653999 0.37646201 0.69868398 1249137206
-0.187365 0.377413 0.69825202 1249137720
-0.185581 0.37738401 0.69863498 1248216104
-0.188191 0.37836301 0.69782102 1249006390
-0.186406 0.37833399 0.69820398 1248479276
-0.184622 0.37830499 0.69858599 1247623967
-0.187232 0.37928501 0.69777203 1248677425
-0.18627299 0.380207 0.69772398 1248084774
0.77546197 1.1658 2.4312699 1249141072
0.77261698 1.16908 2.42978 1248746314
0.77876699 1.16898 2.4310999 1248746314
0.76977199 1.17235 2.4282899 1249141072
0.77592099 1.17225 2.42961 1249470037
0.78207099 1.17215 2.4309299 1249733209
0.773076 1.17553 2.4281299 1249733209
0.77638102 1.1787 2.4279599 1249272658
0.60681403 -0.26474801 1.23892 1268222594
0.60528398 -0.263037 1.23955 1268091008
0.60844898 -0.263026 1.23875 1267893629
0.60375398 -0.26132599 1.24019 1268551559
0.60691899 -0.26131499 1.23938 1268485766
0.610084 -0.26130399 1.23858 1268419973
0.605389 -0.25960499 1.24002 1268748938
0.607023 -0.25788301 1.23985 1268683145
0.19568001 0.36505401 0.76878399 1267626330
0.19487 0.365987 0.76836097 1268744292
0.196621 0.36595801 0.768736 1247692339
0.194059 0.36691999 0.767937 1268940642
0.195811 0.366891 0.76831299 1267166295
0.19756199 0.36686301 0.76868802 1245259545
0.19499999 0.36782399 0.76788902 1268613222
0.195942 0.368729 0.76784199 1249731919
-0.187971 0.37953699 0.70008498 1248479276
-0.18880001 0.38049099 0.69965202 1248677425
-0.18700901 0.38046101 0.70003599 1247163416
-0.18962801 0.38144499 0.69921899 1248809267
-0.187837 0.38141599 0.69960302 1248084774
-0.186046 0.38138601 0.69998699 1248018725
-0.188666 0.38237 0.69916999 1248875573
-0.187703 0.38329399 0.69912201 1248940854
0.185644 0.46081799 0.94474798 1246643779
0.184598 0.46202299 0.94420099 1245261610
0.18686 0.46198601 0.944686 1248946276
0.183551 0.463227 0.943654 1244734750
0.18581299 0.463191 0.944139 1248485984
0.18807501 0.46315399 0.94462401 1248156242
0.18476699 0.464396 0.94359201 1246840898
0.185982 0.46556401 0.94353098 1248748893
0.248154 0.54415703 1.114 1269734797
0.24690101 0.5456 1.11334 1269734797
0.24961001 0.54555601 1.11392 1268089972
0.245647 0.54704303 1.11269 1269734797
0.248356 0.54699898 1.11327 1268089972
0.251066 0.54695499 1.11385 1267958386
0.24710301 0.54844201 1.11261 1268616316
0.248559 0.54984099 1.11254 1267366249
0.137412 0.34965801 0.71978903 1249266991
0.136649 0.350537 0.71939099 1248872233
0.138298 0.35051 0.71974403 1266833723
0.135886 0.35141501 0.71899199 1249135405
0.13753501 0.35138801 0.71934599 1249201198
0.139185 0.35136101 0.71969903 1267228481
0.13677201 0.352267 0.71894699 1248740647
0.137659 0.353118 0.71890199 1249201198
-0.166384 0.38108301 0.69429302 1245914637
-0.167201 0.38202301 0.69386601 1248611635
-0.165435 0.38199499 0.69424498 1245191172
-0.168018 0.38296399 0.69343901 1248874805
-0.166252 0.382936 0.69381797 1246901789
-0.16448601 0.382907 0.694197 1246375446
-0.167069 0.383876 0.69339103 1248677429
-0.16611999 0.38478899 0.69334298 1247296548
0.488015 0.92316401 1.84233 1268813952
0.48585701 0.92564702 1.8412 1268682366
0.49052 0.92557198 1.8422 1268616316
0.48370001 0.92813098 1.84008 1269208710
0.488363 0.92805499 1.84108 1269274503
0.49302599 0.92797899 1.84208 1269142660
0.486206 0.93053901 1.83995 1269932433
0.488711 0.93294603 1.83982 1268813952
0.217695 0.630642 1.23412 1248087355
0.216268 0.632285 1.23338 1245718551
0.21935201 0.63223499 1.23404 1267496804
0.21484099 0.633928 1.23263 1245257488
0.217925 0.63387698 1.23329 1248218941
0.22101 0.63382697 1.23396 1268549494
0.216498 0.63551998 1.23255 1245850136
0.218156 0.63711298 1.23247 1248087607
0.23564699 0.59974599 1.18231 1269339526
0.234294 0.60130399 1.18161 1269273733
0.23721801 0.60125601 1.18223 1268878975
0.232941 0.60286099 1.1809 1269800077
0.235865 0.60281402 1.18153 1268681596
0.23879001 0.60276699 1.18215 1268418424
0.234512 0.60437202 1.18082 1268550266
0.236083 0.60588199 1.18074 1268550523
0.33770999 -0.24091899 1.25495 1268353152
0.33624801 -0.23928399 1.25555 1267563123
0.33927301 -0.239274 1.2547801 1269076875
0.33478501 -0.23764899 1.25615 1267168617
0.33781001 -0.237639 1.25539 1268287359
0.34083501 -0.237628 1.25462 1269471633
0.336348 -0.23600399 1.25599 1267563379
0.33791 -0.234358 1.25583 1268221566
0.46495801 -0.237932 1.2758 1269143696
0.463431 -0.23622499 1.27643 1268617352
0.466589 -0.236214 1.27563 1268551559
0.461905 -0.234519 1.27706 1269341075
0.46506199 -0.23450799 1.27626 1268617352
0.46822 -0.234496 1.27546 1268485766
0.46353599 -0.23280101 1.27689 1269143696
0.46516699 -0.23108301 1.27672 1269275282
-0.215518 -0.247374 1.27034 1268943999
-0.216829 -0.24590801 1.27088 1268483448
-0.21411601 -0.24589901 1.27019 1268483448
-0.21814001 -0.244442 1.27142 1268615034
-0.21542799 -0.244432 1.27074 1268417655
-0.212715 -0.244423 1.27005 1268351862
-0.216739 -0.242966 1.2712801 1269404550
-0.21533801 -0.241491 1.27113 1269470343
-0.196426 -0.24726599 1.26635 1268549241
-0.19773801 -0.24579801 1.26689 1268417655
-0.195024 -0.24578901 1.2661999 1268615034
-0.19905099 -0.244331 1.2674299 1269667722
-0.196336 -0.244321 1.26674 1268615034
-0.19362099 -0.244312 1.26606 1268154483
-0.197648 -0.242854 1.26728 1269667722
-0.196246 -0.241377 1.26714 1269338757
0.26249701 -0.233713 1.35742 1269406867
0.260934 -0.231966 1.35807 1269538454
0.264166 -0.23195501 1.35725 1269735832
0.25937101 -0.23021901 1.3587101 1269143696
0.26260301 -0.23020799 1.35789 1268748938
0.265836 -0.230197 1.35707 1269077902
0.26104099 -0.228461 1.3585401 1268485766
0.26271001 -0.226702 1.3583601 1269604246
0.243742 0.59402001 1.1582 1268024177
0.242421 0.595541 1.15751 1267892591
0.245277 0.59549499 1.15812 1268945279
0.2411 0.59706199 1.1568201 1267826800
0.243956 0.59701598 1.1574301 1268682107
0.246812 0.59697002 1.15804 1269405830
0.242634 0.59853703 1.15674 1268813693
0.244169 0.600012 1.15666 1269603209
-0.34296501 -0.25059301 1.19292 1268549757
-0.344143 -0.249276 1.1934 1268812929
-0.34170601 -0.249267 1.19279 1268418171
-0.345321 -0.247959 1.19389 1268747136
-0.342884 -0.24795 1.19327 1269076101
-0.34044701 -0.247941 1.19266 1268352378
-0.34406301 -0.24663299 1.19376 1269010308
-0.34280401 -0.245307 1.19363 1268484221
-0.064552799 -0.24174801 1.27402 1268089717
-0.0659144 -0.240226 1.27458 1268155510
-0.0630982 -0.240216 1.27387 1267958131
-0.067275897 -0.238704 1.27514 1268945026
-0.064459801 -0.238694 1.27443 1268023924
-0.0616436 -0.238684 1.27372 1268747647
-0.065821297 -0.23717199 1.27499 1269076612
-0.064366803 -0.23564 1.27484 1269142405
0.231878 0.62793201 1.19985 1267958386
0.23049501 0.62952501 1.19912 1267432042
0.233485 0.62947601 1.19976 1267826800
0.229112 0.63111699 1.1984 1267366249
0.23210099 0.63106799 1.1990401 1268287351
0.235091 0.63102001 1.19968 1268682109
0.230718 0.63266098 1.19832 1268945281
0.232325 0.63420397 1.19824 1268944766
0.196299 0.44282201 0.86052299 1244538144
0.19535799 0.443905 0.86003202 1243814677
0.197391 0.443872 0.86046797 1246446141
0.194417 0.444989 0.85953999 1243946005
0.19645099 0.444956 0.85997599 1245854004
0.198484 0.44492301 0.86041301 1246380348
0.19551 0.44603899 0.85948497 1244669473
0.196603 0.44708899 0.85943002 1246379835
-0.34054601 -0.245774 1.20801 1268681343
-0.34174299 -0.244436 1.2085 1268550013
-0.339268 -0.244427 1.20788 1267892083
-0.34294 -0.24309801 1.209 1268681856
-0.34046501 -0.24308901 1.20837 1268616063
-0.33798999 -0.243081 1.20775 1268352891
-0.34166101 -0.241752 1.2088701 1269208200
-0.34038299 -0.24040499 1.20873 1269339786
0.518471 0.57723302 1.1655999 1247825471
0.51721299 0.57868099 1.16495 1248022593
0.51993197 0.578637 1.16553 1247430714
0.51595497 0.58012998 1.16429 1248943695
0.51867402 0.58008498 1.16487 1247891265
0.521393 0.58004099 1.16546 1246706991
0.517416 0.58153403 1.16422 1248614730
0.51887703 0.58293802 1.16414 1247496507
-0.46244901 -0.249962 1.1499799 1267892853
-0.46353799 -0.248744 1.15043 1267958646
-0.461285 -0.24873599 1.14986 1267629681
-0.464627 -0.247527 1.15088 1268748162
-0.462374 -0.247519 1.15031 1268813955
-0.46012199 -0.247511 1.14974 1268879748
-0.46346399 -0.246301 1.15075 1269340299
-0.4623 -0.245076 1.15063 1268550783
-0.148708 0.39036301 0.67390001 1247558945
-0.1495 0.39127499 0.67348599 1249335356
-0.147788 0.391247 0.67385298 1246572050
-0.15029199 0.392187 0.67307198 1248940597
-0.14858 0.39215899 0.67343998 1248216875
-0.14686801 0.392131 0.67380702 1247427359
-0.149372 0.393071 0.67302603 1248940598
-0.148452 0.39395601 0.672979 1248874805
0.070453197 -0.228423 1.27661 1269538194
0.069049098 -0.226853 1.27719 1268946057
0.071953297 -0.226843 1.27645 1269801366
0.067644998 -0.225284 1.27777 1268814471
0.070549101 -0.225273 1.27703 1269406608
0.0734533 -0.225263 1.2763 1269801366
0.069145001 -0.223704 1.2776099 1268814471
0.070645101 -0.222124 1.27745 1268814471
-0.608706 -0.23570199 1.28168 1267563888
-0.60990798 -0.234358 1.2821701 1267169130
-0.60742301 -0.234349 1.28154 1268024439
-0.61110997 -0.233014 1.28267 1266840165
-0.60862398 -0.233006 1.28204 1267300716
-0.606139 -0.232997 1.28141 1268221818
-0.60982603 -0.23166201 1.28253 1266774372
-0.60854203 -0.23030999 1.2824 1266971751
-0.049989998 -0.22849201 1.21882 1269142407
-0.0512865 -0.227042 1.21935 1268681856
-0.048604801 -0.227033 1.21867 1268550270
-0.052583098 -0.225593 1.21989 1269273993
-0.0499014 -0.225583 1.21921 1268945028
-0.047219701 -0.225574 1.2185301 1268879235
-0.051197901 -0.224134 1.21974 1269602958
-0.049812801 -0.222675 1.2196 1269010821
-0.0034568601 -0.22169501 1.26118 1268814471
-0.0048182001 -0.220174 1.26174 1268156540
-0.00200251 -0.220164 1.26103 1267432818
-0.00617954 -0.218652 1.2623 1269537678
-0.0033638801 -0.218642 1.26159 1268814471
-0.00054818398 -0.218632 1.26087 1268946057
-0.0047251899 -0.21712001 1.26215 1270261660
-0.0032708601 -0.215588 1.262 1269867157
0.47489801 0.347451 0.73852098 1246510643
0.47419599 0.348259 0.73815399 1246379057
0.47571301 0.34823501 0.73847902 1246708022
0.47349399 0.349067 0.73778701 1246313264
0.47501099 0.34904301 0.73811299 1246510643
0.47652799 0.34901801 0.73843801 1246905401
0.474309 0.34985101 0.737746 1246576436
0.475124 0.35063401 0.73770499 1246642229
0.51374799 -0.20740999 1.28519 1268090756
0.5122 -0.20568 1.28583 1269340822
0.51540202 -0.205669 1.28502 1268222342
0.51065201 -0.20395 1.2864701 1268946318
0.51385403 -0.20393801 1.28565 1269801373
0.51705498 -0.203927 1.28484 1268748686
0.51230597 -0.202208 1.28629 1269077903
0.51396 -0.20046601 1.2861201 1268880271
0.74117798 2.61057 4.5908799 1269076867
0.73537099 2.61725 4.5878401 1269603211
0.74792302 2.6170499 4.5905399 1269405832
0.72956401 2.62394 4.5848098 1268221558
0.74211502 2.6237299 4.5875001 1268879488
0.75466698 2.6235299 4.5901899 1269076867
0.73630899 2.63042 4.5844698 1267300714
0.74305302 2.6368999 4.5841298 1267892851
-0.25095901 -0.224534 1.23523 1268352119
-0.252213 -0.223132 1.23575 1268747390
-0.24962001 -0.223123 1.2351 1268089460
-0.25346699 -0.22173101 1.23627 1268747390
-0.25087401 -0.22172099 1.23561 1267892081
-0.24828 -0.22171199 1.23496 1268023667
-0.25212699 -0.22032 1.23613 1269471113
-0.250788 -0.218909 1.23599 1269536906
-0.35935 -0.22816101 1.20058 1268483964
-0.36052901 -0.226844 1.20107 1268681343
-0.358091 -0.226835 1.2004499 1268220792
-0.36170799 -0.22552601 1.20155 1269668238
-0.35927001 -0.225517 1.20094 1268483964
-0.356832 -0.225509 1.20032 1268352378
-0.360448 -0.2242 1.2014199 1269010308
-0.359189 -0.222873 1.20129 1269339273
-0.189898 0.49071199 0.81184602 1249268533
-0.190892 0.491855 0.81132698 1248807982
-0.18874399 0.49182001 0.81178701 1248742189
-0.19188499 0.49299899 0.810808 1249465912
-0.18973801 0.492964 0.81126797 1249005361
-0.187591 0.49292901 0.81172901 1248873775
-0.190731 0.49410799 0.81074899 1249663291
-0.189577 0.495217 0.810691 1249663291
0.33259001 -0.20734499 1.2499599 1267827578
0.331141 -0.205725 1.25055 1267234927
0.33413801 -0.205714 1.24979 1268551301
0.32969201 -0.204105 1.25115 1266773601
0.33268899 -0.20409399 1.2503901 1268024957
0.335686 -0.20408399 1.24963 1268946059
0.33124 -0.202475 1.25099 1267169134
0.33278799 -0.200844 1.2508301 1267827578
-0.213507 0.551377 0.90219402 1249861183
-0.21462899 0.55266899 0.90160698 1249795390
-0.212203 0.55263001 0.90212798 1249663804
-0.21575201 0.55396199 0.901021 1249466425
-0.21332499 0.55392301 0.90154099 1249466425
-0.210899 0.55388302 0.902062 1249663804
-0.214448 0.555215 0.90095502 1249137460
-0.213144 0.55646801 0.90088898 1248940081
-0.61650902 -0.222324 1.31911 1267826036
-0.617751 -0.220934 1.31962 1267431278
-0.61518103 -0.220925 1.31897 1268286587
-0.618994 -0.21954501 1.32013 1267234155
-0.61642402 -0.21953601 1.3194799 1268155001
-0.61385399 -0.21952701 1.31883 1268943747
-0.61766601 -0.21814699 1.31999 1267628657
-0.61633903 -0.216749 1.31986 1267957622
0.26788801 -0.203426 1.27821 1268683145
0.266426 -0.20179 1.27881 1268946317
0.26945099 -0.20178001 1.2780401 1267762043
0.264963 -0.200155 1.27941 1269143696
0.267988 -0.20014399 1.27865 1269472661
0.271014 -0.20013399 1.27788 1268485766
0.26652601 -0.19850899 1.27925 1269406868
0.26808801 -0.196863 1.27909 1268946317
-0.34190899 -0.224379 1.17734 1268615550
-0.34306401 -0.223087 1.17781 1268878722
-0.340675 -0.223079 1.17721 1269010308
-0.344219 -0.22179601 1.17829 1268549757
-0.34182999 -0.22178701 1.17769 1268286585
-0.33943999 -0.221779 1.17708 1269207687
-0.342985 -0.220496 1.17816 1268286585
-0.34175101 -0.21919601 1.17803 1269141894
0.219135 0.71554899 1.2588201 1248942153
0.21765301 0.717255 1.25805 1246442532
0.220856 0.71720302 1.2587301 1267628392
0.216171 0.718961 1.25727 1245324051
0.219374 0.71890903 1.25796 1249008972
0.22257701 0.71885699 1.2586499 1268483701
0.21789201 0.72061503 1.25719 1246837290
0.219613 0.722269 1.2571 1249074509
-0.090806998 0.45165801 0.75317901 1249202738
-0.091696203 0.45268101 0.75271398 1249202738
-0.089774303 0.45265001 0.75312698 1248807980
-0.092585303 0.45370501 0.75225002 1249729082
-0.0906635 0.45367399 0.752662 1249465910
-0.088741601 0.45364299 0.75307399 1249136945
-0.0915526 0.454698 0.75219798 1266769470
-0.090519898 0.45569 0.75214499 1266769470
-0.17510501 -0.203876 1.27417 1269075585
-0.17642599 -0.202399 1.2747101 1269009792
-0.173694 -0.202389 1.27402 1268417655
-0.177747 -0.200922 1.27526 1268943999
-0.175015 -0.200913 1.27457 1268943999
-0.172282 -0.200903 1.27387 1268286069
-0.17633601 -0.19943599 1.27511 1269272964
-0.174925 -0.19794901 1.27496 1268943999
0.094158299 -0.19504599 1.27782 1268946057
0.092751101 -0.193473 1.2783999 1268222334
0.095661603 -0.193463 1.27767 1268485506
0.091343999 -0.1919 1.27898 1269669780
0.094254397 -0.191889 1.27825 1268419713
0.097164802 -0.191879 1.27751 1267959162
0.092847303 -0.19031601 1.2788301 1270590882
0.094350502 -0.188733 1.27867 1270064538
-0.026282299 -0.197226 1.27178 1269537678
-0.0276452 -0.195702 1.2723401 1268879748
-0.024826201 -0.195693 1.27163 1269274506
-0.0290082 -0.194179 1.2729 1268353404
-0.0261891 -0.194169 1.27219 1269208713
-0.0233701 -0.194159 1.27147 1269800850
-0.0275521 -0.192645 1.27275 1268682369
-0.026095999 -0.191111 1.2726001 1268879748
0.070929199 -0.196169 1.25504 1269932952
0.069556803 -0.194635 1.2556 1270722468
0.072395399 -0.19462501 1.25488 1270196124
0.068184398 -0.193101 1.25617 1269472401
0.071023002 -0.19309101 1.25545 1269801366
0.073861599 -0.19308101 1.25473 1269340815
0.069650598 -0.19155601 1.2560199 1269077643
0.071116701 -0.19001199 1.25586 1269143436
0.093878098 -0.193912 1.27323 1268485506
0.0924768 -0.19234601 1.27381 1268419713
0.095375098 -0.19233499 1.27307 1267959162
0.091075502 -0.190779 1.27438 1270590882
0.093973801 -0.190769 1.2736501 1269669780
0.096872099 -0.190759 1.27292 1269011850
0.092572503 -0.189202 1.27423 1270064538
0.094069503 -0.187626 1.27407 1269932952
-0.049693901 -0.195132 1.26871 1268419197
-0.0510455 -0.19362099 1.26926 1268616576
-0.0482499 -0.193611 1.2685601 1268221818
-0.052397098 -0.19211 1.26982 1268682369
-0.049601499 -0.1921 1.26911 1268287611
-0.0468059 -0.19209 1.26841 1268353404
-0.050953101 -0.190589 1.26967 1269406092
-0.049509201 -0.189068 1.26952 1269011334
-0.64422703 -0.20890599 1.28009 1267431789
-0.64541101 -0.207582 1.28058 1268089719
-0.64296198 -0.207573 1.27996 1267168617
-0.646595 -0.206258 1.28107 1268813442
-0.64414603 -0.206249 1.28045 1268484477
-0.64169598 -0.20624 1.27983 1268089719
-0.64533001 -0.204925 1.2809401 1268813442
-0.64406502 -0.203593 1.28081 1268221305
-0.113729 0.49636099 0.813829 1249136947
-0.114708 0.49748901 0.813317 1249202740
-0.112592 0.49745399 0.81377101 1249465912
-0.115687 0.49861601 0.81280601 1266769472
-0.113571 0.49858099 0.81325901 1249794877
-0.111455 0.49854699 0.81371301 1249729084
-0.114549 0.499708 0.81274801 1249860670
-0.113412 0.50080103 0.81269002 1266703679
-0.200955 -0.200077 1.21559 1268286068
-0.202196 -0.198689 1.2161 1268680826
-0.19962899 -0.19868 1.21545 1267891310
-0.203437 -0.197302 1.21661 1268812412
-0.20087001 -0.197293 1.21596 1268351861
-0.198303 -0.197284 1.21531 1268286068
-0.20211101 -0.195905 1.21648 1269272963
-0.20078599 -0.194509 1.2163399 1269207170
1.95288 4.2729101 7.3807998 1248812361
1.94362 4.2835798 7.3759599 1248549189
1.96364 4.2832499 7.38025 1248680775
1.93436 4.29424 7.37112 1247891259
1.95438 4.29392 7.3754101 1247957052
1.9744 4.2935901 7.3797002 1248219711
1.94512 4.3045802 7.3705702 1247496501
1.95588 4.3149199 7.3700299 1247364915
0.031524301 0.285099 0.72826302 1247823403
0.0307461 0.28599501 0.72785699 1247428905
0.032428298 0.28596801 0.72821701 1247363626
0.0299678 0.28689101 0.72745001 1266771535
0.031649999 0.28686401 0.72781098 1248942915
0.033332199 0.28683701 0.728172 1248022070
0.0308717 0.28775999 0.727404 1268218206
0.031775702 0.28862801 0.72735798 1248677941
0.052555799 0.29096299 0.74838001 1266967108
0.0517575 0.29188201 0.74796301 1249795906
0.053482901 0.29185399 0.74833298 1266704708
0.0509592 0.29280099 0.74754602 1248875320
0.052684601 0.29277301 0.74791598 1249072698
0.0544101 0.29274499 0.74828601 1249204284
0.051886398 0.29369199 0.74749899 1248217906
0.0528135 0.29458401 0.74745202 1247955250
0.41709399 -0.16768301 1.35149 1268814733
0.41550201 -0.165903 1.3521399 1268617869
0.41879499 -0.165892 1.35131 1268419973
0.41391 -0.164124 1.3528 1269538972
0.41720301 -0.164112 1.35197 1269735834
0.420495 -0.16410001 1.35113 1269077903
0.415611 -0.162332 1.35262 1269802142
0.417312 -0.160541 1.35244 1269670040
-0.33785501 -0.201134 1.2039599 1268089460
-0.33904001 -0.199809 1.20445 1268286840
-0.33658901 -0.199801 1.20383 1267958131
-0.340224 -0.198485 1.20494 1269339786
-0.33777401 -0.198476 1.20432 1269208200
-0.33532301 -0.198467 1.2036999 1268352891
-0.33895901 -0.197152 1.20481 1268945028
-0.33769301 -0.19581801 1.20467 1268813442
0.53929901 0.47756001 1.87017 1272762562
0.53726202 0.47990501 1.8691 1271644081
0.541664 0.47983399 1.87005 1271644081
0.53522497 0.48225099 1.86804 1269736084
0.53962702 0.48217899 1.8689801 1270130842
0.54403001 0.482108 1.86993 1270591393
0.53759098 0.48452401 1.86792 1269670804
0.53995597 0.48679799 1.8678 1269736083
0.026301701 0.23029099 0.80802101 1245522717
0.025447 0.23127501 0.80757397 1246903593
0.0272943 0.231245 0.80796999 1246312488
0.0245924 0.23225901 0.80712801 1249337416
0.0264397 0.23222899 0.80752403 1248811333
0.0282869 0.232199 0.80791998 1248350785
0.025584999 0.23321301 0.80707699 1268152927
0.0265777 0.23416699 0.80702698 1268876136
0.26068401 0.28112501 1.05492 1246380086
0.25958499 0.28239 1.05434 1270460067
0.26196101 0.282352 1.05485 1226050049
0.25848499 0.283656 1.0537699 1272170423
0.26086199 0.283618 1.05428 1268025983
0.26323801 0.28357899 1.05479 1243879953
0.25976199 0.28488299 1.0537 1272038841
0.26103899 0.28611001 1.05364 1270920875
0.091764897 0.229332 0.81483001 1225786884
0.090918601 0.230306 0.81438798 1225918467
0.0927478 0.230276 0.81478101 1225918210
0.090072297 0.23128 0.81394601 1243944719
0.091901504 0.231251 0.81433803 1244471064
0.0937308 0.23122101 0.814731 1244668444
0.0910552 0.232225 0.813896 1246115115
0.092038199 0.23317 0.81384599 1246311976
-0.20754801 0.22862899 0.719567 1268811114
-0.20835701 0.22956 0.71914399 1267822932
-0.206609 0.229532 0.71951902 1269732216
-0.20916601 0.230491 0.71872199 1266901056
-0.20741799 0.230463 0.71909702 1268021341
-0.20567 0.230434 0.71947098 1269798009
-0.208226 0.23139399 0.718674 1267098952
-0.207287 0.232296 0.71862698 1249137977
0.069800802 0.23092499 0.80343401 1246377255
0.068961903 0.23189101 0.80299503 1248218942
0.070775203 0.231861 0.80338401 1247889721
0.068122901 0.23285601 0.80255699 1267824226
0.069936298 0.23282699 0.80294597 1267363675
0.071749702 0.232798 0.80333501 1267034710
0.069097303 0.23379301 0.802508 1269139312
0.070071802 0.23472901 0.80245799 1269335917
0.57764798 0.31658199 1.2493401 1246587035
0.57638901 0.31803101 1.24868 1246125458
0.57910901 0.31798699 1.2492599 1246586780
0.575131 0.31948 1.2480201 1245663368
0.577851 0.31943601 1.2486 1245862797
0.580571 0.319392 1.24919 1246586525
0.57659203 0.320885 1.24795 1245334913
0.57805401 0.32229 1.24787 1245269887
0.086157203 0.232674 0.81047702 1246640689
0.085313499 0.23364601 0.810036 1247165490
0.087137103 0.23361599 0.81042701 1247165998
0.084469803 0.23461699 0.809596 1249533264
0.086293399 0.234587 0.80998701 1249270092
0.088117003 0.234558 0.81037802 1248941632
0.085449703 0.235559 0.80954599 1268086117
0.086429603 0.23649999 0.80949599 1269072493
0.115976 0.228854 0.80496001 1249271366
0.115147 0.229808 0.80452698 1249731403
0.116938 0.22977901 0.80491102 1268547941
0.114318 0.230762 0.80409402 1249467716
0.116109 0.23073301 0.80447799 1268349792
0.117901 0.23070399 0.80486298 1269928822
0.115281 0.23168699 0.80404502 1268151898
0.116243 0.232612 0.80399698 1269730671
0.25066799 -0.16590799 1.27196 1267696250
0.24922501 -0.164294 1.27255 1267893629
0.25220999 -0.16428401 1.2718 1267893629
0.24778201 -0.162681 1.27315 1269143696
0.25076699 -0.16267 1.27239 1269077903
0.25375199 -0.16266 1.27163 1268025215
0.249323 -0.161057 1.27299 1269604247
0.25086501 -0.15943301 1.27283 1269143696
0.095097303 0.231608 0.80546403 1246771238
0.094261996 0.23257001 0.80502802 1248152116
0.0960676 0.23254 0.80541497 1248086323
0.0934266 0.233532 0.804591 1267165264
0.095232204 0.233502 0.80497801 1266836299
0.097037897 0.233473 0.80536598 1249861960
0.094396897 0.234464 0.80454201 1268612193
0.095367096 0.235396 0.80449301 1269401451
0.196266 0.205158 0.73595297 1270520700
0.195544 0.205989 0.73557597 1269467498
0.19710501 0.205964 0.73591101 1272691869
0.194822 0.20682 0.73519897 1268414810
0.196383 0.20679501 0.735533 1270520700
0.197944 0.20677 0.73586798 1272494490
0.19566099 0.207626 0.735156 1267559501
0.1965 0.208432 0.73511398 1267494222
0.347985 0.37233701 1.3674999 1270062731
0.34651601 0.374028 1.36674 1268615286
0.349691 0.37397599 1.36742 1270655125
0.34504801 0.37571901 1.36597 1268549495
0.34822199 0.37566701 1.36665 1269996938
0.35139599 0.37561601 1.36733 1270984348
0.346753 0.37735799 1.36588 1268944250
0.34845901 0.378997 1.3658 1270391696
-0.200306 0.235442 0.73157001 1269402222
-0.201129 0.236389 0.73114002 1268415070
-0.199351 0.23636 0.73152202 1268546656
-0.201952 0.23733699 0.73071098 1267164489
-0.20017301 0.237308 0.73109198 1267296075
-0.198395 0.237279 0.73147303 1267361868
-0.200996 0.23825499 0.73066199 1249663550
-0.200041 0.23917399 0.73061401 1249531963
0.74204302 0.70915198 2.6134801 1269800850
0.73912197 0.71251398 2.6119599 1270129815
0.74543601 0.712412 2.6133101 1269669264
0.736202 0.715877 2.61043 1268879748
0.74251503 0.715774 2.6117899 1269274506
0.74882799 0.71567202 2.6131401 1269669520
0.73959398 0.71913701 2.61026 1268748930
0.74298602 0.72239703 2.61009 1269406860
-0.148928 0.23320501 0.72390401 1269731962
-0.149729 0.234127 0.72348499 1269401965
-0.14799801 0.234099 0.72385699 1269599860
-0.15053 0.23504899 0.72306699 1268282453
-0.148799 0.235021 0.72343802 1268611935
-0.14706799 0.234993 0.723809 1268743778
-0.1496 0.235943 0.72302002 1267032643
-0.148669 0.236837 0.72297299 1249860929
0.266725 0.300459 1.06748 1244011539
0.26560599 0.30174699 1.0669 1269867930
0.268024 0.30170801 1.06741 1226510346
0.26448801 0.30303499 1.06631 1270920099
0.26690501 0.30299601 1.06683 1248879448
0.26932299 0.30295601 1.06735 1244077331
0.26578701 0.30428299 1.06625 1271775411
0.267086 0.30553201 1.06618 1269670293
0.343723 0.38651201 1.3841701 1270721437
0.34222999 0.38823199 1.3833899 1270590107
0.345458 0.388179 1.3840899 1269076353
0.340736 0.38995099 1.38261 1271511980
0.34396401 0.38989899 1.38331 1270590105
0.34719199 0.389846 1.3839999 1268155504
0.342471 0.39161801 1.38253 1271445672
0.34420499 0.39328501 1.38244 1270524311
0.47431001 0.290903 1.08614 1267827059
0.47322401 0.29215401 1.08558 1269011589
0.475573 0.29211599 1.08608 1267432302
0.472137 0.293405 1.0850101 1269143688
0.47448599 0.293367 1.08551 1268814211
0.47683501 0.293329 1.08602 1267169130
0.47339901 0.29461801 1.08494 1268617344
0.47466099 0.29583099 1.08488 1268945797
0.564951 0.31265801 1.18502 1244545400
0.563766 0.31402299 1.1844 1244478055
0.566329 0.31398201 1.18495 1244741750
0.56257999 0.31538901 1.18378 1243885139
0.56514299 0.31534699 1.18433 1244346212
0.56770599 0.31530499 1.18488 1244807800
0.56395698 0.31671199 1.18371 1243688016
0.56533402 0.31803599 1.18364 1226779725
-0.131285 0.232545 0.71973801 1270059383
-0.13207699 0.233457 0.71932501 1269467245
-0.130366 0.233429 0.71969199 1269664624
-0.13286801 0.234368 0.71891099 1268151385
-0.131157 0.23434 0.71927798 1268414557
-0.129447 0.234312 0.71964502 1268677729
-0.13194899 0.23525099 0.71886498 1267032904
-0.13102899 0.23613501 0.71881801 1249729343
0.483466 0.40156999 1.46064 1269406860
0.481913 0.40335801 1.45983 1268814723
0.48526901 0.403303 1.46055 1269143688
0.48036101 0.40514499 1.45902 1269670032
0.48371699 0.40509099 1.45974 1269143688
0.487073 0.405036 1.4604599 1268946309
0.482164 0.40687901 1.45892 1269538446
0.48396701 0.40861201 1.45883 1269670032
-0.123939 0.233107 0.72033399 1269664624
-0.124729 0.234017 0.71992099 1269204073
-0.12302 0.233989 0.72028702 1269335659
-0.12552001 0.234927 0.71950799 1267954006
-0.123811 0.2349 0.71987402 1268217178
-0.122102 0.234872 0.72024101 1268546143
-0.124601 0.23581 0.71946102 1266967110
-0.123683 0.236692 0.71941501 1249795391
0.158517 0.20819899 0.71210802 1270585458
0.157812 0.20901 0.71174002 1270453872
0.159335 0.208986 0.71206701 1270716787
0.15710799 0.209821 0.71137202 1269663586
0.15863 0.20979699 0.711698 1270058344
0.160153 0.20977201 0.71202499 1270387309
0.15792599 0.21060801 0.71133 1268742484
0.15874401 0.211394 0.71128899 1268545105
-0.110234 0.232051 0.71719903 1269927796
-0.111018 0.232952 0.71679002 1269467245
-0.109325 0.232925 0.71715301 1269533551
-0.111801 0.233854 0.71638101 1268217177
-0.110108 0.23382699 0.71674401 1268611935
-0.108415 0.233799 0.717107 1268809314
-0.110891 0.23472799 0.716335 1267098694
-0.109981 0.235603 0.71628797 1266704192
-0.101513 0.231334 0.71713102 1269402221
-0.102294 0.232233 0.71672302 1269862772
-0.100606 0.232205 0.717085 1269928565
-0.103075 0.233132 0.71631497 1269269865
-0.101387 0.23310401 0.71667701 1269467244
-0.0996994 0.233077 0.71703899 1269598830
-0.102168 0.23400301 0.71626902 1268217177
-0.101261 0.23487499 0.716223 1267230282
-0.094555803 0.23713399 0.73853499 1268415073
-0.095361598 0.238061 0.73811501 1268415073
-0.093620002 0.238033 0.73848802 1268349280
-0.096167304 0.238989 0.73769403 1269006694
-0.094425701 0.238961 0.73806697 1268940901
-0.092684098 0.238933 0.73844099 1268809315
-0.095231399 0.239888 0.73764598 1269796210
-0.094295599 0.240788 0.73759902 1269467245
-0.120953 0.25573 0.79405499 1268480865
-0.121835 0.25674599 0.793594 1268349280
-0.119928 0.256715 0.79400301 1268546913
-0.122717 0.257761 0.79313302 1268546143
-0.12081 0.25773099 0.79354203 1268546143
-0.118903 0.2577 0.79395097 1268743522
-0.121693 0.258746 0.79308099 1269269866
-0.120668 0.25973099 0.79302901 1269796210
0.167602 0.212083 0.72472203 1270190449
0.16688401 0.21291 0.724347 1270255470
0.16843601 0.21288501 0.72468001 1270518642
0.16616599 0.213737 0.72397202 1269334368
0.16771799 0.21371201 0.72430497 1269663333
0.16926999 0.213686 0.72463799 1270058091
0.167 0.21453799 0.72393 1268544595
0.167834 0.21534 0.72388703 1268676179
0.18337101 0.205805 0.70782202 1270256499
0.182678 0.20660201 0.70745999 1270585207
0.184175 0.206578 0.70778197 1270651000
0.18198501 0.20739999 0.70709902 1270716793
0.183483 0.207375 0.70741999 1270190449
0.18498001 0.207351 0.70774102 1269598312
0.18279 0.20817301 0.70705801 1269729641
0.183594 0.208946 0.707017 1269729898
-0.0120468 0.105457 0.78625298 1244999976
-0.0128464 0.106378 0.78583598 1246380602
-0.0111182 0.10635 0.78620601 1245722672
-0.013646 0.107298 0.78541797 1271842491
-0.0119177 0.10727 0.78578901 1249603687
-0.0101895 0.107242 0.78615898 1246181940
-0.0127173 0.108191 0.78537101 1271973564
-0.0117886 0.109083 0.78532398 1271841209
0.447189 -0.107465 1.33636 1268551559
0.44561699 -0.105707 1.33701 1268222594
0.44886899 -0.105696 1.33618 1267893629
0.44404399 -0.103949 1.33766 1268880781
0.44729701 -0.103938 1.33683 1269012366
0.45054901 -0.103926 1.33601 1268354180
0.44572401 -0.10218 1.3374799 1268881294
0.447404 -0.100411 1.33731 1268486536
0.468676 0.14167801 1.3761801 1271710905
0.46729901 0.143263 1.37546 1271710905
0.47027501 0.143215 1.3760999 1272303042
0.465922 0.144848 1.37474 1271710905
0.468898 0.14480001 1.37538 1271974077
0.471874 0.144752 1.37602 1272960972
0.46752101 0.146385 1.37466 1271249842
0.46912 0.14792199 1.37458 1271644600
0.62695903 0.12305 1.21775 1270854313
0.62580901 0.124373 1.21715 1271249071
0.62829298 0.124333 1.21768 1270591141
0.62466002 0.125696 1.21655 1272104381
0.62714398 0.12565599 1.21708 1271578036
0.629628 0.125616 1.21762 1270591141
0.62599498 0.12697899 1.21648 1272170173
0.62733001 0.128262 1.21641 1271446450
0.18994901 0.13103899 1.10522 1245656364
0.188822 0.132337 1.10463 1272367553
0.191259 0.13229799 1.10516 1244011798
0.187694 0.133635 1.10404 1272828100
0.19013099 0.133596 1.10457 1268815502
0.192569 0.13355599 1.10509 1243880470
0.189004 0.134894 1.1039799 1272038588
0.190313 0.136153 1.10391 1271447222
-0.67319399 0.183245 1.3045501 1271116708
-0.674779 0.18506999 1.30373 1270853536
-0.671354 0.18501399 1.30446 1270524571
-0.67636299 0.186894 1.3029 1271314087
-0.67293799 0.186839 1.30363 1271182501
-0.66951299 0.186783 1.30437 1271248294
-0.674523 0.18866301 1.3028001 1271577259
-0.672683 0.190432 1.3027101 1271314087
0.122297 0.114946 0.897861 1245985329
0.121398 0.115981 0.89739102 1245064485
0.123341 0.115949 0.89780802 1248221777
0.120499 0.117016 0.89692098 1245327658
0.122442 0.116984 0.89733797 1246248501
0.124386 0.116953 0.89775503 1248550485
0.121543 0.11802 0.89686799 1245261864
0.122588 0.119023 0.896815 1246314294
0.127427 0.120584 0.94697797 1243616264
0.126471 0.121685 0.94647902 1243747850
0.128538 0.121651 0.946922 1244866331
0.125514 0.122786 0.945979 1247563844
0.127581 0.122752 0.94642198 1246774328
0.129649 0.122719 0.94686598 1247563844
0.126625 0.123854 0.94592297 1248682325
0.127736 0.124921 0.94586599 1248879704
-0.295872 -0.152108 1.1649899 1268287098
-0.297014 -0.150831 1.16546 1267826547
-0.29465199 -0.150823 1.16487 1267892340
-0.29815599 -0.149555 1.16593 1267958133
-0.29579401 -0.149546 1.1653399 1267760754
-0.293432 -0.149538 1.16474 1267892340
-0.29693601 -0.14827 1.16581 1268550270
-0.29571599 -0.14698499 1.1656801 1268747649
0.139909 0.138373 1.10711 1247892811
0.13876501 0.13969 1.10651 1245195813
0.141238 0.13965 1.10704 1270394016
0.13762 0.141008 1.1059099 1245393192
0.140094 0.14096799 1.1064399 1248616535
