# .PCD v0.7 - Point Cloud Data file format
VERSION 0.7
FIELDS x y z rgb
SIZE 4 4 4 4
TYPE F F F U
COUNT 1 1 1 1
WIDTH 1205
HEIGHT 1
VIEWPOINT 0 0 0 1 0 0 0
POINTS 1205
DATA ascii
1.26802 0.89299601 1.80918 1267762292
1.27053 0.89537501 1.80823 1268222843
1.28146 0.99875498 2.0596001 1267827828
1.2788 1.00188 2.0594399 1268485758
1.28434 1.00148 2.0585001 1268419965
1.27613 1.005 2.0592899 1249274201
1.28167 1.0046 2.0583501 1267893621
1.28722 1.0042 2.05741 1268814723
1.2790101 1.00773 2.0581999 1249537373
1.28188 1.01045 2.0571101 1249866338
2.80913 0.82415998 1.65879 1267147521
2.8066499 0.82705998 1.65865 1267410433
2.8118 0.826689 1.65777 1267147520
2.8041699 0.829961 1.6585 1267541761
2.80932 0.82959002 1.65763 1267607554
2.8144701 0.82921898 1.65676 1267278848
2.80685 0.83249098 1.65749 1267870213
2.80952 0.83502102 1.6564699 1267870212
1.22584 0.86268997 1.74392 1248287563
1.22361 0.86530298 1.7438 1248550735
1.22825 0.86496902 1.74301 1249077079
1.22138 0.86791599 1.74367 1249077081
1.22602 0.86758202 1.74288 1266709606
1.2306499 0.86724699 1.74209 1266841192
1.22379 0.87019497 1.74275 1266906985
1.22619 0.872473 1.74184 1267630708
1.2239799 0.87553102 1.77183 1248419149
1.22171 0.87818801 1.7717 1248879700
1.2264301 0.87784803 1.7709 1249077079
1.21944 0.880844 1.77157 1249011288
1.22416 0.88050401 1.77077 1267038571
1.22887 0.88016403 1.7699701 1266972778
1.22189 0.88316101 1.77065 1267630708
1.22434 0.88547802 1.76972 1267828087
0.90504903 0.52187598 1.17878 1247036468
0.90367001 0.52366698 1.17782 1247760191
0.90690398 0.523485 1.17874 1246312488
0.902291 0.52545899 1.17686 1248352329
0.90552503 0.52527601 1.17779 1246641711
0.908759 0.52509397 1.17871 1245786143
0.90414602 0.52706701 1.1768301 1247628606
0.90600097 0.52867597 1.17679 1246510125
0.99984002 0.46787301 1.1185 1269272963
0.99850702 0.46953601 1.11763 1269075584
1.00155 0.46941 1.11845 1269404549
0.99717402 0.47119901 1.11675 1267891310
1.0002199 0.471073 1.1175801 1269601928
1.00327 0.470947 1.1184 1270259858
0.99888903 0.472736 1.1167001 1268220275
1.0006 0.474273 1.11665 1268943998
0.90583003 0.45616499 1.02826 1268286839
0.904571 0.45773599 1.0274301 1268286838
0.90744901 0.45761701 1.02821 1268155253
0.90331203 0.45930699 1.02661 1268023666
0.90618998 0.45918801 1.02738 1267497323
0.909069 0.45906901 1.02816 1266839393
0.90493101 0.46075901 1.0265599 1249799005
0.906551 0.46221101 1.02651 1266773857
0.84701902 0.45666301 0.999053 1269535358
0.84577501 0.45821601 0.99823701 1269601151
0.84862 0.45809799 0.99900597 1269337979
0.844531 0.459768 0.99742198 1268680050
0.84737599 0.45965099 0.99818999 1268351084
0.85022098 0.45953301 0.998959 1268219498
0.84613103 0.46120301 0.997374 1268022635
0.84773201 0.462639 0.99732703 1268285807
0.98321497 0.51485801 1.16152 1270194835
0.98182303 0.51658601 1.16063 1270721179
0.98499399 0.51645398 1.16146 1269931663
0.98043001 0.51831299 1.15975 1269339526
0.98360097 0.51818103 1.16057 1267760494
0.986772 0.518049 1.1613899 1248548937
0.98220801 0.51990801 1.15968 1249601625
0.98398697 0.52150398 1.15961 1248943695
0.79216802 0.51944202 1.08364 1269530980
0.790856 0.521146 1.0827301 1272823972
0.79393202 0.52097201 1.0836101 1249325345
0.78954399 0.52284998 1.08182 1272430247
0.79262 0.52267599 1.0827 1270780790
0.79569697 0.52250302 1.08357 1270577258
0.791309 0.52438003 1.08178 1272823718
0.793073 0.52591097 1.08175 1271372674
1.16684 0.215828 1.30785 1248221770
1.16535 0.217529 1.30821 1247761219
1.1684 0.217464 1.30746 1247958341
1.1638499 0.219229 1.30858 1248419149
1.1669 0.219164 1.30782 1248484942
1.16995 0.219099 1.30707 1248813650
1.16541 0.220865 1.30819 1248945495
1.16697 0.2225 1.30779 1249077593
2.6886101 0.31340799 1.68532 1243748115
2.6861801 0.316181 1.68591 1243616529
2.69115 0.316075 1.68468 1244471838
2.6837399 0.31895301 1.6865 1226247176
2.68872 0.31884801 1.68527 1243616529
2.6936901 0.31874201 1.68404 1244077080
2.68628 0.32161999 1.68586 1226247176
2.6888199 0.324287 1.68522 1226378762
3.3611 0.342141 1.75384 1269406608
3.3583701 0.34524801 1.75451 1269011850
3.36394 0.34513 1.7531199 1269143692
3.3556399 0.348355 1.75517 1267499124
3.3612101 0.34823701 1.75379 1266709608
3.3667901 0.34811801 1.7524101 1266709607
3.35848 0.35134399 1.75445 1247828045
3.36133 0.354332 1.75374 1247433029
2.66084 0.29720101 1.56343 1246445112
2.65856 0.29979101 1.56398 1246050354
2.6632099 0.299692 1.56283 1246642237
2.6562901 0.30238101 1.56453 1244010516
2.6609399 0.30228201 1.56338 1246181940
2.66558 0.302183 1.56223 1247103301
2.6586599 0.30487201 1.56394 1244734494
2.6610301 0.307363 1.5633399 1244471322
1.62 0.467446 1.28374 1270589841
1.6187201 0.4691 1.28285 1270326155
1.6217099 0.468932 1.28371 1270457998
1.61745 0.470754 1.28197 1269535613
1.62044 0.47058499 1.28282 1269667969
1.62342 0.47041699 1.2836699 1269668225
1.6191601 0.47223899 1.28193 1268154472
1.62088 0.47372401 1.2819 1268088678
2.2332499 0.33718801 1.83228 1268023918
2.2307799 0.340009 1.83289 1267629419
2.2358401 0.339901 1.83163 1267695212
2.2283001 0.34283 1.83349 1268155764
2.2333601 0.34272301 1.83223 1268089971
2.23842 0.34261501 1.8309799 1268155764
2.23088 0.34554401 1.83284 1269209223
2.23347 0.34825799 1.83219 1269341069
2.58301 0.33325899 1.7657 1244406304
2.5804999 0.336108 1.76631 1245524785
2.5856199 0.336 1.76504 1243945753
2.5780001 0.338958 1.76692 1244998441
2.5831101 0.33884999 1.76565 1245261613
2.5882299 0.338741 1.76439 1243616788
2.58061 0.341699 1.76626 1245327406
2.58322 0.344441 1.7656 1245195820
2.60183 0.351711 1.8525 1244735269
2.59922 0.354691 1.85314 1244669476
2.6045599 0.354577 1.85181 1244340511
2.5966001 0.35767001 1.85378 1243748374
2.6019399 0.357557 1.85245 1243682581
2.60729 0.357443 1.85113 1243682581
2.5993299 0.36053699 1.85309 1226444814
2.6020601 0.36340299 1.8523999 1226181642
1.20181 0.196123 1.13537 1249142874
1.20052 0.19759101 1.13568 1249208667
1.20315 0.19753499 1.13503 1249208667
1.19923 0.19905899 1.13599 1248682323
1.20186 0.199003 1.13534 1248879702
1.2045 0.198947 1.13469 1249011288
1.20057 0.20047 1.1356601 1248024393
1.20192 0.201882 1.1353199 1248024393
2.2932701 0.34694999 1.84848 1266971235
2.29075 0.34981599 1.84909 1267037286
2.2958901 0.34970599 1.84782 1249338713
2.2882299 0.35268101 1.8497 1269603474
2.29338 0.35257199 1.84843 1269538193
2.2985201 0.35246301 1.84715 1269538193
2.2908599 0.35543701 1.84904 1269275281
2.2934799 0.35819301 1.84838 1269275281
1.6206501 1.18423 2.34655 1267498094
1.61751 1.18792 2.34637 1267366507
1.62405 1.1874501 2.3452599 1267038318
1.61436 1.1916 2.34619 1248681295
1.6209 1.19113 2.3450799 1247102778
1.62744 1.19066 2.3439701 1244932643
1.6177599 1.19482 2.3448999 1226444292
1.62115 1.19803 2.34361 1225853703
2.74524 0.32486901 1.66591 1246577214
2.74281 0.32763401 1.6665 1246050613
2.7477701 0.327528 1.66527 1226576400
2.74038 0.33039901 1.6670901 1244865826
2.7453401 0.330293 1.6658601 1244866596
2.7503099 0.33018801 1.6646301 1226379022
2.7429199 0.33305901 1.66645 1244866340
2.74545 0.33571801 1.66582 1243813908
2.6361401 0.23318499 1.1616 1225919753
2.6343801 0.235195 1.16203 1225656839
2.63798 0.235118 1.16113 1225788167
2.6326101 0.237205 1.16246 1243749915
2.63622 0.237128 1.1615601 1226314511
2.6398201 0.23705199 1.16067 1225459202
2.63445 0.23913801 1.16199 1243684122
2.6362901 0.241072 1.16153 1243748887
3.2741301 0.35113901 1.74683 1247301963
3.27143 0.35420501 1.74748 1245130794
3.2769401 0.35408801 1.74612 1246380604
3.2687399 0.357272 1.74814 1225787651
3.27424 0.357155 1.74678 1225984517
3.2797401 0.35703799 1.74541 1226773776
3.2715499 0.360221 1.74743 1225985030
3.2743599 0.36317101 1.74673 1226510348
3.2956901 0.35177499 1.7476701 1247169603
3.29298 0.35484999 1.74833 1247695948
3.2985001 0.35473299 1.74696 1247301189
3.2902801 0.357925 1.74898 1245261352
3.2958 0.35780799 1.74762 1246577209
3.3013201 0.35769099 1.74625 1247366211
3.2931001 0.360883 1.74827 1225983748
3.2959199 0.363841 1.74756 1226180865
3.36689 0.34009701 1.67256 1269209742
3.36426 0.34309101 1.6732 1269341074
3.3696301 0.34297699 1.67187 1269143695
3.36163 0.346084 1.67384 1268946316
3.3670001 0.34597 1.67251 1269406867
3.37237 0.34585601 1.67118 1269406867
3.3643701 0.34896401 1.6731499 1248682071
3.36711 0.351843 1.67246 1247629383
2.3775301 0.35660201 1.87598 1268485758
2.3749499 0.35953599 1.87661 1267169898
2.3802199 0.359424 1.8753 1266906726
2.37237 0.36247 1.8772399 1269275533
2.37764 0.36235899 1.87593 1269078154
2.3829 0.36224699 1.87463 1269143947
2.3750601 0.365293 1.87656 1269275533
2.3777499 0.36811501 1.87588 1269472912
2.3490701 0.335246 1.7598701 1267038312
2.3466401 0.33800501 1.76046 1266972519
2.3515899 0.33790001 1.75923 1267169898
2.3442199 0.34076399 1.76105 1268288638
2.34917 0.34065899 1.75982 1267893880
2.35412 0.340554 1.7586 1267696501
2.34675 0.343418 1.76042 1269407119
2.3492701 0.34607199 1.75978 1269341326
2.4370301 0.363617 1.90766 1267301484
2.4344001 0.36661699 1.9083101 1266972519
2.43978 0.366503 1.90697 1267103336
2.4317601 0.36961699 1.90895 1267564915
2.43715 0.36950299 1.9076101 1267433072
2.4425299 0.369389 1.90628 1267301232
2.43451 0.37250301 1.90826 1269341326
2.4372599 0.37538901 1.90756 1268947081
2.6821401 0.32563299 1.66309 1226576141
2.6797299 0.328372 1.66368 1226115590
2.6846499 0.32826799 1.66246 1244011287
2.67733 0.33111101 1.66426 1226049797
2.68224 0.331007 1.66304 1226576141
2.68716 0.33090201 1.6618299 1243616529
2.6798401 0.33374599 1.66363 1226181383
2.6823499 0.33638 1.663 1226115590
2.6718299 0.27539101 1.38264 1225591818
2.66978 0.27772799 1.38314 1208354052
2.67397 0.277639 1.3821 1208222467
2.6677301 0.280065 1.3836401 1226776092
2.6719201 0.27997601 1.3825999 1226644506
2.67611 0.27988699 1.38156 1226315541
2.6698699 0.28231201 1.3831 1243619101
2.6720099 0.28455999 1.38256 1226578713
2.4157901 0.342399 1.77595 1267301230
2.4133301 0.345204 1.7765501 1266841194
2.41836 0.34509799 1.7753 1249735013
2.4108601 0.34801 1.77715 1268288640
2.4159 0.34790301 1.7759 1267893882
2.4209299 0.34779599 1.77465 1267499124
2.41343 0.35070899 1.7765 1269275536
2.4159999 0.353407 1.7758501 1269078672
3.3625 0.34132099 1.64722 1269406867
3.3599 0.34427699 1.6478601 1269341074
3.3652 0.34416401 1.64654 1269341074
3.3573 0.347233 1.64849 1249471587
3.3626101 0.34711999 1.64718 1267827835
3.3679099 0.34700799 1.64586 1268946316
3.3600099 0.35007599 1.64781 1247497797
3.36272 0.35292 1.64713 1247892555
0.68257898 0.50822902 1.02985 1271902363
0.68124002 0.50989997 1.02898 1271506318
0.68430102 0.50977302 1.0298001 1272229784
0.679901 0.51156998 1.0281 1249595963
0.682962 0.51144397 1.0289299 1269661546
0.686023 0.51131701 1.02975 1272229011
0.68162298 0.51311398 1.0280499 1269331293
0.68334597 0.51465797 1.028 1269262672
1.67388 0.36491701 1.96667 1267892332
1.6714 0.36773199 1.96727 1267563367
1.67645 0.367625 1.96602 1267826539
1.6689301 0.37054801 1.96787 1267958125
1.67398 0.37044001 1.96662 1267826539
1.6790299 0.37033299 1.9653701 1267760746
1.67151 0.373256 1.9672199 1268352883
1.67409 0.37596399 1.96657 1268089711
3.3470099 0.363076 1.72022 1247367754
3.3443201 0.36613101 1.72088 1247828303
3.3498001 0.366014 1.71952 1247762765
3.34164 0.369185 1.72153 1244405265
3.34712 0.36906901 1.72017 1245327138
3.3526001 0.36895201 1.71881 1246643768
3.34444 0.372123 1.72083 1226770176
3.34724 0.37506101 1.72012 1244268288
2.59812 0.232747 1.1003799 1225918470
2.5964501 0.234657 1.10079 1226444814
2.59987 0.234584 1.0999399 1225918470
2.59477 0.23656701 1.1012 1244011803
2.5982001 0.236494 1.10035 1226510863
2.60162 0.236421 1.0994999 1225984519
2.5965199 0.23840401 1.10075 1243814934
2.5982699 0.24024101 1.10031 1243749655
2.5569799 1.13712 2.1217401 1244865042
2.55391 1.14072 2.1215601 1245522972
2.5602901 1.14026 2.1204801 1244865042
2.5508399 1.14431 2.1213901 1245720351
2.55722 1.14385 2.1203001 1245457179
2.5636001 1.1433901 2.11922 1245062421
2.5541501 1.14745 2.1201301 1245786144
2.5574601 1.1505899 2.11887 1245917217
3.35813 0.365861 1.71758 1247236166
3.3554499 0.36891499 1.71823 1247564871
3.36093 0.368799 1.71688 1247828045
3.3527701 0.37197 1.71889 1243943945
3.3582499 0.37185299 1.71753 1244997403
3.36373 0.371737 1.71617 1245853484
3.3555601 0.374908 1.7181799 1226769920
3.3583601 0.377846 1.7174799 1244531971
2.32757 0.469455 2.3945999 1267760492
2.3243599 0.47310901 2.39538 1267563367
2.33092 0.47297001 2.39375 1267168866
2.3211501 0.47676301 2.3961599 1267431779
2.3277099 0.47662401 2.3945301 1267037023
2.33426 0.476484 2.39291 1266708317
2.3245001 0.480277 2.3953199 1248680775
2.3278501 0.48379201 2.39447 1266708058
2.60218 0.34456 1.68874 1243616016
2.5997701 0.347307 1.68933 1225786627
2.6047001 0.347202 1.68811 1225917184
2.5973599 0.350054 1.6899199 1226444557
2.6022899 0.34994999 1.6887 1226181385
2.6072199 0.34984499 1.68748 1226247177
2.59987 0.35269701 1.68928 1243813910
2.6023901 0.35533899 1.68865 1226510350
2.2597101 0.45833501 2.3255501 1267958125
2.2566099 0.461867 2.3262999 1268023918
2.2629399 0.46173301 2.3247299 1268023918
2.2535 0.465399 2.32706 1268023918
2.25984 0.46526399 2.32549 1267958125
2.26618 0.46513 2.32392 1267760746
2.2567401 0.46879601 2.3262401 1267037023
2.2599699 0.472193 2.3254299 1249009740
2.5153301 0.35910499 1.76346 1226181382
2.51285 0.36192799 1.76406 1248419416
2.51791 0.361821 1.7628 1226050310
2.51037 0.36475101 1.76466 1268881039
2.51543 0.36464399 1.76341 1248748381
2.5204999 0.36453599 1.76215 1226181897
2.5129499 0.36746699 1.76401 1268420489
2.5155399 0.37018201 1.76336 1268223110
3.3833001 0.38049501 1.74391 1226769920
3.3805699 0.383596 1.74457 1245780234
3.3861401 0.38347799 1.7431901 1244531971
3.3778501 0.38669699 1.74524 1248801305
3.38341 0.38657901 1.74386 1248276764
3.3889799 0.38646001 1.74248 1247226135
3.3806901 0.38967901 1.7445199 1249390095
3.3835299 0.39266199 1.7438 1249717518
3.3756101 0.37649301 1.72383 1244141070
3.37291 0.379563 1.72449 1243612160
3.3784201 0.379446 1.72312 1226638336
3.3702199 0.38263199 1.72514 1247226135
3.37572 0.38251501 1.72378 1245846032
3.3812301 0.38239801 1.72241 1244268801
3.3730299 0.38558501 1.72444 1248735509
3.3758399 0.38853699 1.72373 1249325072
3.3735099 0.36889499 1.68401 1247563590
3.3708701 0.371907 1.68466 1247497797
3.3762701 0.37179199 1.68332 1247760969
3.3682201 0.374919 1.6853 1226707208
3.37363 0.37480399 1.68396 1244931870
3.37903 0.37469 1.68262 1246181937
3.37098 0.377817 1.68461 1226309888
3.37374 0.380714 1.68391 1244662016
2.2841001 0.462098 2.3055799 1249798484
2.2810199 0.46561 2.30634 1248943947
2.2873199 0.46547601 2.30477 1249009481
2.27793 0.46912199 2.30709 1249733463
2.28423 0.468988 2.3055301 1267957353
2.29054 0.46885401 2.3039601 1268221295
2.2811501 0.4725 2.3062799 1269142399
2.2843699 0.475878 2.30547 1268944248
2.5801799 0.35573399 1.70789 1226050057
2.57775 0.35850099 1.70848 1226313229
2.58272 0.35839501 1.70725 1225984006
2.57532 0.361267 1.70907 1244143133
2.5802901 0.36116201 1.70784 1226773779
2.5852499 0.36105701 1.70661 1226510350
2.5778601 0.363929 1.7084301 1244340512
2.58039 0.36658999 1.70779 1243945497
2.2284501 0.47172499 2.34536 1267957355
2.2253399 0.475274 2.3461201 1267957355
2.2316999 0.47513801 2.3445401 1267694183
2.2222199 0.47882199 2.34688 1267102046
2.22859 0.47868699 2.3453 1249732693
2.2349601 0.47855201 2.34372 1249074763
2.2254701 0.482236 2.34606 1249338705
2.2287199 0.48565 2.3452401 1267826796
2.2881401 0.48018101 2.38115 1249470291
2.28496 0.48380199 2.3819201 1249009740
2.29146 0.48366401 2.3803101 1249009740
2.28178 0.487423 2.3827 1266905437
2.28828 0.48728499 2.3810899 1267760746
2.29478 0.487147 2.3794799 1268287090
2.2851 0.490906 2.38186 1269208192
2.2884099 0.494389 2.3810301 1268879227
3.4058199 0.375245 1.68183 1247497797
3.4031701 0.37826499 1.68248 1247629383
3.4085901 0.37814999 1.6811301 1247958348
3.4005101 0.381286 1.68312 1244142099
3.40593 0.38117099 1.68178 1245392679
3.41135 0.38105601 1.6804399 1246774075
3.40328 0.38419101 1.68243 1226245377
3.40604 0.387097 1.68173 1243875328
3.40396 0.37605801 1.67097 1247695176
3.40132 0.379062 1.67161 1246774075
3.4067099 0.378948 1.67027 1247760969
3.39868 0.38206699 1.67225 1226575369
3.4040699 0.38195199 1.67092 1243879698
3.4094601 0.38183799 1.66958 1245458985
3.4014299 0.38495699 1.67156 1226573057
3.4041901 0.38784701 1.6708699 1244794369
1.17744 0.390158 0.96560299 1248551517
1.1763 0.39149299 0.96553802 1248222552
1.17867 0.39132199 0.96513599 1248222552
1.1751601 0.392827 0.965473 1248419931
1.1775301 0.39265701 0.96507102 1248748896
1.17989 0.39248601 0.96466899 1249077861
1.1763901 0.39399099 0.96500599 1249604205
1.1776201 0.39515501 0.96453899 1249472619
1.22035 0.66066498 1.79023 1249866594
1.21811 0.66328299 1.7901 1249800544
1.22276 0.66294801 1.78931 1249866337
1.21588 0.66590101 1.78997 1249405786
1.22052 0.66556603 1.7891901 1249471579
1.22517 0.66523099 1.7884001 1249471579
1.21829 0.668185 1.78906 1248024132
1.2207 0.67046797 1.7881401 1248089924
1.48353 0.72039503 1.9848599 1268550262
1.48098 0.72338301 1.98471 1269340035
1.48628 0.72299999 1.9838099 1269274242
1.47843 0.72636998 1.98457 1268879484
1.48373 0.72598797 1.98367 1268747898
1.48903 0.72560602 1.98277 1268550519
1.48118 0.728975 1.98352 1267761003
1.48393 0.73158097 1.98248 1268550519
0.19192401 0.66837198 1.0871201 1225918720
0.190395 0.670358 1.08606 1225589504
0.19397999 0.670156 1.08708 1245918503
0.188866 0.67234403 1.08499 1225655296
0.192451 0.67214102 1.08602 1246246954
0.19603699 0.67193902 1.0870399 1248088124
0.19092301 0.67412698 1.08496 1246707246
0.19297899 0.67591101 1.08492 1248087095
2.0118501 0.40963599 1.06609 1267563374
2.01039 0.41134399 1.06601 1267234924
2.0134301 0.41112599 1.06549 1267365995
2.00894 0.41305199 1.06593 1244865048
2.01197 0.41283399 1.06541 1246575921
2.0150001 0.412615 1.0649 1247892038
2.01051 0.41454199 1.06533 1243944203
2.01208 0.41603199 1.06473 1245260834
1.20023 0.40623599 1.01132 1266776179
1.19902 0.40764701 1.01125 1266907765
1.20153 0.40746701 1.01082 1267105144
1.1978199 0.40905899 1.01118 1248946275
1.20032 0.40887901 1.0107501 1249077861
1.20283 0.40869799 1.01033 1248748896
1.19912 0.41029 1.01068 1248683103
1.20042 0.41152099 1.01019 1249735278
1.39347 0.67504901 1.8342 1266774112
1.39114 0.67778099 1.83407 1266905698
1.39598 0.677432 1.83324 1267103588
1.3888 0.68051302 1.83393 1267695214
1.3936501 0.68016398 1.83311 1267958386
1.3985 0.67981398 1.8322901 1267893104
1.39132 0.68289602 1.83298 1268616316
1.39384 0.68527901 1.83202 1269142917
1.13159 0.37155199 0.89931899 1267368829
1.13055 0.37277299 0.89925998 1267237243
1.13272 0.37261701 0.89889199 1267237243
1.12951 0.37399399 0.89920002 1249406826
1.13167 0.37383801 0.89883202 1249801584
1.13384 0.37368199 0.89846498 1267039351
1.13063 0.37505901 0.89877301 1249209447
1.13176 0.37612399 0.89834601 1249341033
1.36773 0.67504799 1.82472 1266774112
1.36541 0.67775899 1.82459 1266708576
1.37023 0.67741197 1.82377 1266774112
1.3631001 0.680471 1.82446 1267563885
1.36791 0.68012398 1.82364 1267892593
1.37272 0.67977703 1.82283 1267958643
1.3656 0.682836 1.8235101 1268551293
1.36809 0.68520099 1.82256 1269143687
0.603387 0.68301398 1.0074 1248814425
0.602099 0.68481803 1.00653 1248814425
0.60513097 0.68460202 1.00773 1248617046
0.60081202 0.68662202 1.0056601 1248814425
0.60384399 0.686405 1.00686 1248419667
0.606875 0.686189 1.00805 1248090702
0.602557 0.688209 1.00599 1248221773
0.60430098 0.68979597 1.00631 1248221772
0.45234701 0.799474 1.17537 1246903081
0.45081499 0.80162001 1.17433 1247363632
0.454422 0.80136299 1.17575 1246245666
0.449283 0.80376703 1.1733 1247626291
0.45289099 0.803509 1.17472 1246574631
0.456498 0.80325103 1.17614 1245851936
0.451359 0.805655 1.1736799 1247298096
0.453435 0.80754399 1.17407 1246508836
0.207616 0.66754597 1.04327 1225460231
0.206137 0.66946799 1.04224 1225393924
0.20960701 0.66927201 1.0432301 1244077847
0.204657 0.67139 1.0412101 1225590272
0.20812701 0.67119402 1.04221 1244603931
0.211597 0.67099899 1.0432 1248023364
0.20664699 0.67311603 1.04118 1245261345
0.208638 0.674842 1.04114 1247956797
0.210962 0.66827399 1.02942 1226050048
0.209497 0.67017698 1.02841 1225852160
0.21293201 0.66998303 1.02939 1243681544
0.208033 0.67207903 1.02739 1225984256
0.211468 0.67188603 1.02837 1244602128
0.214903 0.67169201 1.02935 1248154176
0.210003 0.67378801 1.0273499 1245128728
0.211973 0.675497 1.02731 1248088641
0.088684097 0.79270101 1.32631 1247955506
0.0868413 0.79509401 1.32503 1246968356
0.0911626 0.79485101 1.32626 1247758127
0.0849986 0.79748797 1.32375 1246574369
0.0893199 0.79724401 1.32498 1247692334
0.093640998 0.797001 1.32621 1248086579
0.0874772 0.79963797 1.3237 1246836770
0.089955799 0.80178797 1.32365 1247560492
0.204089 0.60930198 0.935718 1246116916
0.202701 0.61102402 0.93483299 1246511673
0.205861 0.610892 0.935651 1245722157
0.201313 0.61274499 0.93394703 1246314293
0.204473 0.61261398 0.93476498 1244603675
0.207633 0.61248201 0.935583 1226050051
0.20308501 0.614335 0.93387902 1243879952
0.20485801 0.61592501 0.93381202 1226181634
1.1145101 0.35826501 1.54583 1267170675
1.11268 0.360412 1.54572 1266907503
1.11649 0.36013699 1.5450701 1267302261
1.11084 0.36255899 1.54562 1267433847
1.11465 0.362284 1.54497 1267697019
1.1184601 0.36201 1.54432 1267368054
1.11282 0.36443099 1.54487 1267894398
1.1148 0.366303 1.5441099 1267828605
2.76315 0.29911399 1.59637 1225460230
2.7609 0.30175599 1.59624 1208288256
2.76559 0.30141801 1.59544 1225262851
2.7586401 0.304398 1.59611 1225657609
2.76333 0.30406001 1.59531 1226381332
2.7680199 0.30372199 1.59452 1243816478
2.76108 0.30670199 1.59518 1243948064
2.76351 0.30900601 1.59426 1243619099
2.76284 0.293547 1.56437 1225526023
2.7606299 0.296141 1.56424 1225328644
2.7652299 0.295809 1.56346 1225460229
2.75841 0.29873499 1.56411 1243619099
2.76302 0.29840299 1.5633301 1226249746
2.7676201 0.298071 1.5625499 1225723401
2.7607999 0.30099699 1.56321 1243882271
2.76319 0.30325899 1.5623 1226578711
0.146672 0.61882299 1.06282 1246051379
0.145115 0.62076497 1.0618 1246117172
0.148674 0.62061799 1.06276 1244209175
0.14355899 0.62270701 1.06078 1246380344
0.147118 0.62256002 1.06174 1244011796
0.150676 0.62241298 1.0627 1226379271
0.14556099 0.624502 1.06072 1244209175
0.14756399 0.626297 1.06066 1226050306
2.66049 0.35914901 1.89851 1245590319
2.6578701 0.36221799 1.89836 1244142873
2.6633201 0.36182499 1.89744 1245985077
2.6552501 0.36528701 1.89821 1244208667
2.6607001 0.364894 1.89729 1244603424
2.6661501 0.364501 1.89636 1245721905
2.6580801 0.36796299 1.89714 1243945494
2.6609099 0.37064001 1.89606 1244076312
2.7493601 0.30149201 1.59196 1225394950
2.7471099 0.304124 1.59184 1208288769
2.75179 0.30378801 1.59104 1225328900
2.7448699 0.306757 1.59171 1225855501
2.7495401 0.30642 1.59092 1226381845
2.75421 0.30608299 1.59012 1243684892
2.7472899 0.309053 1.59079 1243751198
2.7497201 0.311349 1.58987 1226578454
2.55616 0.380568 1.97777 1267630449
2.5534599 0.38373101 1.97762 1269341839
2.5590701 0.38332599 1.97667 1269143688
2.55076 0.386893 1.97746 1269737113
2.55637 0.38648799 1.97651 1269933976
2.56198 0.38608399 1.9755599 1269736597
2.5536699 0.38964999 1.97636 1269671066
2.5565801 0.39240801 1.97525 1269671067
2.5610001 0.372361 1.9326299 1267959414
2.5583601 0.37545699 1.93248 1267893621
2.5638499 0.37506101 1.93155 1267499376
2.5557101 0.378553 1.93233 1269802134
2.5612099 0.37815699 1.9313999 1269670804
2.5667 0.37776101 1.93046 1269210508
2.5585599 0.38125199 1.93124 1269671066
2.56142 0.38395199 1.93016 1269671067
2.71593 0.31965101 1.67203 1245063975
2.7135899 0.32239601 1.67189 1244340252
2.7184601 0.322045 1.67107 1244800803
2.7112401 0.32514101 1.67176 1243748115
2.71611 0.32479 1.67093 1244077080
2.7209899 0.32443899 1.67011 1244340252
2.7137699 0.327535 1.6708 1243616273
2.7163 0.32992801 1.66984 1226706957
2.67489 0.249414 1.26614 1226183952
2.67307 0.25154099 1.26604 1225986573
2.6768401 0.25126901 1.2654001 1225854987
2.6712601 0.253667 1.26594 1225986573
2.67503 0.25339499 1.2653 1226381331
2.6788001 0.25312299 1.26465 1226512917
2.6732099 0.25552201 1.26519 1243882270
2.6751699 0.25737599 1.26445 1226512917
2.75315 0.29007399 1.5003099 1225460230
2.75102 0.29257101 1.50019 1225328644
2.75545 0.292252 1.49944 1225723402
2.7488799 0.29506901 1.50007 1226578711
2.75332 0.29475001 1.49931 1243750685
2.75775 0.29442999 1.49856 1243948064
2.7511799 0.29724801 1.49919 1244013857
2.75348 0.29942599 1.49832 1243750685
2.7449 0.27879 1.4352601 1225526023
2.7428501 0.28118801 1.43514 1208419842
2.7471099 0.28088099 1.43442 1225262851
2.7407999 0.283586 1.43502 1226446611
2.74506 0.283279 1.4342999 1225920523
2.74932 0.28297299 1.43358 1225920523
2.74301 0.285678 1.43418 1244408100
2.7452199 0.28776899 1.43334 1243815963
2.74982 0.2748 1.41409 1225854473
2.7478001 0.27716801 1.41397 1225854473
2.7520001 0.27686501 1.41326 1225986059
2.74578 0.27953601 1.41386 1225854474
2.74998 0.27923301 1.4131401 1225985803
2.75418 0.27893001 1.41243 1226051596
2.7479601 0.2816 1.41303 1243881501
2.75014 0.283665 1.4122 1243881501
0.96504003 0.33711699 1.3360699 1249867628
0.96350503 0.33891401 1.33599 1249604200
0.96669501 0.33868399 1.33544 1249669736
0.96196997 0.34071201 1.3358999 1266973296
0.96516103 0.340482 1.3353601 1267236468
0.96835101 0.34025201 1.33481 1266710124
0.96362603 0.34227899 1.33527 1267170675
0.96528101 0.34384701 1.33464 1266710124
2.6819501 0.36355999 1.8782001 1244932391
2.6793499 0.36660701 1.87806 1244734242
2.6847501 0.36621699 1.87714 1244998184
2.6767399 0.369654 1.87791 1243747347
2.6821499 0.36926401 1.87699 1244077082
2.6875601 0.36887401 1.87607 1243616531
2.6795499 0.372311 1.87684 1226180615
2.6823599 0.37496799 1.87578 1225852420
2.7397399 0.33545199 1.73554 1244077080
2.7373099 0.33829901 1.7354 1243682322
2.7423601 0.337935 1.73454 1243879958
2.73488 0.34114701 1.73526 1226246920
2.7399299 0.34078199 1.7344 1226444555
2.7449901 0.34041801 1.7335401 1226774033
2.7375 0.34362999 1.73426 1226312199
2.7401299 0.346113 1.73327 1226443782
0.54666102 0.72437203 0.99226302 1248154950
0.54535902 0.72619599 0.99138302 1247628605
0.54842597 0.725977 0.99259001 1248220743
0.54405802 0.72802001 0.99050301 1247233590
0.54712403 0.72780102 0.99171001 1247562813
0.55018997 0.72758198 0.99291599 1248154951
0.54582202 0.729626 0.99083 1247299383
0.54758602 0.73123097 0.991157 1247431227
0.69601798 0.62690997 1.06472 1249602914
0.69466299 0.62866998 1.0637701 1249668707
0.69783998 0.62849098 1.06468 1249537121
0.693308 0.63042998 1.06283 1249471328
0.69648498 0.63025099 1.06374 1249142363
0.69966203 0.63007098 1.0646501 1248550226
0.69512999 0.632011 1.0628 1248813398
0.696953 0.633591 1.06276 1249142363
2.7203901 0.320483 1.63349 1244933670
2.7181001 0.323174 1.63336 1244670755
2.7228701 0.32282999 1.63255 1243881495
2.7158 0.325865 1.63323 1243683348
2.7205801 0.32552001 1.6324199 1244933413
2.7253499 0.325176 1.63161 1244539426
2.7182801 0.32821101 1.63229 1243880725
2.7207601 0.33055699 1.63134 1226379786
1.18109 0.39405 1.6762201 1267433845
1.17907 0.39641401 1.67611 1268025982
1.18327 0.39611101 1.6754 1268223361
1.17706 0.39877701 1.67599 1267039089
1.18125 0.39847499 1.67528 1267565432
1.18545 0.39817199 1.67457 1267894651
1.17923 0.40083799 1.6751699 1249801322
1.18141 0.40290001 1.67434 1267302261
2.3085101 0.49184999 2.4627199 1267365218
2.3052399 0.49568 2.4625399 1266904667
2.3120401 0.49518999 2.46138 1266904667
2.30197 0.49950999 2.4623499 1268352113
2.3087699 0.49902001 2.4612 1268483699
2.3155701 0.49853 2.4600401 1268944250
2.3055 0.50285 2.46101 1270589075
2.3090301 0.50619 2.4596701 1271181212
0.89833498 0.60238397 1.20532 1247103032
0.896837 0.60425299 1.20433 1248089157
0.90026098 0.60411102 1.20526 1246510125
0.89534003 0.606121 1.2033499 1248549708
0.89876401 0.60597998 1.20428 1247168055
0.902188 0.605838 1.2052 1246510125
0.89726698 0.60784799 1.20329 1248089157
0.89919299 0.60957497 1.20324 1247168055
0.19362999 0.61305898 0.95584297 1246576436
0.192201 0.614842 0.954907 1246576436
0.19546799 0.61470699 0.95578903 1245326370
0.190773 0.61662501 0.95397002 1246181678
0.19404 0.61649001 0.95485198 1244997406
0.19730601 0.616355 0.95573503 1243681546
0.19261099 0.61827302 0.95391601 1243681546
0.19444899 0.61992002 0.953861 1226180867
0.199031 0.64758301 1.05784 1225524736
0.197484 0.64951301 1.05682 1225524993
0.20102 0.64936697 1.05778 1225985542
0.19593699 0.65144199 1.05581 1226051849
0.19947401 0.65129602 1.05676 1226446606
0.20300999 0.65114999 1.0577199 1226117641
0.197927 0.65322602 1.05575 1243619349
0.199917 0.65500998 1.0556901 1226184204
0.184774 0.66671097 1.10763 1225852675
0.183165 0.66871899 1.10657 1226050055
0.186845 0.668567 1.10756 1245589541
0.181555 0.67072701 1.10551 1226050310
0.18523499 0.67057502 1.10651 1245128992
0.188916 0.67042398 1.1075 1248219712
0.183626 0.672584 1.10545 1244799769
0.18569601 0.67444003 1.10539 1248417092
0.46092099 0.83400202 1.14463 1226773004
0.459416 0.83611202 1.14361 1225458432
0.462962 0.83585799 1.14501 1244932130
0.45791101 0.83822203 1.14259 1225524997
0.461456 0.83796799 1.14399 1226642193
0.465002 0.83771503 1.14538 1244997664
0.45995101 0.840078 1.14297 1225327617
0.46199101 0.84193403 1.14335 1226707986
0.218412 0.67736799 1.13887 1245259806
0.216775 0.67941099 1.1378 1244009995
0.22051799 0.67925602 1.13881 1248483145
0.215138 0.68145299 1.13673 1244009993
0.218881 0.68129897 1.13774 1245785889
0.222624 0.681144 1.13875 1249535829
0.217244 0.68334103 1.13667 1244470028
0.21935 0.685229 1.1366 1246706218
0.22889601 0.665815 0.979568 1225787649
0.227449 0.66760999 0.97864503 1225918722
0.230744 0.66747302 0.97949803 1244603414
0.22600199 0.669406 0.97772098 1225852416
0.229297 0.66926801 0.97857398 1245524001
0.232593 0.66913098 0.97942799 1248352069
0.22785001 0.67106402 0.977651 1246576175
0.229698 0.67272198 0.97758102 1248088125
0.96461397 0.58601898 1.16687 1246773556
0.96318001 0.587807 1.16593 1246050092
0.96645802 0.587672 1.16682 1247562300
0.96174699 0.58959502 1.1649899 1245458214
0.96502399 0.58946002 1.16588 1246839092
0.96830201 0.58932501 1.16676 1247956800
0.96359098 0.59124798 1.16494 1246050092
0.96543503 0.59290099 1.16488 1246773556
0.65789503 0.64744103 1.04252 1249340255
0.656546 0.649194 1.04158 1249340001
0.65970999 0.64901501 1.04249 1249274462
0.65519601 0.65094602 1.04065 1249340001
0.65836102 0.65076798 1.04155 1248550739
0.66152501 0.65059 1.04245 1248484946
0.65701097 0.65252101 1.04061 1248550485
0.65882599 0.65409499 1.04058 1248879704
-0.20327801 0.93403298 0.98209602 1225984772
-0.204891 0.93629301 0.98100603 1225655296
-0.20109101 0.93602198 0.98250002 1225852160
-0.206504 0.93855399 0.97991598 1244076301
-0.202704 0.93828201 0.98141098 1244141837
-0.19890501 0.93801099 0.98290497 1244338443
-0.204318 0.940543 0.98032099 1245390874
-0.202131 0.942532 0.98072499 1245850393
0.80147803 0.56238198 1.02556 1266839393
0.80015802 0.56402898 1.0247 1266839393
0.803177 0.563905 1.02551 1266839393
0.79883802 0.56567699 1.0238301 1249864798
0.80185699 0.565552 1.02465 1249733212
0.80487603 0.56542802 1.02546 1249141075
0.80053598 0.56720001 1.02378 1249075282
0.80223501 0.56872201 1.02373 1249535833
0.90318102 0.60245103 1.17883 1247168055
0.901712 0.60428298 1.17787 1248089157
0.90506899 0.60414499 1.1787699 1246510125
0.900244 0.60611498 1.1769 1248549708
0.90360099 0.60597599 1.17781 1247168055
0.90695798 0.605838 1.17872 1246509868
0.90213299 0.60780799 1.17685 1247957571
0.90402198 0.609501 1.17679 1246970676
0.192532 0.66774499 1.08298 1226181891
0.19095001 0.66971803 1.0819499 1225918977
0.19456699 0.66956902 1.08292 1244470799
0.18936799 0.67169201 1.08091 1225722372
0.192985 0.671543 1.08189 1244207630
0.196602 0.67139298 1.08286 1248679492
0.191403 0.67351598 1.08085 1244142868
0.19343799 0.67534101 1.08079 1248483146
0.80200899 0.55345398 0.995498 1266839393
0.80072302 0.555058 0.99465501 1266839393
0.803662 0.55493701 0.99544901 1266839393
0.799438 0.55666202 0.99381202 1266905186
0.80237699 0.55654001 0.99460602 1266773600
0.80531597 0.55641901 0.99540001 1249535833
0.80109203 0.55814397 0.99376303 1249338454
0.80274498 0.559627 0.99371397 1249470040
-0.268686 0.078108899 0.72240001 1270326155
-0.26989099 0.079798102 0.72158498 1270984085
-0.26705199 0.079595402 0.72270203 1270062983
-0.271097 0.081487402 0.72077 1271642015
-0.26825801 0.081284598 0.72188801 1270655120
-0.26541799 0.0810818 0.723005 1269997190
-0.269463 0.082973897 0.72107297 1271313050
-0.267829 0.084460303 0.721376 1271049878
0.965832 0.60373503 1.1683 1247101235
0.96439201 0.605533 1.1673599 1246574379
0.96768498 0.60539699 1.16825 1247890237
0.962951 0.60733002 1.16641 1245917477
0.966245 0.60719401 1.1673 1247232308
0.96953797 0.60705799 1.16819 1248154177
0.96480399 0.60899103 1.16636 1246640172
0.966658 0.61065203 1.1663001 1247298101
0.205706 0.668571 1.04371 1225721602
0.20416901 0.67048901 1.0427099 1225852162
0.207684 0.670344 1.04365 1245062168
0.202632 0.67240697 1.0417 1225918465
0.206147 0.67226201 1.04265 1245259287
0.20966101 0.67211699 1.0436 1248284218
0.20461001 0.67417902 1.04164 1245522717
0.206587 0.67595202 1.04158 1248612668
0.49575499 -0.0058249701 1.34006 1270261399
0.49424499 -0.0037096899 1.33904 1269735055
0.49779999 -0.0039636302 1.34044 1271840430
0.49273601 -0.00159447 1.33802 1270327192
0.49629101 -0.00184838 1.33942 1270590364
0.49984601 -0.0021023301 1.34082 1271577513
0.49478099 0.000266805 1.3384 1270064020
0.49682701 0.0021281401 1.33878 1270853536
0.28752699 0.59325099 0.86455703 1244274972
0.28622699 0.59487301 0.86370498 1244932389
0.28919899 0.594751 0.86450797 1226576654
0.284926 0.59649599 0.86285198 1245261606
0.28789899 0.59637302 0.86365598 1243880214
0.29087201 0.59625 0.86445898 1226576654
0.28659901 0.59799498 0.86280298 1244735267
0.28827199 0.59949499 0.86275399 1226576654
0.475418 0.0029706501 1.3579299 1269208451
0.47388199 0.0051234802 1.35689 1270063760
0.47749999 0.0048650401 1.35831 1268089970
0.47234499 0.0072763702 1.35585 1270721690
0.47596401 0.0070178998 1.35728 1269142658
0.47958201 0.0067594498 1.3587 1269076865
0.474428 0.0091707604 1.35624 1269669261
0.47650999 0.0110651 1.35662 1268748159
0.0251444 0.037974399 1.17193 1271971755
0.0236162 0.040116001 1.1709 1271708583
0.027215499 0.0398589 1.17231 1271182239
0.022088001 0.042257499 1.16986 1271576997
0.0256873 0.042000402 1.17128 1271379618
0.029286699 0.041743301 1.1727 1271708583
0.0241591 0.044142 1.1702501 1272958650
0.0262303 0.046026502 1.17063 1272234927
0.220947 0.031682801 1.25208 1271379872
0.219414 0.0338309 1.25105 1271642790
0.223024 0.033573002 1.25247 1270194314
0.21788099 0.035978898 1.25001 1272103341
0.22149099 0.035721 1.25143 1271182493
0.22510201 0.035463199 1.2528501 1270721170
0.21995801 0.0378691 1.2503901 1271774376
0.222036 0.039759401 1.25078 1270721942
0.25270501 0.60777098 0.88582098 1244076562
0.25136799 0.60943902 0.88494402 1226641417
0.25442499 0.60931301 0.88577002 1226773003
0.25003099 0.61110699 0.884067 1244208148
0.253088 0.61098099 0.884893 1245260836
0.256145 0.61085498 0.885719 1244537113
0.25175101 0.61264902 0.88401699 1245458215
0.25347099 0.614191 0.88396603 1244866078
-0.165443 0.089900598 1.12175 1270918291
-0.16700301 0.092087299 1.1207 1270326154
-0.16332801 0.0918248 1.12214 1271970979
-0.16856299 0.094273999 1.11964 1270655119
-0.16488799 0.0940115 1.1210901 1270720912
-0.161213 0.093749002 1.12253 1272102565
-0.166449 0.096198298 1.12003 1270194568
-0.164334 0.0981225 1.12042 1270720912
0.22705901 0.69505799 1.11236 1267955810
0.225447 0.69707 1.1113 1268219495
0.22913399 0.69691801 1.11229 1247429162
0.22383399 0.69908202 1.11024 1268482923
0.227521 0.69893003 1.11124 1248284471
0.23120899 0.69877797 1.1122299 1245981714
0.22590899 0.70094198 1.11018 1247955506
0.227983 0.702802 1.1101201 1246311195
0.176272 0.074652597 1.24117 1272234927
0.174725 0.076821499 1.2401299 1272498099
0.17837 0.076561101 1.24156 1272301233
0.173177 0.078990199 1.23908 1271971755
0.17682201 0.078729898 1.24052 1271511204
0.18046699 0.0784695 1.24195 1272235440
0.175274 0.080898702 1.23947 1272169134
0.17737199 0.082807101 1.2398601 1273156029
0.221852 0.69486398 1.08666 1248283697
0.220265 0.69684398 1.08562 1248348718
0.223893 0.69669402 1.0865999 1248152111
0.218678 0.69882399 1.0845799 1248217647
0.222307 0.69867402 1.08556 1249270851
0.225935 0.698524 1.08654 1268219235
0.22071999 0.70065397 1.08452 1267628385
0.22276101 0.70248401 1.08446 1267694948
0.108221 0.79402798 1.3074 1248348722
0.106336 0.79637903 1.30617 1247690792
0.110645 0.79620099 1.30733 1248743737
0.104452 0.79873002 1.30493 1247229986
0.108761 0.79855198 1.3061 1248348723
0.113069 0.798374 1.30726 1248809787
0.106876 0.80090302 1.30486 1247296550
0.1093 0.80307698 1.30479 1247954480
1.25465 0.72071701 1.36935 1267037280
1.2531 0.72272402 1.3682801 1266774109
1.25673 0.72251999 1.36931 1269208703
1.25156 0.72473103 1.36721 1266774623
1.25518 0.72452599 1.36824 1268024175
1.25881 0.72432202 1.36927 1270590098
1.2536401 0.726533 1.36717 1249668184
1.25572 0.72833598 1.36713 1269866379
0.89914 0.71352899 1.19914 1248023366
0.89767402 0.715433 1.19812 1248615503
0.90111101 0.71523899 1.1991 1247101749
0.89620799 0.71733701 1.1971 1249010261
0.89964598 0.717143 1.19809 1247891780
0.90308303 0.71694899 1.19907 1246772784
0.89818001 0.71904701 1.19707 1248483917
0.90015101 0.72075701 1.1970299 1247694401
0.96570098 0.70620799 1.20983 1246838833
0.96424502 0.70809901 1.20881 1246312748
0.96766001 0.70790601 1.20979 1247562299
0.962789 0.70999002 1.2078 1245523748
0.96620399 0.70979798 1.2087801 1246904626
0.96961802 0.70960498 1.2097501 1248088899
0.96474802 0.711689 1.20776 1246378541
0.96670598 0.71338803 1.2077301 1246970419
0.59840798 0.68791699 1.00945 1249208668
0.597063 0.68966502 1.00851 1249208669
0.600218 0.68948698 1.00941 1249011288
0.59571701 0.69141299 1.00758 1249077083
0.59887302 0.69123501 1.00848 1248813910
0.60202801 0.69105703 1.00938 1248024393
0.59752703 0.69298297 1.00754 1248353360
0.59933698 0.69455302 1.0075099 1248287567
0.21952599 0.66766697 0.99738097 1226314763
0.218042 0.66951901 0.99640799 1225985283
0.22143599 0.669379 0.997325 1226511112
0.21655799 0.67137098 0.995435 1226181636
0.219952 0.67123097 0.99635202 1243880207
0.223345 0.67109001 0.99726897 1247760962
0.218467 0.67308199 0.99537897 1244471057
0.220377 0.67479402 0.995323 1248614468
0.084598199 0.84052998 1.39346 1267627359
0.082601003 0.84302199 1.39215 1267429980
0.087167703 0.842834 1.39338 1267890531
0.080603696 0.845514 1.3908401 1266772048
0.085170403 0.84532601 1.3920701 1267956324
0.089737199 0.845137 1.39331 1268811633
0.0831732 0.84781802 1.3907599 1267298394
0.0857426 0.85012102 1.39069 1267758945
0.51737899 0.632967 0.99915397 1248878152
0.51598603 0.63470602 0.99824101 1268681846
0.51917201 0.634574 0.99910098 1247693880
0.51459301 0.63644397 0.99732703 1269273213
0.51777899 0.63631302 0.99818802 1266773849
0.52096403 0.636181 0.99904799 1247825466
0.51638502 0.63805097 0.99727398 1268879225
0.51817799 0.63965797 0.99722099 1267497572
0.51710898 0.635032 0.99950302 1249404496
0.515715 0.63677198 0.99858898 1269010811
0.51890302 0.63664001 0.99945003 1247628087
0.51432002 0.63851202 0.997675 1269141627
0.51750898 0.63837999 0.99853599 1266905435
0.520697 0.63824898 0.99939698 1247628087
0.516114 0.64012003 0.99762201 1269010555
0.51790798 0.641729 0.99756902 1267892331
0.225025 0.66930002 0.97266799 1226313478
0.22356801 0.67111802 0.97171301 1225655552
0.226899 0.67097998 0.97261298 1245721379
0.222111 0.67293501 0.97075701 1225852673
0.22544201 0.67279798 0.97165698 1246510895
0.228774 0.67265999 0.97255701 1248746308
0.223985 0.67461598 0.97070199 1246905652
0.22586 0.676296 0.97064698 1248482881
-0.39550999 0.150305 1.0617501 1269666942
-0.397109 0.152547 1.06066 1269074805
-0.39334199 0.15227801 1.06215 1268745840
-0.398709 0.154788 1.05958 1270719630
-0.39494199 0.15451901 1.06107 1270390665
-0.391175 0.15425 1.0625499 1270456457
-0.396541 0.15676001 1.05999 1272298662
-0.39437401 0.158733 1.06039 1271640732
0.67062199 0.633102 1.00951 1249866338
0.66925901 0.634803 1.00862 1249734752
0.67237502 0.63467401 1.00946 1249537118
0.66789597 0.63650298 1.00772 1249537373
0.67101198 0.636374 1.00857 1249274201
0.674128 0.63624603 1.00941 1248879189
0.66965002 0.63807499 1.00767 1248879443
0.67140299 0.63964701 1.00762 1249405787
0.90002197 0.67210299 1.19172 1247825472
0.898516 0.67398202 1.19074 1248483402
0.901959 0.67383999 1.1916699 1247167542
0.89701003 0.675861 1.18975 1248878160
0.90045297 0.67571902 1.19068 1247759679
0.90389699 0.67557698 1.19161 1247101749
0.898947 0.677598 1.18969 1248483402
0.90088499 0.679335 1.18964 1247562300
0.106586 0.83784097 1.3008699 1246836000
0.104693 0.84020299 1.29963 1246178070
0.109021 0.84002399 1.3008 1247164965
0.102801 0.84256399 1.29839 1245717519
0.107128 0.84238499 1.29956 1246638621
0.111456 0.84220701 1.30073 1247230245
0.105236 0.84474701 1.2983201 1245980691
0.10767 0.84693003 1.29825 1246375449
0.094163902 0.83354402 1.27933 1246901275
0.092292197 0.83587998 1.2781 1248677685
0.0965719 0.83570302 1.27926 1246178069
0.090420403 0.83821499 1.27688 1248809271
0.094700202 0.83803898 1.27803 1247427619
0.098980099 0.83786201 1.2791899 1246112277
0.0928284 0.84037399 1.2768101 1249138236
0.095236398 0.84253299 1.2767299 1248414515
0.26103401 0.117046 1.2918 1270195346
0.25945899 0.119253 1.29074 1271182241
0.26316801 0.118988 1.29219 1270984862
0.25788501 0.121459 1.28967 1272892859
0.26159301 0.121195 1.2911299 1272761273
0.265302 0.12093 1.29259 1272629687
0.260019 0.123401 1.2900701 1274077133
0.262153 0.12534299 1.29046 1273353410
0.67118502 0.62775803 0.98742598 1249866338
0.66984802 0.62942702 0.98654902 1249800545
0.67290598 0.62930101 0.98737502 1249734752
0.66851002 0.63109601 0.985672 1249800545
0.67156899 0.63096899 0.986498 1249537373
0.67462701 0.63084298 0.987324 1248945236
0.67023098 0.63263798 0.98562098 1249274201
0.67195201 0.63418102 0.98557001 1249076822
0.28653401 0.72945899 0.82325399 1247427102
0.28529999 0.731188 0.82242 1248610860
0.28820601 0.73098099 0.82356298 1246703896
0.28406599 0.73291701 0.82158601 1249334065
0.28697199 0.73271 0.82273 1247427102
0.28987801 0.73250198 0.82387298 1246703897
0.28573799 0.73443902 0.82189602 1248610860
0.28740999 0.73596001 0.82220602 1247427102
0.181697 0.92935801 1.17539 1246902301
0.18003801 0.93168199 1.17427 1248217645
0.183945 0.93140298 1.1758 1245784340
0.17838 0.93400699 1.1731499 1248546097
0.18228699 0.93372798 1.17468 1245981201
0.186193 0.93344897 1.1762201 1245719319
0.180628 0.93605202 1.17356 1247822889
0.18287601 0.938097 1.17398 1245323273
0.89563799 0.79072899 1.22683 1245459244
0.89411801 0.79270399 1.22577 1247564621
0.89768398 0.792503 1.22679 1225261312
0.89259702 0.79468 1.22471 1247893072
0.89616299 0.79447901 1.2257299 1244867109
0.89973003 0.79427803 1.22675 1225656838
0.894642 0.79645401 1.2246701 1247498829
0.89668798 0.79822898 1.22463 1244406558
0.53809202 0.75378799 1.00079 1247430201
0.53677201 0.75563699 0.99989498 1247232567
0.53987998 0.75541502 1.00112 1247628349
0.53545302 0.75748599 0.99900299 1247035445
0.53856099 0.75726402 1.00023 1247364408
0.54166901 0.75704199 1.0014499 1247694399
0.53724098 0.75911301 0.99933398 1247298360
0.53903002 0.76073998 0.99966502 1247364408
1.25509 0.79991102 1.38624 1247630924
1.2535 0.80197501 1.3851399 1249867115
1.25723 0.80176502 1.3862 1226380813
1.25192 0.804039 1.38403 1249866599
1.25564 0.80382901 1.38509 1245788976
1.25937 0.80361801 1.38616 1226380813
1.25405 0.80589199 1.38399 1249472357
1.2561899 0.80774599 1.38395 1244143895
0.88016802 0.94981599 1.62641 1244800027
0.878106 0.95237398 1.62509 1244997662
0.88280201 0.95217901 1.62631 1244142354
0.87604302 0.95493197 1.62378 1245260835
0.88073999 0.95473701 1.62499 1244734491
0.885436 0.95454103 1.62621 1243879953
0.87867701 0.957295 1.62368 1244932127
0.881311 0.95965803 1.62358 1244472090
0.097824499 0.85572898 1.2786 1246375961
0.095946997 0.85807103 1.27737 1249073217
0.10024 0.857894 1.27853 1245915410
0.094069503 0.86041403 1.27614 1267100496
0.098362401 0.860237 1.2773 1247494442
0.102655 0.86005902 1.27846 1246046996
0.0964849 0.86257899 1.27607 1266705999
0.098900303 0.86474502 1.276 1247823407
0.27894101 0.73487598 0.84597898 1245915670
0.277659 0.73654097 0.84508801 1247033636
0.28066501 0.73637199 0.84594601 1245520912
0.27637801 0.73820603 0.84419602 1247362856
0.279383 0.73803699 0.84505498 1246376219
0.28238899 0.737867 0.84591299 1245520911
0.27810201 0.73970097 0.844163 1247297062
0.27982599 0.74119699 0.84412998 1246705439
0.96262002 0.79467499 1.2438 1244866594
0.96109903 0.79665101 1.24275 1243748114
0.96466702 0.79645002 1.24376 1246313782
0.95957798 0.79862702 1.24169 1226379275
0.96314502 0.79842597 1.24271 1244932387
0.96671301 0.79822499 1.2437201 1247430975
0.96162403 0.80040199 1.24165 1243813906
0.96367002 0.80217701 1.2416101 1245063973
0.62338299 0.66636503 1.00887 1249668959
0.621997 0.66809499 1.00796 1249800545
0.625166 0.66796398 1.00881 1249537373
0.62061101 0.669824 1.00705 1249866338
0.62378001 0.66969299 1.00791 1249405787
0.62694901 0.66956198 1.00876 1248747857
0.62239403 0.67142302 1.007 1249142615
0.62417698 0.67302102 1.00694 1248747857
0.967094 0.69331199 1.19829 1247102263
0.96559203 0.69518602 1.1973 1246378541
0.96902603 0.69504398 1.19823 1247759934
0.96408999 0.69705999 1.1963201 1245917993
0.96752399 0.69691801 1.19725 1247168056
0.97095799 0.69677597 1.1981699 1248154692
0.96602201 0.69879198 1.19626 1246444334
0.96795398 0.70052397 1.19621 1247102263
0.26552901 0.710302 0.76863402 1247690276
0.26433101 0.71185797 0.76780099 1245980431
0.26714101 0.71169901 0.76860303 1248611118
0.26313299 0.71341401 0.766967 1245585932
0.26594299 0.713256 0.76776999 1246966553
0.26875299 0.71309698 0.76857197 1248742189
0.264745 0.71481198 0.766936 1245519625
0.26635599 0.71621001 0.76690602 1246572052
0.517667 0.69041699 1.00822 1267365216
0.51624501 0.692191 1.00729 1269076088
0.51949698 0.69205701 1.00816 1248219711
0.51482302 0.69396597 1.00635 1268878452
0.51807499 0.69383198 1.00723 1268154732
0.52132702 0.69369799 1.00811 1247496244
0.516653 0.69560599 1.0063 1268943732
0.51848203 0.69724703 1.00625 1268351854
0.61000103 0.67704499 1.00665 1249668959
0.60860997 0.67878097 1.00574 1249668959
0.61179101 0.67865002 1.0066 1249339994
0.60721898 0.680516 1.00482 1249734752
0.61040002 0.68038499 1.00568 1249339994
0.61357999 0.68025398 1.0065399 1248616271
0.60900903 0.68212098 1.00477 1249011029
0.610798 0.683725 1.00472 1248747857
0.135858 0.94770199 1.18049 1246638880
0.134124 0.94995302 1.1792901 1246573600
0.138189 0.94972402 1.18045 1247427882
0.13239101 0.952205 1.17808 1246573600
0.136456 0.951976 1.17924 1247165223
0.140521 0.95174599 1.1804 1247887917
0.13472199 0.95422697 1.17804 1247231015
0.137054 0.956249 1.17799 1247625773
0.070425302 0.93605399 1.39961 1267035992
0.068385497 0.93859899 1.39827 1249599817
0.073049396 0.938407 1.3995301 1267101015
0.066345602 0.941145 1.39693 1248876093
0.0710098 0.940952 1.39819 1249797455
0.075673699 0.94076002 1.3994499 1267495773
0.068969801 0.943497 1.39685 1249600074
0.071594097 0.94585001 1.39678 1249863248
0.89702201 0.71959102 1.20459 1247891778
0.895486 0.72150803 1.20359 1248615758
0.89899898 0.72136301 1.20454 1246904883
0.89394897 0.72342497 1.20258 1249010259
0.89746201 0.72328001 1.20353 1247825985
0.900976 0.72313499 1.2044801 1246641711
0.895926 0.72519702 1.20252 1248615501
0.89790201 0.726969 1.2024601 1247694399
0.111228 0.89623702 1.31706 1247823408
0.1093 0.898642 1.3158 1247033636
0.113708 0.89845997 1.31699 1248020786
0.107371 0.901048 1.31454 1246704671
0.11178 0.90086597 1.31573 1247428393
0.116189 0.900684 1.31692 1248349749
0.109852 0.90327197 1.31446 1247099429
0.112333 0.905496 1.3143899 1247428393
0.89139003 0.82635498 1.23022 1247959376
0.88985199 0.82835197 1.2291501 1248420180
0.89345801 0.82814801 1.23018 1247498827
