# .PCD v0.7 - Point Cloud Data file format
VERSION 0.7
FIELDS x y z rgb
SIZE 4 4 4 4
TYPE F F F U
COUNT 1 1 1 1
WIDTH 1140
HEIGHT 1
VIEWPOINT 0 0 0 1 0 0 0
POINTS 1140
DATA ascii
-0.51367098 -0.0047099302 1.24824 1267759980
-0.51866502 -0.0032765099 1.24824 1270259858
-0.51700002 -0.0018452801 1.24824 1269733514
2.43538 -0.026739299 4.0364699 1269868188
2.4299901 -0.0221036 4.0364699 1270394533
2.4407699 -0.022107201 4.0364699 1270197154
2.4245999 -0.017467899 4.0364799 1269210259
2.43538 -0.0174715 4.0364699 1269276052
2.4461601 -0.017475 4.0364699 1269407638
2.4299901 -0.0128358 4.0364799 1268091778
2.43538 -0.0082036601 4.0364799 1267433594
3.8304999 -0.0403542 6.0529499 1269802906
3.8224199 -0.033402301 6.0529599 1269671320
3.8385799 -0.033407699 6.0529499 1269539734
3.8143401 -0.026450399 6.0529699 1269013390
3.8304999 -0.026455799 6.0529599 1268947597
3.8466599 -0.0264611 6.0529499 1268881804
3.8224199 -0.019503901 6.0529699 1267631737
3.8305099 -0.0125573 6.0529699 1267763323
0.090054199 -0.0038956699 0.79282898 1270660915
0.088996701 -0.0029857701 0.79282999 1270989882
0.091112196 -0.00298646 0.79282898 1270989882
0.0879393 -0.00207586 0.792831 1270858041
0.090054803 -0.0020765599 0.79282999 1270858041
0.092170298 -0.0020772601 0.79282898 1270858041
0.088997297 -0.00116665 0.792831 1270726455
0.090055399 -0.000257445 0.792831 1270660670
0.35925299 -0.0062858299 1.22097 1269011067
0.35762399 -0.0048841699 1.22098 1268220525
0.360883 -0.00488524 1.22097 1269537668
0.355995 -0.0034825001 1.22098 1266970455
0.359254 -0.00348358 1.22097 1269076604
0.36251301 -0.00348465 1.22097 1269932171
0.35762501 -0.0020819199 1.22098 1268286318
0.35925499 -0.00068132801 1.22098 1268945274
0.461761 -0.0066830898 1.28855 1268946308
0.460042 -0.0052037602 1.28856 1269998996
0.46348199 -0.0052048899 1.28855 1268814722
0.458323 -0.00372443 1.28856 1270525340
0.46176201 -0.0037255599 1.28856 1271578028
0.465202 -0.0037267001 1.28855 1269670031
0.46004301 -0.0022462399 1.28856 1271117477
0.46176299 -0.00076804199 1.28856 1269209480
-0.41061601 -0.00474616 1.24871 1269142147
-0.41228101 -0.0033132201 1.24872 1249864797
-0.40895 -0.00331432 1.24871 1267892080
-0.413946 -0.00188028 1.24872 1269142147
-0.410615 -0.00188138 1.24872 1267957873
-0.40728301 -0.00188247 1.24871 1268813182
-0.41227999 -0.000448434 1.24872 1270721179
-0.41061401 0.00098341098 1.24872 1269273733
0.062456802 -0.00219168 0.83320498 1270594614
0.0613456 -0.00123544 0.833206 1270989377
0.063568801 -0.0012361699 0.83320498 1271055169
0.060234301 -0.00027920099 0.83320701 1270265662
0.062457498 -0.000279934 0.833206 1270463042
0.064680703 -0.00028066599 0.83320397 1270463042
0.061346199 0.00067630602 0.83320701 1248619804
0.062458102 0.00163181 0.83320701 1244738053
0.073604599 -0.00219644 0.833552 1270726200
0.072492898 -0.0012398 0.83355302 1270791998
0.074717 -0.0012405301 0.83355099 1270923583
0.0713811 -0.00028315099 0.83355403 1270528835
0.073605202 -0.000283884 0.83355302 1270726214
0.075829402 -0.00028461701 0.83355099 1270857799
0.072493501 0.00067276199 0.83355403 1249277734
0.073605902 0.00162868 0.83355403 1244606211
0.081463397 -0.0022013399 0.834297 1270857529
0.0803506 -0.00124383 0.83429801 1270923325
0.082576796 -0.00124457 0.834297 1270923325
0.079237901 -0.00028632701 0.83429998 1270791747
0.081464 -0.000287061 0.83429801 1270791747
0.083690196 -0.00028779401 0.834297 1270791491
0.080351301 0.00067044701 0.83429903 1249540645
0.0814647 0.00162722 0.83429903 1244738050
0.095337801 -0.0021901501 0.829166 1270858041
0.094231904 -0.00123852 0.82916701 1270726455
0.096444398 -0.0012392499 0.829166 1270726455
0.093125999 -0.000286895 0.82916802 1270660670
0.095338501 -0.00028762399 0.82916701 1270660671
0.097551003 -0.00028835301 0.829166 1270726464
0.0942325 0.00066400302 0.82916802 1249541671
0.095339097 0.0016149 0.82916802 1244147200
0.35686901 -0.0035620299 1.24672 1267365216
0.35520601 -0.0021308099 1.24672 1269470592
0.35853299 -0.0021319101 1.24672 1249469519
0.353542 -0.000699592 1.24672 1269471364
0.35687 -0.00070068898 1.24672 1267431009
0.36019701 -0.00070178497 1.24672 1267101785
0.355207 0.00073053001 1.24672 1269536385
0.35687101 0.00216065 1.24672 1267036251
0.038027599 -0.00122882 0.83376998 1270923080
0.0369155 -0.00027194701 0.83377099 1270199112
0.039140198 -0.00027267999 0.83376902 1270067781
0.035803501 0.00068492198 0.833772 1248816416
0.038028199 0.00068418903 0.83376998 1248619294
0.040252902 0.00068345602 0.83376902 1248488220
0.0369162 0.00164106 0.833772 1245395462
0.038028799 0.00259719 0.83377099 1245724430
0.35701299 -0.00070112501 1.24722 1267431009
0.355349 0.00073066499 1.24722 1269536385
0.35867801 0.00072956801 1.24722 1249206347
0.35368499 0.00216245 1.24722 1269405571
0.357014 0.0021613601 1.24722 1267036251
0.360342 0.00216026 1.24722 1267101785
0.35534999 0.0035931501 1.24722 1269733764
0.35701501 0.0050238399 1.24722 1267431009
0.61170602 -0.00082945102 1.3038 1269209738
0.60996598 0.00066748902 1.3038 1269012359
0.61344701 0.00066634198 1.3038 1267959671
0.60822701 0.00216443 1.3038 1269209738
0.61170697 0.00216328 1.3038 1270986149
0.61518699 0.0021621301 1.3038 1270920356
0.60996699 0.00366022 1.3038 1270196633
0.61170799 0.0051560099 1.3038 1269670289
-0.59862101 0.0024665899 1.24146 1268220527
-0.60027701 0.0038910599 1.24146 1268681078
-0.59696501 0.00388996 1.24146 1267562597
-0.60193199 0.0053155199 1.24146 1268615285
-0.59862 0.0053144302 1.24146 1269470594
-0.59530801 0.0053133401 1.24146 1268681078
-0.60027599 0.0067389002 1.24146 1269010043
-0.59861898 0.0081622796 1.24146 1268088941
-0.190349 0.00174873 0.85558999 1246839351
-0.19148999 0.0027304799 0.855591 1247299389
-0.189208 0.00272973 0.85558999 1247103040
-0.19263101 0.0037122299 0.85559201 1246772786
-0.190349 0.0037114799 0.855591 1246576438
-0.18806601 0.00371073 0.85558897 1246379833
-0.191489 0.0046932301 0.85559201 1246312496
-0.190348 0.0056742299 0.85559201 1246247473
0.35700399 0.0021613101 1.24719 1267036251
0.35534 0.00359306 1.24719 1269733764
0.35866901 0.0035919701 1.24719 1249403726
0.35367599 0.0050248201 1.24719 1269800329
0.357005 0.0050237202 1.24719 1267431009
0.36033401 0.0050226199 1.24719 1267035992
0.35534099 0.0064554699 1.24719 1269404799
0.35700601 0.0078861304 1.24719 1267167837
0.35831001 0.0021247501 1.22331 1267825766
0.35667801 0.00352909 1.22331 1266838869
0.359943 0.0035280101 1.22331 1268879481
0.355046 0.0049334201 1.22331 1266772820
0.358311 0.00493235 1.22331 1267825767
0.36157599 0.0049312701 1.22331 1269735047
0.35667899 0.0063366801 1.22331 1266904919
0.35831201 0.0077399402 1.22331 1267628388
0.385124 0.0049919402 1.2412601 1270525853
0.383468 0.0064169001 1.2412601 1269736337
0.38678101 0.00641581 1.2412601 1270262681
0.38181201 0.0078418702 1.2412601 1271183783
0.38512501 0.0078407703 1.2412601 1270657439
0.38843799 0.0078396797 1.2412601 1270591646
0.38346899 0.0092657404 1.2412601 1271907506
0.38512599 0.0106896 1.2412601 1270789025
0.13974699 0.0045243902 0.84333301 1247367996
0.138622 0.00549231 0.84333402 1246249774
0.140873 0.0054915701 0.84333301 1247170365
0.13749801 0.0064602299 0.84333599 1244079378
0.13974801 0.0064594899 0.84333402 1246710843
0.14199799 0.00645875 0.84333301 1247170623
0.138623 0.0074274102 0.84333497 1245131811
0.13974901 0.0083945896 0.84333497 1245855534
0.46622801 0.0069606001 1.35642 1269604239
0.46441799 0.0085178399 1.35642 1270459548
0.46803799 0.0085166497 1.35642 1270788513
0.46260801 0.0100751 1.35642 1270130582
0.46622899 0.0100739 1.35642 1270920099
0.46984899 0.0100727 1.35642 1270722720
0.46441901 0.0116311 1.35642 1270130583
0.46623001 0.0131872 1.35642 1268683137
0.35836199 0.0077409502 1.22348 1267628388
0.35673001 0.0091454796 1.22348 1266904662
0.35999501 0.0091444096 1.22348 1268747895
0.355097 0.01055 1.22348 1266904406
0.358363 0.0105489 1.22348 1267694181
0.361628 0.0105479 1.22348 1269800840
0.35673001 0.0119535 1.22348 1267167835
0.35836399 0.0133569 1.22348 1268023146
2.0178199 0.0197058 3.2723501 1269211798
2.0134499 0.023463899 3.2723501 1269211799
2.0221901 0.023460999 3.2723501 1269211799
2.0090799 0.027222 3.2723601 1269277592
2.0178199 0.0272191 3.2723501 1269277592
2.0265601 0.0272162 3.2723501 1269277592
2.0134499 0.030977201 3.2723601 1269343642
2.0178199 0.034732401 3.2723601 1269277851
0.54983801 0.0106805 1.2465301 1269209738
0.54817498 0.0121116 1.24654 1269407117
0.551503 0.0121105 1.2465301 1269275531
0.54651201 0.0135428 1.24654 1270788770
0.54983902 0.0135417 1.24654 1270328219
0.55316699 0.0135406 1.2465301 1269407117
0.54817599 0.0149728 1.24654 1270722977
0.54983997 0.0164029 1.24654 1269670289
0.64259899 0.0123394 1.44763 1269801875
0.64066702 0.0140015 1.44763 1269275531
0.64453101 0.0140002 1.44763 1267762292
0.638735 0.0156636 1.44763 1270328219
0.6426 0.015662299 1.44763 1269407117
0.64646399 0.015660999 1.44763 1268683394
0.64066797 0.017324399 1.44763 1270262426
0.64260101 0.018985201 1.44763 1270920356
0.064098299 0.00752554 0.74973798 1245727006
0.063098297 0.0083859498 0.74973899 1246910511
0.065098703 0.0083852904 0.74973798 1246910511
0.062098399 0.0092463503 0.74974 1266713438
0.064098798 0.00924569 0.74973899 1266845025
0.066099197 0.0092450297 0.74973798 1249870429
0.0630989 0.0101061 0.74974 1267304037
0.064099401 0.0109658 0.74974 1267631465
0.069755003 0.0075905598 0.75674099 1245924131
0.068745703 0.0084590102 0.756742 1246647340
0.070764802 0.0084583499 0.75674099 1246647086
0.067736499 0.0093274601 0.75674301 1249673051
0.069755599 0.0093267998 0.756742 1249607002
0.071774699 0.0093261302 0.75674099 1249344087
0.068746299 0.0101952 0.75674301 1267369831
0.069756202 0.011063 0.75674301 1267960429
0.582856 0.0127377 1.31329 1269143945
0.58110398 0.0142455 1.31329 1269472910
0.58460897 0.0142444 1.31329 1268814980
0.57935101 0.015753301 1.3133 1270657184
0.58285701 0.0157522 1.31329 1271249321
0.58636302 0.015751 1.31329 1270459805
0.58110499 0.01726 1.3133 1270065047
0.58285803 0.018766601 1.3133 1269078152
0.26460901 0.0127679 1.0526299 1270524311
0.26320499 0.0139762 1.0526299 1270721690
0.26601401 0.0139753 1.0526299 1270392725
0.261801 0.0151845 1.0526299 1270458518
0.26460999 0.0151836 1.0526299 1270984862
0.26741901 0.0151827 1.0526299 1271182241
0.26320601 0.016391899 1.0526299 1270261139
0.26461101 0.0175993 1.0526299 1270326932
0.137179 0.0110981 0.82794499 1245656869
0.136075 0.0120484 0.82794702 1249209687
0.138284 0.0120477 0.82794499 1245920038
0.13496999 0.0129986 0.82794797 1267829361
0.13718 0.0129979 0.82794601 1249143380
0.13938899 0.0129972 0.82794499 1246576940
0.136075 0.0139482 0.82794797 1267762797
0.13718 0.0148977 0.82794702 1267301733
0.36091799 0.016204599 1.2266001 1268813689
0.359281 0.017612699 1.2266001 1268023146
0.362555 0.0176116 1.2266001 1269735047
0.357645 0.0190208 1.2266001 1267365213
0.360919 0.019019701 1.2266001 1268813689
0.36419299 0.0190186 1.2266001 1270064014
0.35928199 0.020427801 1.2266001 1268023146
0.36092001 0.021834901 1.2266001 1268747895
-0.0740171 0.0129181 0.76118702 1268352883
-0.0750321 0.0137916 0.76118797 1268484728
-0.0730014 0.0137909 0.761186 1268222069
-0.076047197 0.014665 0.76118898 1268419194
-0.074016497 0.0146644 0.76118797 1268485242
-0.071985804 0.0146637 0.761186 1268288376
-0.075031497 0.0155378 0.76118898 1248616271
-0.0740159 0.0164106 0.76118898 1245787430
-0.095063202 0.013759 0.758973 1268090739
-0.096075296 0.0146299 0.75897402 1268090997
-0.094050497 0.0146292 0.758973 1268156791
-0.097087398 0.0155008 0.75897503 1246774323
-0.095062599 0.0155001 0.75897402 1246840117
-0.093037799 0.0154995 0.758973 1246971959
-0.0960747 0.016371001 0.75897503 1244603926
-0.095062003 0.0172412 0.75897503 1245656618
-0.068916202 0.0137849 0.76091802 1268156533
-0.069930904 0.014658 0.76091897 1268419963
-0.067900904 0.0146574 0.76091802 1268551293
-0.070945702 0.0155312 0.76091999 1248814163
-0.068915598 0.0155305 0.76091897 1248879955
-0.066885598 0.0155298 0.76091701 1249077334
-0.069930397 0.016403601 0.76091999 1245261343
-0.068915099 0.017276101 0.76091999 1245920302
0.053581402 0.0136672 0.75643998 1268550776
0.052572601 0.0145353 0.756441 1268419448
0.054590899 0.0145346 0.75643998 1268485241
0.051563799 0.0154034 0.75644201 1268025204
0.053582001 0.0154027 0.756441 1268156790
0.0556003 0.015402 0.75643998 1268419962
0.0525732 0.0162708 0.75644201 1268486268
0.053582601 0.0171382 0.75644201 1249801314
0.41531399 0.022628799 1.27275 1269998996
0.413616 0.024089999 1.27275 1269604751
0.41701299 0.0240888 1.27275 1269604238
0.41191801 0.025551099 1.27275 1271446955
0.415315 0.02555 1.27275 1270262168
0.41871199 0.025548801 1.27275 1270525340
0.41361701 0.0270111 1.27275 1271117990
0.41531599 0.028471099 1.27275 1270459547
-0.53854799 0.024075501 1.2558399 1269010043
-0.540223 0.025516501 1.2558399 1268352113
-0.53687298 0.0255154 1.2558399 1268022894
-0.54189801 0.026957501 1.2558399 1269010043
-0.53854799 0.0269564 1.2558399 1268154734
-0.53519702 0.026955299 1.2558399 1268022896
-0.54022199 0.0283974 1.2558399 1269273215
-0.53854698 0.029837299 1.2558399 1268352113
-0.44648701 0.0240489 1.25598 1268088941
-0.44816199 0.0254902 1.25598 1267694183
-0.44481099 0.025489099 1.25598 1268352113
-0.449837 0.026931399 1.25599 1268878457
-0.446486 0.026930301 1.25598 1268549492
-0.44313601 0.0269292 1.25598 1269141629
-0.44816101 0.0283716 1.25599 1269799559
-0.44648501 0.029811701 1.25599 1269470594
-0.15919299 0.0148672 0.77057499 1247564618
-0.16022 0.015751399 0.770576 1247038274
-0.15816399 0.015750701 0.77057499 1247169860
-0.161248 0.0166355 0.77057701 1245854000
-0.159192 0.0166348 0.770576 1246643516
-0.15713599 0.0166342 0.77057499 1246314551
-0.16022 0.017519001 0.77057701 1245657136
-0.159191 0.0184025 0.77057701 1245525550
-0.060495201 0.0145832 0.75708598 1268157049
-0.0615048 0.015452 0.75708699 1249471837
-0.059485 0.0154513 0.75708598 1249801829
-0.062514402 0.0163207 0.75708801 1245195550
-0.060494602 0.0163201 0.75708699 1244998942
-0.058474801 0.0163194 0.75708598 1245393956
-0.0615042 0.0171888 0.75708801 1245590824
-0.060494099 0.018056899 0.75708801 1245789231
0.00316566 0.0146895 0.76383901 1268879999
0.00214698 0.0155661 0.76384002 1269012099
0.0041849101 0.0155654 0.76383901 1268946306
0.00112831 0.016442601 0.76384097 1267236201
0.0031662299 0.0164419 0.76384002 1267367531
0.0052041602 0.016441301 0.76383901 1267433324
0.00214756 0.0173185 0.76384097 1245985577
0.0031668099 0.018194299 0.76384097 1245854504
0.0152864 0.0145926 0.75886798 1268945792
0.0142744 0.0154634 0.75886899 1268617341
0.016299 0.0154627 0.75886798 1268617341
0.0132623 0.016334301 0.75887001 1267696496
0.015287 0.016333601 0.75886899 1267630960
0.0173117 0.0163329 0.75886798 1267696753
0.0142749 0.0172044 0.75887001 1246446127
0.0152876 0.0180746 0.75887001 1245854504
0.045814399 0.0146305 0.76141202 1268287862
0.044798899 0.0155043 0.76141298 1268485755
0.046830401 0.0155036 0.76141202 1268222583
0.0437834 0.016378099 0.76141399 1268222840
0.045814998 0.016377401 0.76141298 1268222840
0.0478465 0.016376801 0.76141101 1268354682
0.044799499 0.017251199 0.76141399 1249012311
0.045815501 0.018124299 0.76141399 1246183469
0.081718698 0.0140071 0.72873002 1268353142
0.0807468 0.0148434 0.72873098 1268156276
0.082691103 0.0148427 0.72873002 1268287862
0.079774901 0.0156797 0.72873199 1268156790
0.081719302 0.015679 0.72873098 1268222583
0.083663598 0.0156784 0.72873002 1268551291
0.080747403 0.0165153 0.72873199 1267499118
0.081719801 0.017351 0.72873199 1248025160
-0.021197399 0.015505 0.76039702 1268288376
-0.0222115 0.0163776 0.76039797 1248155976
-0.0201828 0.0163769 0.760396 1248485195
-0.0232256 0.017250201 0.76039898 1246906424
-0.0211969 0.0172495 0.76039797 1246445871
-0.0191682 0.0172488 0.760396 1246248492
-0.0222109 0.018122099 0.76039898 1246183215
-0.0211963 0.018994 0.76039898 1246315058
0.00214237 0.0155441 0.762734 1269012099
0.00112517 0.016419301 0.76273501 1267236201
0.00316014 0.016418699 0.762734 1267367531
0.000107971 0.017294601 0.76273602 1245985320
0.00214295 0.017294001 0.76273501 1245985577
0.0041779201 0.0172933 0.762734 1245985833
0.00112575 0.0181692 0.76273602 1245920298
0.0021435199 0.019043799 0.76273602 1246315569
0.0041681798 0.0155168 0.76139301 1268946306
0.00315277 0.016390501 0.76139402 1267367531
0.0051841601 0.0163898 0.761392 1267433324
0.0021373499 0.0172642 0.76139498 1245985577
0.0041687498 0.017263601 0.76139301 1245985833
0.0062001501 0.0172629 0.761392 1245919784
0.00315334 0.0181373 0.76139498 1245854504
0.00416933 0.0190104 0.76139402 1246315569
0.0071750199 0.015442 0.75767899 1269077892
0.0061645601 0.0163115 0.75768 1267301994
0.00818606 0.0163108 0.75767899 1267564910
0.00515411 0.017181 0.75768101 1246051113
0.0071756002 0.017180299 0.75768 1245985577
0.0091970898 0.017179601 0.75767899 1246182955
0.0061651398 0.018049801 0.75768101 1245854504
0.0071761701 0.0189186 0.75768101 1246183983
0.057472602 0.015364 0.75455701 1268222583
0.056466199 0.0162299 0.75455803 1268222840
0.058479499 0.0162293 0.754556 1268288633
0.055459902 0.017095899 0.75455898 1249538655
0.057473101 0.017095201 0.75455701 1249472605
0.0594864 0.0170945 0.754556 1249603935
0.056466799 0.0179611 0.75455898 1246051626
0.0574737 0.018826401 0.75455803 1246381106
0.085205898 0.0152767 0.750606 1268287862
0.0842048 0.016138099 0.75060701 1268222583
0.086207502 0.016137499 0.750606 1268551291
0.083203703 0.0169995 0.75060803 1267499118
0.085206397 0.0169989 0.75060701 1267959926
0.087209202 0.0169982 0.75060499 1268091512
0.084205396 0.017860301 0.75060803 1248025160
0.085207 0.018720999 0.75060803 1247499074
0.090477802 0.0153183 0.75278199 1268024690
0.089473799 0.016182199 0.752783 1268222583
0.091482297 0.016181501 0.75278199 1268353912
0.088469803 0.0170461 0.75278401 1267499119
0.090478301 0.0170455 0.752783 1267499632
0.092486903 0.017044799 0.75278097 1267828340
0.089474298 0.0179094 0.75278401 1248485711
0.090478897 0.0187726 0.75278401 1247236158
0.091543399 0.0153278 0.75327998 1268090483
0.090538703 0.0161923 0.753281 1268156791
0.092548601 0.0161917 0.75327897 1268288376
0.089534 0.0170568 0.75328201 1267499118
0.091543898 0.017056201 0.753281 1267828083
0.093553796 0.0170555 0.75327897 1267762290
0.090539299 0.0179206 0.75328201 1248617553
0.091544501 0.018784501 0.753281 1247499074
0.055360101 0.0162024 0.75322998 1268683647
0.054355498 0.017066799 0.75323099 1249735521
0.056365199 0.017066101 0.75322902 1249472605
0.053350899 0.017931201 0.753232 1246249262
0.0553606 0.0179305 0.75323099 1245986347
0.057370301 0.0179299 0.75322902 1245920554
0.054356098 0.0187949 0.753232 1246644278
0.0553612 0.0196587 0.75323099 1246644793
0.0632976 0.016174899 0.752042 1268288889
0.062294599 0.0170379 0.75204301 1249867364
0.0643012 0.0170373 0.75204098 1266973288
0.061291602 0.017901 0.75204402 1245920297
0.063298203 0.017900299 0.75204301 1245986090
0.065304697 0.0178997 0.75204098 1246249262
0.062295198 0.018763401 0.75204402 1246315313
0.063298702 0.0196258 0.75204301 1246776378
0.079967998 0.016290899 0.75781101 1268223096
0.078957297 0.0171606 0.75781202 1267631218
0.080979198 0.0171599 0.75781 1267630961
0.077946603 0.018030301 0.75781298 1247631172
0.079968497 0.0180296 0.75781101 1248157516
0.081990503 0.0180289 0.75781 1248025417
0.0789579 0.018899299 0.75781298 1247368001
0.079969101 0.0197683 0.75781202 1246710586
0.089460097 0.0161798 0.75266999 1268222583
0.088456303 0.0170436 0.752671 1267499119
0.090464599 0.017043 0.75266898 1267499632
0.087452501 0.0179074 0.75267202 1248551761
0.089460701 0.017906699 0.75266999 1248485711
0.091468997 0.0179061 0.75266898 1248946005
0.088456899 0.018770499 0.75267202 1246972987
0.089461297 0.0196336 0.752671 1246775866
0.56559002 0.0276583 1.30582 1270196633
0.56384701 0.029157501 1.30583 1269801875
0.56733298 0.0291564 1.30582 1269341324
0.562105 0.030656699 1.30583 1269867668
0.56559098 0.0306556 1.30583 1269472910
0.569076 0.030654401 1.30582 1267959671
0.56384802 0.032154799 1.30583 1269933461
0.56559199 0.033652801 1.30583 1270262426
0.084209099 0.0171977 0.75956202 1267499118
0.083196104 0.0180694 0.75956398 1247893830
0.085222803 0.0180688 0.75956202 1248025160
0.0821831 0.018941101 0.759565 1247302208
0.084209703 0.018940501 0.75956303 1247170110
0.086236402 0.018939801 0.75956202 1247499074
0.0831967 0.0198122 0.75956398 1246841658
0.084210299 0.020683199 0.75956398 1246644282
0.105414 0.0167122 0.73796397 1268617341
0.10443 0.0175591 0.73796499 1249669213
0.106399 0.0175585 0.73796397 1249735006
0.103446 0.018406 0.737966 1246708787
0.105415 0.0184054 0.73796499 1246905909
0.107384 0.0184047 0.73796302 1246774579
0.10443 0.0192523 0.737966 1246774837
0.105415 0.020098601 0.73796499 1246972475
0.124254 0.019631701 0.78832901 1247366460
0.123202 0.0205364 0.78833002 1247038009
0.125306 0.0205357 0.78832799 1247038008
0.122151 0.021441201 0.78833097 1246775096
0.124254 0.0214405 0.78833002 1247038268
0.126358 0.0214398 0.78832799 1246906680
0.123203 0.0223452 0.78833097 1246511669
0.124255 0.0232493 0.78833097 1246709049
0.357445 0.031671099 1.2259099 1267628641
0.35580999 0.033078399 1.2259099 1267167577
0.35908201 0.0330774 1.2259099 1268549490
0.35417399 0.034485701 1.22592 1267035991
0.35744601 0.034484699 1.2259099 1267694178
0.36071801 0.0344836 1.2259099 1269011067
0.355811 0.035891999 1.22592 1267101784
0.357447 0.037298199 1.22592 1267957349
-0.073494099 0.0195651 0.71594399 1245394480
-0.074448802 0.020386601 0.71594501 1245197101
-0.072538897 0.020385999 0.71594298 1245460016
-0.075403497 0.0212081 0.71594602 1244802343
-0.073493503 0.0212075 0.71594399 1244801829
-0.071583599 0.0212068 0.71594298 1245065001
-0.074448302 0.022028999 0.71594501 1244012311
-0.073492996 0.0228498 0.71594501 1243617296
-0.0592416 0.0192743 0.70524299 1245592372
-0.060182001 0.0200835 0.705244 1245723702
-0.058300599 0.0200829 0.70524198 1245920824
-0.061122499 0.0208927 0.70524502 1245262894
-0.059241101 0.0208921 0.70524299 1245394480
-0.057359699 0.020891501 0.70524198 1245591859
-0.060181499 0.021701301 0.70524502 1244078361
-0.059240501 0.022509901 0.705244 1243617553
0.41327399 0.0336027 1.2461801 1270064789
0.41161099 0.035033301 1.2461801 1269998996
0.41493699 0.035032202 1.2461801 1268748929
0.409949 0.036463901 1.2461801 1269998996
0.413275 0.036462899 1.2461801 1269341066
0.416601 0.0364618 1.2461801 1269867410
0.411612 0.0378935 1.2461801 1271117477
0.41327599 0.039322998 1.2461801 1269538445
-0.62744302 0.035448499 1.24946 1268549492
-0.62910903 0.036882099 1.24946 1267825769
-0.62577599 0.036881 1.24946 1267562597
-0.63077497 0.038315699 1.24946 1268483699
-0.627442 0.0383146 1.24946 1268286320
-0.62410903 0.038313501 1.24945 1267957355
-0.62910801 0.0397483 1.24946 1269141629
-0.62744099 0.041180801 1.24946 1268746871
0.052023899 0.020502901 0.721524 1246644284
0.0510616 0.0213309 0.72152501 1246183733
0.0529867 0.021330301 0.721524 1246117940
0.050099399 0.0221589 0.72152603 1246840895
0.052024402 0.022158301 0.72152501 1246906944
0.053949501 0.0221576 0.721524 1246182965
0.0510622 0.0229863 0.72152603 1248683099
0.052025001 0.0238136 0.72152603 1246248501
0.061869599 0.0205705 0.72405499 1246381368
0.060904 0.0214014 0.72405601 1246315319
0.062835798 0.021400699 0.72405398 1246381112
0.0599383 0.0222323 0.72405702 1246380600
0.061870199 0.022231599 0.72405499 1246446393
0.063801996 0.022231 0.72405398 1246446137
0.060904499 0.0230626 0.72405601 1248288084
0.061870702 0.023892799 0.72405601 1247498568
-0.514709 0.037004601 1.25489 1268878459
-0.51638198 0.0384445 1.2549 1270128271
-0.51303399 0.038443401 1.25489 1269667975
-0.51805502 0.0398844 1.2549 1268483447
-0.51470798 0.039883301 1.2549 1268681080
-0.51135999 0.039882202 1.25489 1267825771
-0.51638103 0.0413233 1.2549 1268088945
-0.51470703 0.042762101 1.2549 1268681079
-0.042836402 0.0211487 0.71424901 1245986101
-0.043788798 0.0219683 0.71425003 1244735523
-0.041883402 0.021967599 0.71424901 1244801316
-0.044741299 0.0227878 0.714252 1243682835
-0.042835802 0.0227872 0.71425003 1243748628
-0.040930402 0.022786601 0.71424901 1243748628
-0.043788299 0.0236068 0.71425098 1243945494
-0.042835299 0.0244257 0.71425098 1244143386
0.031027099 0.022287 0.72557098 1247104323
0.0300595 0.0231196 0.72557199 1248025169
0.0319953 0.023119001 0.72557098 1248222548
0.0290919 0.023952199 0.725573 1245458985
0.031027701 0.023951599 0.72557199 1245590572
0.032963499 0.023951 0.72557098 1245590572
0.030060099 0.0247842 0.725573 1243748368
0.0310282 0.025616201 0.725573 1244274972
0.038741801 0.022268699 0.72504598 1246840895
0.037774902 0.023100801 0.72504699 1248880478
0.0397093 0.0231001 0.72504598 1249012064
0.036807999 0.0239328 0.72504801 1245656364
0.038742401 0.0239322 0.72504699 1245787951
0.040676799 0.0239315 0.72504503 1245919280
0.037775401 0.024764201 0.72504801 1226773773
0.0387429 0.0255956 0.72504801 1244143385
0.0741207 0.021863701 0.71200001 1246314551
0.073171102 0.0226808 0.71200103 1247630411
0.075070798 0.022680201 0.71200001 1247761997
0.072221503 0.0234979 0.71200198 1247366982
0.0741212 0.0234973 0.71200103 1247103811
0.076020896 0.0234966 0.71200001 1247564362
0.073171601 0.024314299 0.71200198 1243748369
0.074121699 0.025130801 0.71200198 1243946007
0.050292101 0.0230716 0.72424102 1248683099
0.049326301 0.0239028 0.72424299 1246445624
0.051258601 0.0239021 0.72424102 1246380087
0.0483604 0.024733899 0.724244 1243879954
0.050292701 0.024733201 0.72424197 1243682575
0.052225001 0.024732601 0.72424102 1226773774
0.0493268 0.0255644 0.72424299 1244274972
0.0502932 0.026394799 0.72424299 1244274972
0.0522121 0.0230658 0.72407299 1248683099
0.051246401 0.0238967 0.72407401 1246380087
0.053178299 0.023895999 0.72407198 1246051122
0.050280798 0.0247276 0.72407502 1243682575
0.0522127 0.024727 0.72407299 1226773774
0.054144502 0.0247263 0.72407198 1243616527
0.051247001 0.0255579 0.72407401 1244274971
0.052213199 0.0263882 0.72407401 1244274972
0.056079499 0.023065999 0.72411698 1248946271
0.0551138 0.023896899 0.72411799 1246906431
0.057045799 0.023896299 0.72411698 1246906432
0.0541481 0.0247279 0.72411901 1243616527
0.056080099 0.0247273 0.72411799 1243682575
0.058012001 0.024726599 0.72411698 1243682575
0.0551144 0.0255583 0.72411901 1244274971
0.056080598 0.0263886 0.72411901 1244274972
0.072263002 0.0226938 0.71240699 1247696204
0.071312897 0.0235114 0.71240801 1247564361
0.073213696 0.0235107 0.71240699 1247169603
0.070362799 0.024328901 0.71240902 1244077333
0.072263502 0.024328301 0.71240801 1243945747
0.074164301 0.024327699 0.71240699 1243682577
0.071313404 0.025145801 0.71240902 1244011800
0.072264098 0.025962699 0.71240902 1244209179
0.088205501 0.0228744 0.71832299 1246511673
0.087247498 0.023698701 0.71832401 1247760970
0.089164101 0.023698101 0.71832299 1247169346
0.086289503 0.024522999 0.71832502 1244669470
0.088206097 0.0245224 0.71832401 1245129765
0.090122603 0.0245218 0.71832299 1244406811
0.087247998 0.025346801 0.71832502 1244077336
0.088206597 0.0261705 0.71832502 1244274972
0.140414 0.022930801 0.72063798 1246578489
0.13945299 0.0237578 0.72063899 1247170371
0.141376 0.023757201 0.72063702 1246972993
0.138492 0.024584901 0.72064 1247564618
0.140414 0.0245842 0.72063798 1247696718
0.14233699 0.0245836 0.72063702 1247499082
0.13945299 0.0254113 0.72063899 1244011799
0.140415 0.0262377 0.72063899 1244209179
0.428532 0.039649501 1.25675 1270459547
0.42685601 0.041092299 1.25675 1270459547
0.43020999 0.0410912 1.25675 1269538446
0.425179 0.0425351 1.25675 1269998996
0.42853299 0.042533901 1.25675 1269209480
0.43188801 0.042532802 1.25675 1269735825
0.42685699 0.043976702 1.25675 1269670031
0.428534 0.0454184 1.25675 1270196375
0.354707 0.041289799 1.17889 1270064272
0.35313499 0.0426431 1.17889 1269998478
0.35628101 0.042642102 1.17889 1270327445
0.35156199 0.043996502 1.17889 1269998222
0.35470799 0.043995399 1.17889 1270130065
0.35785499 0.043994401 1.17889 1270525340
0.353136 0.0453487 1.17889 1269998478
0.354709 0.046700999 1.17889 1270064272
1.95064 0.170994 4.92068 1269275531
1.94407 0.176644 4.9206901 1270065047
1.9572099 0.17664 4.92068 1268946566
1.9375 0.182294 4.9206901 1269604496
1.95064 0.18229 4.9206901 1269933461
1.96378 0.18228599 4.92068 1269341324
1.94407 0.18794 4.9206901 1270525598
1.95064 0.19358601 4.9206901 1270459805
0.026096201 0.0246369 0.67512798 1244209179
0.0251959 0.0254116 0.675129 1244143386
0.026997 0.025411099 0.67512798 1244143386
0.0242956 0.026186399 0.67513001 1244143386
0.0260967 0.026185799 0.675129 1244143386
0.0278979 0.0261852 0.67512798 1244143386
0.0251964 0.0269605 0.67513001 1244077593
0.026097201 0.0277346 0.67513001 1244077593
0.74079901 0.072498903 2.0128601 1269800848
0.73811299 0.074809901 2.0128601 1269077125
0.74348599 0.074808203 2.0128601 1269077125
0.73542702 0.077120997 2.0128601 1269866641
0.74080002 0.077119201 2.0128601 1268945539
0.74617302 0.077117503 2.0128601 1269142918
0.738114 0.079430297 2.0128601 1270919329
0.74080199 0.081739597 2.0128601 1271248294
-0.64602703 0.051501598 1.25647 1268088941
-0.64770198 0.0529433 1.25647 1268154734
-0.64435101 0.052942201 1.25646 1268615285
-0.649378 0.054384898 1.25647 1268220527
-0.64602602 0.054383799 1.25647 1267233632
-0.64267403 0.0543827 1.25646 1269799559
-0.64770103 0.055825401 1.25647 1267102046
-0.646025 0.057266001 1.25647 1269273215
-0.64879799 0.052896801 1.25534 1268549492
-0.65047097 0.054337099 1.25534 1268746871
-0.64712298 0.054336 1.25534 1267299425
-0.65214503 0.055777401 1.25535 1268286320
-0.64879698 0.055776302 1.25534 1267825769
-0.64544803 0.055775199 1.25534 1266707288
-0.65047002 0.0572167 1.25535 1268615285
-0.64879602 0.058655899 1.25535 1269075836
-0.64489102 0.054149698 1.2510099 1267299425
-0.646559 0.055585001 1.2510099 1267825769
-0.64322197 0.055583902 1.2510099 1266707288
-0.64822698 0.0570204 1.2510099 1268615285
-0.64489001 0.057019301 1.2510099 1269865352
-0.64155298 0.057018202 1.2510099 1268483699
-0.64655799 0.0584547 1.2510099 1269075836
-0.644889 0.059888899 1.2510099 1267957355
0.412736 0.059017502 1.27004 1270591133
0.411042 0.060475402 1.27004 1269801617
0.41443199 0.060474299 1.27004 1270393754
0.40934801 0.061933398 1.27004 1270459547
0.41273701 0.061932299 1.27004 1269406859
0.416127 0.0619312 1.27004 1269604238
0.41104299 0.0633903 1.27004 1270262168
0.412738 0.064847201 1.27004 1270064789
0.71171802 0.085624203 1.847 1269933204
0.70925301 0.087744899 1.847 1268617344
0.71418399 0.0877432 1.847 1269472653
0.70678902 0.089865498 1.847 1269670032
0.71171898 0.0898638 1.847 1269209481
0.716649 0.089862198 1.847 1268814723
0.70925498 0.091984503 1.847 1269012102
0.71171999 0.094103403 1.847 1267893621
0.72908199 0.094214797 1.8919801 1266972519
0.72655803 0.096387103 1.8919899 1269275274
0.73160797 0.096385397 1.8919801 1268551551
0.72403401 0.098559298 1.8919899 1269867411
0.72908401 0.098557703 1.8919899 1269341067
0.73413402 0.098555997 1.8919801 1269472653
0.72655898 0.10073 1.8919899 1269933204
0.72908503 0.102901 1.8919899 1269801618
0.64792597 0.0605928 1.21518 1268024953
0.64630502 0.061988 1.2151901 1267827574
0.64954901 0.061986901 1.21518 1267959160
0.64468402 0.063383102 1.2151901 1267893367
0.64792699 0.063382097 1.2151901 1267827574
0.65117103 0.063381001 1.21518 1267827574
0.64630598 0.0647773 1.2151901 1268156539
0.647928 0.0661714 1.2151901 1267893367
-0.416917 0.066445597 1.26803 1268088943
-0.41860801 0.067900702 1.26803 1268220527
-0.415225 0.0678996 1.26803 1267431013
-0.42029899 0.069355801 1.26803 1268549492
-0.41691601 0.069354698 1.26803 1268483700
-0.413533 0.069353603 1.26803 1268220529
-0.418607 0.0708097 1.26803 1269075836
-0.416915 0.072263703 1.26803 1268812666
0.55964702 0.068690203 1.26109 1269012359
0.55796498 0.070138097 1.26109 1269209738
0.56133097 0.070137002 1.26109 1268420222
0.55628198 0.071585901 1.2611001 1269407117
0.55964798 0.071584798 1.26109 1269538703
0.56301397 0.071583703 1.26109 1269341324
0.55796599 0.073032603 1.2611001 1270196633
0.55964899 0.074479297 1.2611001 1269933461
-0.43381599 0.089721702 1.26803 1269733768
-0.435507 0.0911768 1.26803 1269141631
-0.43212399 0.091175698 1.26803 1268483701
-0.43719801 0.092631802 1.26803 1268088943
-0.433815 0.092630699 1.26803 1268088943
-0.43043199 0.092629597 1.26803 1268286322
-0.43550599 0.094085798 1.26803 1267891564
-0.43381399 0.095539697 1.26803 1267891564
-0.53740698 0.095308997 1.24551 1267891564
-0.53906798 0.0967381 1.24551 1268352115
-0.53574502 0.096736997 1.24551 1267628392
-0.54072899 0.098167203 1.24551 1268549494
-0.53740603 0.098166101 1.24551 1268615287
-0.53408301 0.098164998 1.24551 1267759978
-0.53906697 0.099595197 1.24551 1269141631
-0.53740501 0.101023 1.24551 1268681080
0.164177 0.057218298 0.73651302 1244602905
0.163194 0.0580636 0.73651397 1244471833
0.165159 0.058063 0.73651302 1245392161
0.162212 0.058908898 0.73651499 1244538143
0.164177 0.058908202 0.73651397 1244734491
0.166142 0.058907598 0.73651302 1267695472
0.163195 0.0597535 0.73651499 1244603163
0.164178 0.060598101 0.73651499 1244800284
0.627904 0.092294201 1.17476 1269209481
0.62633598 0.093642898 1.17477 1269077895
0.62947202 0.0936419 1.17476 1269472653
0.62476897 0.094991699 1.17477 1268880516
0.62790501 0.094990604 1.17477 1269143688
0.63103998 0.094989598 1.17476 1268551551
0.62633699 0.096339397 1.17477 1268025207
0.62790501 0.097687103 1.17477 1266709347
-0.14158501 0.0590811 0.73761702 1208419074
-0.14256801 0.0599274 0.73761803 1225393925
-0.14060099 0.0599267 0.737616 1225854218
-0.14355201 0.0607737 0.73761898 1244999982
-0.14158399 0.060773 0.73761702 1243881501
-0.139617 0.0607724 0.737616 1226709527
-0.14256801 0.0616193 0.73761898 1244473638
-0.14158399 0.062465001 0.73761803 1226380562
0.49113399 0.100724 1.24534 1269998996
0.48947299 0.102153 1.24534 1270064789
0.49279699 0.102152 1.24534 1269538445
0.487811 0.103583 1.24534 1269340810
0.491135 0.103582 1.24534 1269274760
0.494459 0.103581 1.24534 1269011845
0.489474 0.105012 1.24534 1267761265
0.49113601 0.10644 1.24534 1266840163
-0.142698 0.0608286 0.73829299 1244407845
-0.143682 0.061675701 0.73829401 1244802603
-0.14171299 0.061675001 0.73829198 1226775320
-0.144666 0.062522799 0.73829502 1226314769
-0.14269701 0.062522098 0.73829299 1226446355
-0.140728 0.062521502 0.73829198 1226380562
-0.143681 0.0633692 0.73829502 1226314769
-0.14269599 0.0642156 0.73829401 1226380562
0.48736501 0.101374 1.2358 1269735824
0.485717 0.102792 1.23581 1269340553
0.48901501 0.102791 1.2358 1269143174
0.48406801 0.104211 1.23581 1267761265
0.48736599 0.10421 1.23581 1267629679
0.49066499 0.104209 1.2358 1267498093
0.48571801 0.105629 1.23581 1266840163
0.487367 0.107046 1.23581 1267432300
0.48796999 0.101158 1.23317 1269538445
0.486325 0.102574 1.23317 1269274760
0.48961699 0.102572 1.23317 1269011845
0.48468 0.103989 1.23317 1267761265
0.48797101 0.103988 1.23317 1267563886
0.491263 0.103987 1.23317 1267432300
0.48632601 0.105404 1.23317 1266840163
0.48797199 0.106818 1.23317 1267432300
-0.43711799 0.105298 1.26292 1267957357
-0.438802 0.106747 1.26292 1267102048
-0.435433 0.106746 1.26292 1267957357
-0.44048601 0.108196 1.26293 1268023150
-0.43711701 0.108195 1.26292 1267891564
-0.43374801 0.108194 1.26292 1268023150
-0.43880099 0.109644 1.26293 1269010045
-0.437116 0.111092 1.26292 1268154736
0.54019701 0.096297197 1.14194 1249866338
0.53867298 0.097608201 1.14194 1249734752
0.54172099 0.097607203 1.14194 1266709347
0.53714901 0.098919198 1.14194 1267169898
0.54019701 0.0989182 1.14194 1267301484
0.54324502 0.098917201 1.14194 1267433070
0.538674 0.100229 1.14194 1268880516
0.54019803 0.101539 1.14194 1270262169
0.557428 0.091391303 1.08369 1249339994
0.55598199 0.092635497 1.08369 1249603166
0.55887502 0.092634499 1.08369 1249537373
0.55453598 0.093879603 1.08369 1267301484
0.55742902 0.093878597 1.08369 1267235691
0.56032097 0.093877703 1.08369 1267367277
0.55598301 0.095122799 1.08369 1268354172
0.55743003 0.096365899 1.08369 1269077895
0.47418499 0.10042 1.1747 1266905956
0.47261801 0.101768 1.1747 1267695472
0.47575301 0.101767 1.1747 1267300714
0.47105101 0.103117 1.1747 1268221816
0.474186 0.103116 1.1747 1268024437
0.47732201 0.103115 1.1747 1267827058
0.472619 0.104464 1.1747 1269603469
0.47418699 0.105812 1.1747 1271117478
0.489268 0.101588 1.18845 1266774370
0.48768201 0.102953 1.18845 1267103335
0.490854 0.102952 1.18845 1267037542
0.48609701 0.104317 1.18845 1267892851
0.48926899 0.104316 1.18845 1267827058
0.492441 0.104315 1.18845 1267958644
0.487683 0.10568 1.18845 1269866641
0.48927 0.107044 1.18845 1270854306
0.52319402 0.101391 1.18624 1249536603
0.52161098 0.102752 1.18624 1267432300
0.524777 0.102751 1.18624 1267300714
0.520028 0.104114 1.18624 1267827058
0.52319503 0.104113 1.18624 1268287609
0.52636099 0.104112 1.18624 1267958644
0.52161199 0.105475 1.18624 1269735055
0.52319598 0.106836 1.18624 1270985892
0.52879798 0.096646398 1.13063 1249537373
0.52728999 0.097944401 1.13063 1267564656
0.53030801 0.097943403 1.13063 1267169898
0.52578098 0.099242397 1.13063 1268617344
0.528799 0.099241398 1.13063 1268617344
0.53181702 0.0992404 1.13063 1268814723
0.527291 0.100539 1.13063 1270327962
0.52880001 0.101836 1.13063 1270788513
0.52056301 0.093035698 1.0882699 1266709347
0.51911098 0.094285101 1.0882699 1267630449
0.52201599 0.094284199 1.0882699 1267827828
0.51765901 0.095534503 1.0882699 1269012102
0.52056402 0.095533498 1.0882699 1268880516
0.52346897 0.095532604 1.0882699 1268880516
0.51911199 0.0967829 1.0882699 1270064790
0.52056497 0.098031297 1.0882699 1270262169
0.54407299 0.095879599 1.12169 1266709347
0.54257703 0.097167403 1.12169 1267630449
0.54557103 0.097166397 1.12169 1267827828
0.54108 0.098455101 1.12169 1268880516
0.544074 0.098454103 1.12169 1268814723
0.547068 0.098453097 1.12169 1268814723
0.54257798 0.099741898 1.12169 1270130583
0.54407501 0.101029 1.12169 1270854306
0.47882399 0.104128 1.20202 1267432300
0.47722 0.105508 1.20202 1267827058
0.48042801 0.105507 1.20202 1268090230
0.47561601 0.106888 1.20202 1268945796
0.478825 0.106887 1.20202 1268879746
0.48203301 0.106886 1.20202 1269406346
0.47722101 0.108267 1.20202 1270591134
0.47882599 0.109646 1.20202 1271578029
0.507119 0.103028 1.18938 1267695472
0.50553298 0.104394 1.1893899 1268221816
0.50870699 0.104393 1.18938 1268221816
0.50394601 0.105759 1.1893899 1269537933
0.50712001 0.105758 1.1893899 1269011589
0.51029497 0.105757 1.18938 1269406090
0.50553298 0.107123 1.1893899 1270788513
0.50712103 0.108488 1.1893899 1271709615
0.51260102 0.103171 1.1910501 1267300714
0.51101202 0.104538 1.1910501 1268287609
0.51419097 0.104537 1.1910501 1267827058
0.50942302 0.105905 1.1910501 1269208968
0.51260197 0.105904 1.1910501 1269143174
0.51578099 0.105903 1.1910501 1269406090
0.51101297 0.107272 1.1910501 1270525341
0.51260298 0.108638 1.1910501 1271183271
0.539029 0.103049 1.18973 1267103335
0.53744203 0.104415 1.18973 1268287609
0.540618 0.104414 1.18973 1268287609
0.535855 0.105781 1.18973 1269735055
0.53903002 0.10578 1.18973 1269603469
0.54220599 0.105779 1.18972 1269866641
0.53744298 0.107145 1.18973 1270722720
0.53903103 0.10851 1.18973 1271314857
0.541861 0.101795 1.17523 1267498863
0.54029298 0.103144 1.17523 1268419965
0.54342902 0.103143 1.17523 1268617344
0.53872502 0.104494 1.17523 1269998997
0.541861 0.104493 1.17523 1270130583
0.54499799 0.104492 1.17523 1270130583
0.54029298 0.105842 1.17523 1271446443
0.54186201 0.10719 1.17523 1271183271
0.55333698 0.10131 1.16965 1267301484
0.55177701 0.102653 1.16966 1268880516
0.55489898 0.102652 1.16965 1269077895
0.55021602 0.103996 1.16966 1270393755
0.55333799 0.103995 1.16966 1270262169
0.55646002 0.103994 1.16965 1270262169
0.55177802 0.105338 1.16966 1270196376
0.553339 0.106679 1.16966 1271117478
0.53837001 0.095852204 1.09196 1268222843
0.53691298 0.097105801 1.09197 1269209738
0.539828 0.097104803 1.09196 1269209738
0.535456 0.098359399 1.09197 1270854563
0.53837103 0.0983584 1.09197 1270722977
0.54128498 0.098357499 1.09196 1270394012
0.53691399 0.099611998 1.09197 1270986149
0.53837198 0.100865 1.09197 1270722977
-0.432731 0.116522 1.27485 1268286322
-0.43443099 0.117985 1.27485 1268154736
-0.43103001 0.117984 1.27485 1268681080
-0.436131 0.119448 1.27485 1267694185
-0.43272999 0.119446 1.27485 1267562599
-0.42932901 0.119445 1.27485 1267628392
-0.43443 0.120909 1.27485 1249864281
-0.43272901 0.122371 1.27485 1249469523
-0.40329099 0.115872 1.2678 1268220529
-0.40498099 0.117327 1.2678 1267233634
-0.40159899 0.117326 1.2678 1268352115
-0.406672 0.118782 1.2678 1266707290
-0.40329 0.118781 1.2678 1267167841
-0.39990699 0.118779 1.2678 1268615287
-0.40498 0.120235 1.2678 1267102048
-0.40328899 0.121689 1.2678 1249732695
0.55388701 0.109555 1.20125 1271183271
0.552284 0.110935 1.20126 1270327962
0.55549002 0.110933 1.20125 1270656927
0.55068099 0.112314 1.20126 1270064790
0.55388802 0.112313 1.20126 1269538446
0.55709398 0.112312 1.20125 1269472653
0.55228502 0.113692 1.20126 1269012102
0.55388898 0.11507 1.20126 1268946309
0.59652799 0.106573 1.16861 1270985892
0.59496802 0.107914 1.16862 1270788513
0.59808803 0.107913 1.16861 1270788513
0.593409 0.109256 1.16862 1269604239
0.59652799 0.109255 1.16861 1269867411
0.599648 0.109254 1.16861 1269472653
0.59496897 0.110597 1.16862 1268354172
0.59652901 0.111937 1.16862 1268551551
0.58753401 0.103359 1.13328 1271183271
0.58602202 0.10466 1.1332901 1270788513
0.58904701 0.104659 1.13328 1270985892
0.58451003 0.105961 1.1332901 1269538446
0.58753502 0.10596 1.1332901 1269604239
0.59056002 0.105959 1.13328 1269670032
0.58602297 0.107262 1.1332901 1268156793
0.58753598 0.108562 1.1332901 1268288379
0.58647799 0.102648 1.12547 1271183271
0.58497602 0.10394 1.12547 1270985892
0.58798099 0.103939 1.12547 1271117478
0.58347499 0.105232 1.12547 1269604239
0.58647901 0.105231 1.12547 1269670032
0.58948302 0.10523 1.12547 1269801618
0.58497697 0.106523 1.12547 1267959414
0.58648002 0.107814 1.12547 1268222586
0.58705199 0.102486 1.12369 1271051685
0.58555299 0.103776 1.12369 1271117478
0.588552 0.103775 1.12369 1271183271
0.58405399 0.105066 1.1237 1269604239
0.587053 0.105065 1.12369 1269801618
0.59005201 0.105064 1.12369 1269275531
0.585554 0.106356 1.1237 1267959414
0.58705401 0.107645 1.1237 1268354172
-0.50526899 0.118268 1.27772 1268220527
-0.50697303 0.119735 1.27772 1268088941
-0.503564 0.119733 1.27772 1267431013
-0.50867599 0.121201 1.27772 1268023148
-0.50526798 0.1212 1.27772 1267431011
-0.50185901 0.121198 1.27772 1267825771
-0.50697201 0.122666 1.27772 1249864279
-0.50526702 0.124131 1.27772 1249403728
-0.48616901 0.117765 1.27232 1268154736
-0.48786601 0.119225 1.27232 1268352115
-0.48447099 0.119224 1.27232 1268220529
-0.489562 0.120685 1.27232 1267891564
-0.486168 0.120684 1.27232 1267825771
-0.48277399 0.120683 1.27232 1267759978
-0.487865 0.122144 1.27232 1249601109
-0.48616701 0.123603 1.27232 1248877386
-0.46850801 0.118441 1.2797101 1268088943
-0.47021499 0.11991 1.2797101 1267957357
-0.46680099 0.119909 1.2797101 1268088943
-0.471921 0.121378 1.2797101 1267299427
-0.46850699 0.121377 1.2797101 1267365220
-0.46509299 0.121376 1.2797101 1267299427
-0.47021401 0.122846 1.2797101 1249798488
-0.46850601 0.124313 1.2797101 1249008972
-0.45316601 0.118442 1.27975 1267694185
-0.45487201 0.11991 1.27976 1267496806
-0.45145801 0.119909 1.27975 1267496806
-0.456579 0.121379 1.27976 1267167841
-0.45316499 0.121378 1.27975 1266904669
-0.44975001 0.121376 1.27975 1267036255
-0.454871 0.122846 1.27976 1249666902
-0.45316401 0.124313 1.27976 1249008972
0.55110598 0.111995 1.21275 1271249064
0.54948801 0.113387 1.21276 1270656927
0.55272502 0.113386 1.21275 1270394012
0.54786998 0.114779 1.21276 1269472910
0.55110699 0.114778 1.21276 1269143945
0.554344 0.114777 1.21275 1269604239
0.54948902 0.116171 1.21276 1268551808
0.551108 0.117562 1.21276 1268814980
-0.57705998 0.11945 1.27447 1268877176
-0.57876003 0.120912 1.27447 1268416625
-0.57536 0.120911 1.27447 1268679797
-0.580459 0.122374 1.27447 1267890281
-0.57705897 0.122373 1.27447 1267890281
-0.573659 0.122372 1.27446 1268219246
-0.57875901 0.123835 1.27447 1267100765
-0.57705802 0.125297 1.27447 1249665619
-0.56080902 0.119603 1.27616 1268352115
-0.56251103 0.121067 1.27616 1268220529
-0.55910701 0.121066 1.27616 1268483701
-0.56421298 0.122532 1.27616 1268088943
-0.560808 0.122531 1.27616 1267891564
-0.55740398 0.122529 1.27616 1267759978
-0.56251001 0.123995 1.27616 1266707290
-0.56080699 0.125458 1.27616 1249206351
-0.55690002 0.119494 1.275 1268352115
-0.55860001 0.120957 1.275 1268483701
-0.55519903 0.120956 1.275 1268549494
-0.56029999 0.12242 1.275 1267891564
-0.55689901 0.122419 1.275 1267759978
-0.55349803 0.122418 1.275 1267957357
-0.558599 0.123882 1.275 1249732695
-0.556898 0.12534299 1.275 1249469523
-0.48034999 0.118626 1.26592 1268220529
-0.48203799 0.120078 1.26592 1267759978
-0.478661 0.120077 1.26592 1267825771
-0.48372599 0.121531 1.26592 1249601109
-0.480349 0.12153 1.26592 1249666902
-0.47697201 0.121528 1.26591 1249732695
-0.48203701 0.122982 1.26592 1248943179
-0.48034799 0.124434 1.26592 1249601109
0.47958601 0.117686 1.25862 1271644077
0.47790599 0.119131 1.25862 1271117990
0.48126599 0.11913 1.25862 1271249576
0.47622699 0.120576 1.25862 1270723232
0.47958699 0.120575 1.25862 1269999509
0.48294601 0.120573 1.25862 1270196888
0.477907 0.122019 1.25862 1269802130
0.479588 0.123463 1.25862 1269473935
-0.610228 0.120758 1.27275 1268286322
-0.61192501 0.122219 1.27276 1268483701
-0.60852998 0.122218 1.27275 1268352115
-0.61362201 0.123679 1.27276 1267562599
-0.61022699 0.123678 1.27276 1267628392
-0.60683101 0.123677 1.27275 1267561316
-0.61192399 0.125138 1.27276 1249601109
-0.61022598 0.126597 1.27276 1249403730
-0.56540799 0.12096 1.27502 1268022637
-0.56710798 0.122423 1.27502 1267627879
-0.56370699 0.122422 1.27502 1268088943
-0.56880802 0.123886 1.27502 1267166558
-0.56540698 0.123885 1.27502 1267035999
-0.562006 0.123884 1.27502 1266707290
-0.56710702 0.125348 1.27502 1249666389
-0.56540602 0.12681 1.27502 1266904669
-0.62226099 0.12159 1.26615 1268417908
-0.62394899 0.123043 1.26616 1267759978
-0.62057197 0.123042 1.26615 1267825771
-0.62563801 0.124496 1.26616 1266904668
-0.62225997 0.124495 1.26616 1267036255
-0.618882 0.124493 1.26615 1249798488
-0.62394798 0.125947 1.26616 1249140558
-0.62225902 0.127399 1.26616 1266773081
-0.618047 0.121425 1.2644399 1268549494
-0.61973298 0.122876 1.2644399 1267825771
-0.61636001 0.122875 1.2644399 1268088943
-0.62141901 0.124327 1.2644399 1267036255
-0.61804599 0.124326 1.2644399 1249798488
-0.61467302 0.124324 1.2644399 1249732695
-0.61973202 0.12577599 1.2644399 1249403730
-0.61804497 0.127226 1.2644399 1266838874
-0.72041798 0.123399 1.26956 1268220529
-0.72211099 0.124855 1.26957 1267957357
-0.71872401 0.124854 1.26956 1268483701
-0.723804 0.126312 1.26957 1267299427
-0.72041702 0.126311 1.26957 1267431013
-0.717031 0.12631001 1.26956 1267562599
-0.72210997 0.127767 1.26957 1249601109
-0.72041601 0.129223 1.26957 1249798486
-0.74186301 0.128571 1.32296 1268286322
-0.74362701 0.130089 1.32296 1268154736
-0.740098 0.130088 1.32296 1268286322
-0.74539101 0.131607 1.32296 1267365220
-0.741862 0.131606 1.32296 1267299427
-0.73833299 0.131605 1.32296 1267365220
-0.743626 0.13312399 1.32296 1249535315
-0.74186099 0.13463999 1.32296 1249864279
-0.71263897 0.126513 1.30177 1268549494
-0.71437502 0.12800699 1.30177 1268220529
-0.71090299 0.128006 1.30177 1268220529
-0.716111 0.1295 1.30178 1267102048
-0.71263802 0.129499 1.30177 1267102048
-0.70916599 0.129498 1.30177 1266904669
-0.71437401 0.13099299 1.30178 1249535315
-0.71263701 0.132485 1.30178 1266707288
-0.46335599 0.12663101 1.3036799 1249074765
-0.46509501 0.12812699 1.3036799 1249469523
-0.46161699 0.128126 1.3036799 1249666902
-0.466833 0.129623 1.3036799 1267957357
-0.463355 0.129622 1.3036799 1267825771
-0.45987701 0.12962 1.3036799 1267694185
-0.465094 0.131118 1.3036799 1268747387
-0.46335399 0.132612 1.3036799 1269405317
-0.43826801 0.127417 1.31187 1249601109
