# .PCD v0.7 - Point Cloud Data file format
VERSION 0.7
FIELDS x y z rgb
SIZE 4 4 4 4
TYPE F F F U
COUNT 1 1 1 1
WIDTH 1166
HEIGHT 1
VIEWPOINT 0 0 0 1 0 0 0
POINTS 1166
DATA ascii
-0.43927199 -0.329961 1.21453 1269207940
-0.22099601 -0.80310798 0.96996701 1269406868
0.0245825 -0.27807501 1.20428 1269603985
0.105143 -0.58662301 1.28212 1269933212
-0.26826 -0.172985 1.26456 1268615287
-0.237949 -0.69885701 1.16412 1269341328
0.266139 0.0141134 1.2930501 1268024953
0.0670292 -0.494872 1.18424 1268419711
0.297885 -0.15241501 1.22746 1268815500
-0.44703901 -0.305419 1.19198 1269471885
-0.26361001 -0.170121 1.26617 1268352119
0.173801 0.00111221 1.08895 1270986667
0.59767997 0.348768 0.70997298 1269867157
0.49369299 0.288941 0.96377897 1269997454
1.7764699 0.40665701 1.2181 1271773074
1.4814301 0.080778196 0.81102097 1267627853
1.02393 0.62973201 0.90346599 1246443813
1.09988 0.67887002 0.88723099 1247495984
0.224416 -0.135065 1.22606 1269669778
-0.036590699 -0.68185002 1.14658 1270590884
-0.26413399 -0.59859699 1.163 1269603471
0.0173242 -0.356987 1.22821 1269538192
-0.32844499 -0.693708 0.98851502 1269340815
0.37889501 -0.30614001 1.17926 1269078673
-0.58266002 -0.60293102 1.5538 1269273991
0.44235799 -0.65376198 1.14879 1269473431
-0.65647799 -0.71550602 1.1524301 1269406092
0.31749001 -0.54157901 1.19601 1269209489
-0.0504697 -0.93253797 1.17898 1269670810
0.240834 0.00399072 1.25898 1248418638
0.25305599 -0.59608299 1.16342 1269012879
0.064029403 -0.49458399 1.1823601 1269143949
-0.26078701 -0.65276802 1.14338 1269800598
-0.51967502 -0.30819201 1.18196 1269471369
-0.529513 -0.0976803 1.15092 1268418682
0.171799 0.0127565 1.08614 1249800553
0.62616998 0.192186 1.03126 1269213356
0.36203599 0.207192 1.27328 1271445413
0.51255 -0.00092691899 1.13559 1273089963
0.39450699 -0.18639 1.22342 1270526629
1.7594301 0.94810599 1.50055 1270193778
1.3746099 0.190056 1.15618 1271180937
1.6784199 0.334575 1.17487 1272957864
1.3619699 0.133403 1.10998 1271312523
0.60943401 0.112264 1.2286299 1271378567
1.02387 0.40692499 0.872082 1248943429
1.09077 0.51861399 0.85775602 1248284469
-0.64898902 -0.138313 1.18899 1269010561
-0.105989 -0.786924 1.09543 1269275282
0.20775899 -0.72899699 1.12883 1269867937
-0.0085671498 -0.72378999 1.11649 1269341074
0.042040899 -0.276591 1.20688 1268945541
0.62302399 -0.30021101 1.1630599 1268157571
-0.97874498 -0.53282797 1.31977 1269539219
0.150353 -0.62886298 1.14025 1269735832
-0.056183599 -0.75832403 1.1803401 1270064798
-0.127529 -0.76349598 1.16617 1269209488
-0.71547598 -0.42261001 1.14805 1268023924
-0.147137 -0.24078999 1.04976 1269141631
0.16742399 -0.150123 1.2292 1269539475
-0.42295501 -0.30581799 1.1923701 1269735057
0.22738799 0.197633 0.95317799 1270125426
0.66811198 -0.0023260801 1.11728 1271180686
0.23600399 0.26272699 0.77841401 1248217903
0.14834 0.211402 0.85865402 1245853742
1.3923 0.049038701 1.01052 1269406071
1.31818 0.0488558 1.01292 1271774879
1.02659 0.45904699 0.88753802 1246575650
0.66054499 0.36245301 0.74533898 1267827309
0.066206902 -0.13397899 1.22276 1270195606
-0.306633 -0.656147 1.13667 1270524319
-0.55912203 -0.58691299 1.19498 1269406092
0.20740201 -0.36682901 1.19868 1269406867
-0.65523702 -0.214497 1.26894 1268484218
-0.51319301 -0.59373802 1.5069 1269800077
-0.64832699 -0.59005898 1.16693 1269471370
-0.0042080302 -0.72471499 1.11904 1269867419
0.40370101 -0.54346597 1.19052 1268486533
0.1156 -0.0247929 0.99489498 1247764261
-0.31472301 -0.056179401 1.24559 1268615285
-0.74581498 -0.29521 1.1835999 1268813440
-0.46318999 -0.309356 1.18409 1269537163
-0.12091 -0.180986 1.21773 1267892081
0.68313301 -0.0054568201 1.2486 1269999258
0.301018 0.47793299 0.96664101 1248154177
0.369093 0.219273 1.2647901 1272431534
0.105896 0.0130205 0.75501299 1247893837
1.02569 0.52950901 0.89530301 1246443808
1.15623 0.56687999 0.84959602 1249469770
1.09258 0.29914799 0.80972999 1271906214
0.862369 0.28416899 0.77228099 1245265492
0.099573798 -0.134066 1.22684 1270854306
-0.283382 -0.76635599 1.09964 1269537941
0.26387301 -0.72900701 1.1246901 1269736351
-0.16813999 -0.72393 1.15064 1269932953
-0.34773001 -0.25019199 1.23887 1269010561
-0.036787599 -0.72324997 1.00732 1269867418
-0.71442002 -0.18085501 1.28781 1268352632
-0.50934601 -0.53810197 1.2395101 1268615804
-0.059944902 -0.496198 0.75603497 1249405795
-0.40845299 -0.72320902 1.13164 1269537678
0.34000999 -0.75877798 1.12252 1267104882
0.188096 -0.27403501 1.20848 1270788513
-0.16042501 -0.232448 1.01027 1249732441
-0.37064201 -0.30715999 1.1951801 1269275020
-0.132709 -0.115547 1.22834 1267826804
0.52340603 0.484063 1.02212 1249337935
0.31910199 0.00335582 1.16891 1272430750
0.22373401 0.213623 0.89344001 1270982534
0.70337898 0.123103 1.35277 1272959941
1.4884 0.081973903 0.81324703 1266903871
1.2712899 0.047684699 1.03376 1269341819
1.20919 0.61545801 0.85836297 1248811840
0.67788398 0.129118 1.2341 1271707027
0.67327797 0.119249 1.22356 1271839375
0.61874402 -0.0037710499 1.23362 1271116947
0.17902701 -0.131625 1.22451 1270327962
-0.13189401 -0.780155 1.09776 1270130591
0.19230799 -0.69391698 1.13561 1269342106
-0.17731901 -0.59638202 1.15001 1270327194
0.39245501 -0.377803 1.1891201 1269012628
-0.46623901 -0.57918698 1.43467 1268944768
0.098366499 -0.61481398 1.11373 1269801626
-0.142059 -0.71837097 1.14773 1269800598
0.44390601 -0.54377902 1.19224 1269472660
0.64560598 -0.100859 1.12628 1268223615
-0.55714101 -0.019409601 1.28104 1268023150
0.059734501 -0.17244799 1.22337 1268156022
-0.105108 -0.0136032 0.96370602 1248090184
-0.43207699 -0.309405 1.18287 1268879233
0.21992201 -0.20645 1.21551 1269341328
0.60679799 0.195306 1.01709 1268424612
0.15281799 0.212183 1.08024 1246115112
0.62278199 0.00127692 1.12736 1272891561
0.32515401 -0.17209999 1.22042 1269604498
0.70000899 0.192652 0.87660098 1245731475
1.26579 0.33420399 0.73729599 1270129285
0.99829602 0.210453 1.05536 1268551298
1.02686 0.30072001 0.782085 1272761263
-0.29648501 -0.13551 1.22105 1270260628
0.27674499 -0.69831401 1.13004 1269538972
-0.084542602 -0.33239001 1.00903 1267499384
0.030231001 -0.77072102 1.11695 1269867419
0.429189 -0.27904499 1.21613 1269407638
-0.44250101 -0.592255 1.48365 1268482935
0.0279225 -0.54104698 0.74269599 1270262178
0.43036801 -0.74081397 1.09891 1270591912
0.38468701 -0.75690103 1.11458 1268947086
0.27495 -0.091378301 1.25793 1269143436
-0.601794 -0.452905 1.16098 1268024437
0.101662 -0.31817499 1.20035 1268748678
-0.35523599 -0.30750799 1.19581 1269669778
-0.41047901 -0.10998 1.07029 1267958646
0.68318403 -0.00584576 1.34343 1272434115
0.31378499 0.236637 1.29942 1272564924
0.32996199 -0.00174522 1.21693 1272299421
0.18119 0.043681901 1.26898 1269538703
0.94618499 0.19667099 1.08296 1268420741
1.20095 0.044032998 1.0649199 1269801602
0.574099 0.019716101 1.21882 1271314068
1.6935101 0.76739699 1.19821 1272233883
0.69835502 0.15048499 1.22382 1268746594
0.21268199 0.77001297 1.25114 1248218414
0.36055601 -0.126789 1.21153 1269274762
-0.291682 -0.68743199 1.1384701 1269472401
0.25951701 -0.62400901 1.1435601 1270262695
0.0050733201 -0.87791598 1.08816 1269933730
0.32892901 -0.29411101 1.17375 1268683144
0.491009 -0.59054703 1.25143 1269670040
0.115681 -0.62222999 1.13451 1270130591
-0.531928 -0.77079397 1.06726 1268748162
-0.00335622 -0.72746801 1.12581 1268946317
-0.159087 0.027815299 1.0412 1247104061
0.116104 -0.378957 1.19125 1269274504
0.077395402 -0.035721298 1.0861501 1249011289
0.25196701 -0.106051 1.2332 1268288640
-0.40964201 -0.310359 1.1857001 1268747647
0.324117 -0.213857 1.22083 1268419972
0.17155699 0.47021499 0.934066 1246706991
0.153069 0.221017 1.08828 1269533552
0.64771098 -0.0094066598 1.21859 1271707029
0.138788 0.29570401 0.66731 1267887951
0.97753102 0.34459001 0.76073498 1268417126
0.94618201 0.21741199 0.85899401 1246254980
1.22436 0.30874199 0.80370498 1270262420
1.88893 0.32284999 1.14408 1272036242
-0.152391 -0.115769 1.0705301 1268285294
0.342567 -0.70406097 1.13196 1267959422
0.320299 -0.72637397 1.11775 1269736864
-0.183441 -0.32455301 1.01894 1248614993
0.55675203 -0.29056299 1.17808 1268222593
0.484813 -0.57533801 1.16067 1269473431
0.085855901 -0.61521298 1.12194 1270064797
0.455805 -0.54440701 1.19131 1268748937
0.26873401 -0.47545999 1.14665 1268684425
-0.31109199 -0.30716899 1.19498 1268813183
-0.56286901 -0.30128199 1.18735 1269537163
0.475802 -0.161204 1.2054 1268354433
0.681373 -0.00193266 1.1584899 1271511194
-0.44038901 -0.100245 1.22808 1268550523
1.41176 0.26299399 1.1966799 1268486008
0.151343 0.173968 0.88437402 1247104061
1.1331 0.037706699 1.11178 1269999243
1.1853499 0.044870701 1.0651 1268945782
1.8586299 0.71444499 1.0723799 1272167570
0.87782902 0.122022 1.20398 1270785915
1.0962 0.66314101 0.88568401 1246509606
0.26907599 -0.127722 1.23291 1270459294
-0.113196 -0.78368503 1.10975 1270459304
0.0918625 -0.274524 1.20632 1269143434
-0.91917503 -0.51922899 1.27152 1269801364
0.27034199 -0.68196702 1.0987099 1269407386
-0.649396 -0.69700903 1.15941 1269142920
0.47291201 -0.53993398 1.17108 1269078161
0.245269 -0.581209 1.16222 1268749708
0.19943599 -0.070814699 1.23923 1268091512
0.44525599 -0.31270301 1.20611 1269210258
-0.079529703 -0.064345904 1.21286 1268023150
-0.38798699 -0.30978501 1.18239 1269340296
-0.195729 -0.17717899 1.16948 1268088689
0.14976899 0.22616 1.0357701 1247628348
0.365944 0.0062658102 1.17623 1271114890
0.420634 0.064822398 1.2970901 1272957344
0.50210798 0.22352199 1.0289201 1269541550
1.81062 0.52187097 1.2093101 1272826529
1.27959 0.376798 0.78099102 1267101006
1.8825999 0.730744 1.0766 1272825246
1.45029 0.52291602 0.86526603 1271181459
1.30132 0.38011801 0.776959 1268219998
1.44547 0.28843999 1.01958 1268551034
-0.120052 -0.12744799 1.22255 1270062731
-0.029194999 -0.79096001 1.11087 1269933730
0.049451001 -0.55692798 0.76026398 1247564622
0.114035 -0.35133901 1.19558 1269077127
-0.20716999 -0.71311897 1.03065 1269735575
-0.29719001 -0.213548 1.21558 1268550010
-0.68202001 -0.51822197 1.2382801 1269602956
0.25931901 -0.62673301 1.1269799 1270065316
0.35539699 -0.249658 1.21385 1268090748
0.195906 -0.44637299 1.18116 1270130842
-0.51576197 -0.48077199 1.2607501 1268879746
-0.51662803 -0.30277401 1.1910501 1269866641
0.43553501 0.0075497902 1.24884 1272960972
0.57215703 0.202461 1.00019 1269213617
0.186883 0.777915 1.29607 1247954224
0.35747001 0.0045398301 1.20126 1271378062
0.174362 0.0196793 1.07319 1248880733
0.84925199 0.20218 0.86733598 1245268849
1.15012 0.038038298 1.10935 1269407362
0.87620902 0.40687299 0.82672602 1249077061
1.1043299 0.77789301 1.30689 1247759152
0.64360398 0.15748601 1.23962 1271247505
0.87923598 0.12312 1.204 1271049088
1.73399 0.515935 1.16162 1271838093
0.35283801 -0.121914 1.22373 1269011332
-0.63742298 -0.66434199 1.15625 1268353404
0.46581301 -0.63529599 1.1439101 1269538972
-0.56271303 -0.229436 1.23432 1268550011
0.28011101 -0.287559 1.21088 1268486536
-0.64949501 -0.53825903 1.28643 1269208198
0.27371901 -0.67948699 1.09144 1270196902
0.350357 -0.71689397 1.11727 1267893370
0.15432 -0.90460402 1.1591001 1269868446
0.30511501 -0.576689 1.16046 1268552328
0.230125 -0.24063601 1.2137901 1268946055
0.55053401 -0.10237 1.22242 1268288640
0.00071758003 -0.31797799 1.19564 1268616063
-0.332724 -0.31101701 1.18485 1268814469
-0.41084501 -0.157672 1.18344 1268352632
0.35650799 0.080879897 1.27048 1272169396
0.527367 0.62814802 1.02659 1248415805
0.45065799 0.0070388098 1.17827 1272760744
0.50058103 0.224016 1.0243599 1268029341
1.37568 0.058697801 1.1984299 1268876891
0.68084401 0.36993599 0.74740499 1249272910
1.46769 0.059331499 0.98354697 1267232331
0.81326699 0.39465699 0.82634801 1267284769
1.73004 0.51756501 1.15909 1270786172
0.50094402 0.13809399 1.2015899 1272562586
1.01784 0.28423899 0.79603601 1267235691
-0.052765802 -0.12361 1.21729 1270392467
-0.152401 -0.77569902 1.11515 1269867167
0.52871799 -0.73614001 1.1380301 1269342106
-0.168006 -0.243892 1.0462199 1248022593
-0.29735601 -0.21191999 1.22922 1269010561
-0.433209 -0.56210101 1.36245 1270259346
-0.64297599 -0.58366799 1.17641 1268813442
-0.284464 -0.68628198 1.09627 1269603987
-0.138258 -0.202733 1.22633 1269404803
-0.70743501 -0.71639299 1.11023 1267628909
0.48557901 -0.49240699 1.1670099 1268815752
-0.316329 -0.306557 1.19596 1270656159
0.43433401 0.0054826401 1.3174 1273486803
0.147594 0.206856 0.87094098 1246380597
0.63856298 0.00322149 1.18275 1272365474
0.61513197 0.193058 1.02999 1268484992
0.99085897 0.207957 1.08956 1270000528
1.18564 0.038484901 1.10578 1268551281
1.48089 0.257285 1.19075 1269997952
0.67634302 0.059580401 1.21635 1267562071
1.39531 0.052513599 0.98436302 1270261382
0.49342099 0.139874 1.22474 1272233621
0.54755598 0.54728299 0.82845402 1247956277
-0.349962 -0.12138 1.21975 1269997714
-0.31171101 -0.67688602 1.1293499 1269209229
-0.244994 -0.58963901 1.1660399 1269537678
-0.43421701 -0.235075 1.2239 1268878976
-0.14900801 -0.249807 1.2136 1268483447
-0.43882501 -0.59124202 1.48642 1269733259
0.063212901 -0.57056302 0.82746798 1248881252
0.474013 -0.72885901 1.13841 1269605274
-0.30796701 -0.30614799 1.19315 1269602698
-0.37299699 -1.0283 1.4184901 1269077902
-0.0046332502 -0.055505902 1.2442501 1267102822
-0.51367801 -0.30774301 1.18155 1267825517
0.30336601 -0.0925745 1.25179 1270196122
-0.052670699 -0.0253377 1.01976 1248221770
0.163757 -0.17190801 1.22182 1268947338
-0.201159 -0.64536399 1.1424 1269142668
-0.308328 -0.31156099 1.18593 1269208200
0.195549 -0.200638 1.21655 1268880777
0.68687397 0.0064297598 1.28351 1270130843
0.192554 0.094134003 1.04726 1247695177
0.23804601 0.76924801 1.23778 1248020531
0.33290401 0.0105743 1.20654 1272234143
0.40561 0.066475697 1.35233 1272365207
1.15993 0.321666 0.77168798 1270918029
0.68772 0.37090799 0.75171399 1248549186
1.81587 0.73019499 1.09999 1273023138
1.10065 0.314174 0.79835302 1270326154
1.00722 0.124424 1.21661 1270983554
1.66271 0.517129 1.17294 1271772561
1.15894 0.54886901 0.84892899 1249535563
1.66263 0.78643298 1.13888 1271114882
0.42114601 -0.11091 1.22375 1270328737
0.40348199 -0.70392001 1.12281 1269934243
0.30468801 -0.61877501 1.14359 1269736351
-0.124554 -0.24438301 1.22689 1268615804
-0.33898899 -0.68202698 0.98821002 1269867157
0.18473201 -0.27669999 1.17575 1268551812
-0.34256399 -0.56885999 1.34027 1268417654
0.340673 -0.686674 1.1095999 1268090748
-0.29632401 -0.212881 1.22167 1269207424
-0.52854502 -0.72875798 1.12582 1268813699
0.387474 -0.046940099 1.24458 1268880775
0.424252 -0.31160399 1.20772 1268156800
-0.89298099 -0.14909901 1.09928 1268616318
-0.29114199 -0.311708 1.18574 1269010819
0.27657199 -0.135115 1.26256 1268617605
0.37001801 0.24833 1.26613 1272366511
0.91551101 0.242256 0.760943 1246122630
0.29726601 -0.152391 1.22359 1269209740
0.035615299 0.207146 0.73242199 1245196329
0.69482899 0.207041 0.86319202 1245728367
1.0817 0.038089901 1.11783 1269472386
1.13219 0.28790399 1.1716599 1269801099
0.87077302 0.41389 0.827061 1271093308
1.70358 0.51563698 1.15339 1270983296
0.435204 0.146226 1.20051 1271773070
-0.62118101 -0.118946 1.1966701 1268616061
-0.168671 -0.68133301 1.12906 1269867159
-0.63603902 -0.20968901 1.23244 1268221303
-0.85697001 -0.18536299 1.21242 1269013131
-0.41030401 -0.58493698 1.45297 1269272959
-0.43928999 -0.59458601 1.18381 1269669264
-0.0209841 -0.68313903 1.07802 1269933211
0.514772 -0.54387403 1.18259 1268683915
-0.140533 -0.879058 1.13798 1269605017
-0.083069198 -0.096052699 1.2352901 1268352629
-0.098123699 -0.046131499 1.08571 1247433030
0.400462 -0.43380499 0.99827403 1268947338
-0.23926499 -0.31376901 1.1843801 1267892080
-0.27477399 -0.30733001 1.1969301 1270721952
0.54535002 -0.22141699 1.23667 1267499640
0.12546401 0.060698301 0.68321103 1245065515
0.154541 0.096345797 1.0865 1247827794
0.233364 0.355775 1.15169 1246310948
0.50592899 0.0165201 1.1431 1272629158
0.45655999 0.067747302 1.2851 1271641486
0.85922402 0.204266 0.85904598 1245333876
1.11166 0.048020899 1.11387 1247627575
1.30451 0.046342 1.07829 1248154678
1.23141 0.31548399 0.78928 1270722199
0.77612197 0.40458801 0.82334399 1269528406
0.561306 0.147029 1.18727 1271575946
0.777969 0.26621899 0.75449598 1244281966
-0.55795997 -0.120321 1.23207 1269142405
0.100217 -0.78885102 1.10061 1268683145
0.343418 -0.62122899 1.14305 1266840428
0.52640098 -0.29746601 1.1938699 1268946570
-0.233353 -0.75170499 0.92605698 1268946317
-0.23283701 -0.52195698 1.12098 1269733768
-0.64852798 -0.65182501 1.15518 1269932178
0.54723698 -0.53718102 1.15262 1269802395
-0.48387301 -0.73052502 1.1265399 1268221305
0.35815701 -0.048130099 1.22141 1249471326
-0.62831199 -0.189799 1.22352 1269010045
0.48154399 -0.45922801 1.11401 1269013131
0.433029 -0.291958 1.20994 1268749959
-0.200155 -0.31166801 1.21088 1270128789
0.58621699 -0.165408 1.19963 1267894398
0.55223399 0.208792 0.99796301 1268949929
0.232098 0.74930501 1.2608401 1248678203
0.59033799 0.29804 0.72514099 1269406086
0.547418 0.01441 1.16335 1273615027
0.66359597 0.18291301 1.02384 1269998734
-0.163596 -0.104136 1.22618 1268021865
0.22149099 0.25088301 1.04599 1246310945
1.0519201 0.069491901 1.36101 1269272429
0.93810999 0.468546 0.85035598 1249273161
1.46102 0.30318299 1.0767699 1267169377
1.0806201 0.400132 0.82848799 1268285283
1.36824 0.050638899 1.00222 1269801086
0.59344 0.14577299 1.1841 1272496793
1.08911 0.55282599 0.86069602 1247692082
1.10623 0.302843 0.80877697 1269670542
0.32728299 -0.10836 1.22458 1268748162
0.0142109 -0.818564 1.2005301 1270327718
-0.57023102 -0.659675 1.14424 1269077127
-0.142028 -0.690014 1.14686 1269800339
-0.62808597 -0.21001001 1.24646 1268287096
-0.58309001 -0.69948298 1.06722 1267629681
0.185193 -0.274129 1.17848 1270196637
-1.07368 -0.53804898 1.39327 1269341842
0.154328 -0.70133698 1.11356 1269275800
0.58297002 -0.31626499 1.21298 1268814733
-0.333038 -0.89057201 1.1842999 1269801625
-0.89086002 0.074008502 1.14639 1268089460
0.140184 -0.37592801 1.1906199 1269801364
-0.37668499 -0.341546 1.18897 1268813182
-0.43953601 -0.307928 1.1707799 1268418937
0.19118001 -0.30724099 1.20435 1271184817
0.194157 0.0979487 1.07614 1248485211
0.68116403 -0.044762898 1.25752 1271184048
0.353443 0.080389403 1.2463599 1271444360
0.61774302 0.228227 0.95292503 1244087432
1.0056601 0.212402 1.13363 1267630706
1.33893 0.38433799 0.74256301 1267232592
0.659715 0.085964799 1.22964 1270128512
0.90446001 0.187875 1.0696599 1268222592
0.69493401 0.142557 1.20403 1270324588
0.81014901 0.26562899 0.75906998 1244281451
1.42458 0.50887102 0.81691998 1269997180
0.37670901 -0.104526 1.21741 1269867670
0.64547801 -0.64798099 1.17449 1268683914
-0.199963 -0.76860601 0.95811701 1269735833
-0.36549199 -0.57761103 1.41881 1269734027
0.474154 -0.63918698 1.15457 1269012880
0.37397799 -0.709961 1.11484 1270329001
-0.38087499 -0.47299001 1.17928 1269471113
-0.058575701 -0.75196099 1.14446 1269933211
0.33531201 -0.111321 1.255 1268419711
0.143047 -0.28021199 1.20594 1269208711
0.28300399 0.111855 1.2733999 1267433327
-0.15724599 -0.0192944 0.94613898 1246445880
-0.65500402 -0.303316 1.17107 1267102824
-0.17270499 -0.312058 1.21102 1270523547
0.23560201 -0.197156 1.21553 1268749191
0.17072301 0.040487401 0.94443202 1245788211
0.22302499 0.42519599 1.0899 1248089157
0.45080999 0.72672302 1.25762 1268747641
0.57757401 0.020614401 1.13477 1273023917
0.44117299 0.054807801 1.30164 1272431001
0.625485 0.189942 1.01571 1269407882
0.88940102 0.35123199 0.75766897 1269864053
1.26048 0.31418201 0.743137 1270787473
1.1192501 0.053174999 1.30246 1267825243
1.44125 0.30017501 1.01862 1267958636
1.94258 0.50936198 1.16054 1273683389
1.67235 0.517295 1.16431 1270720381
0.336384 0.15980101 1.2697901 1271707532
1.74747 0.32280701 1.15126 1271971229
1.33357 0.39001501 0.75879699 1248876858
-0.13861699 -0.111998 1.24023 1270325392
-0.56638402 -0.71910101 1.10606 1268879748
-0.63527602 -0.68273902 1.22 1268550783
-0.512896 -0.218049 1.20762 1268352632
0.34733999 -0.28793901 1.17032 1267498611
-0.64335299 -0.56367397 1.39727 1269602956
-0.103251 -0.247402 1.23865 1268878975
0.321127 -0.037181899 1.26987 1267695988
-0.46118599 -0.51809603 1.14281 1268746877
-0.79048401 -0.30118999 1.16863 1268221815
0.209381 -0.30755299 1.20452 1271250096
-0.25966701 -0.095110103 1.1875401 1268287096
0.566863 0.34153599 0.72159201 1267893367
0.44740599 0.72530001 1.2603199 1269997965
0.34764099 0.29146001 1.24613 1270852750
0.39649099 0.0203887 1.18613 1272629928
0.47990099 -0.16117699 1.23013 1269539734
0.58977699 0.067951404 1.34016 1272628379
0.90277201 0.348041 0.75205702 1269205868
0.68379301 0.20643701 0.80370998 1245993614
0.87138897 0.20621599 0.84914398 1246453125
1.59884 0.090782598 1.10755 1270588277
1.6174901 0.748501 1.18695 1270391417
1.03115 0.31241 0.78245002 1268746604
1.22023 0.0462557 1.04948 1269472380
0.67186898 0.14654399 1.23429 1271510151
1.52393 0.036993299 1.10594 1249864514
-0.047998801 -0.110546 1.2371401 1270129042
0.27522099 -0.69413602 1.13044 1270131109
0.61890799 -0.640733 1.16057 1268421000
-0.0176547 -0.260755 1.2205499 1269602956
-0.16741 -0.76614302 0.95347297 1268683663
-0.24254499 -0.210812 1.24208 1268221045
-0.27653199 -0.54048198 1.2400301 1268812411
-1.04717 -0.60611099 1.34663 1269999772
-0.041197602 -0.76046997 1.16354 1269670040
0.40263799 0.0733779 1.26378 1268749189
0.1772 -0.484815 1.24303 1268552326
-0.65106398 -0.29826 1.18611 1269340297
0.0255302 -0.175018 1.2309999 1268880262
0.67479199 0.016841801 1.1969301 1269407119
0.220272 0.42400399 1.08956 1248418121
0.169669 -0.0137908 1.07664 1266841711
1.0631599 0.247201 0.89757901 1249409415
0.59300798 0.022107 1.12617 1273352882
0.348759 0.064391904 1.2776999 1271774353
0.58542699 0.200201 1.01168 1267236724
1.33259 0.38924199 0.76233798 1268219487
2.0358601 0.33762899 1.3583699 1271707532
1.70258 0.74764502 1.1895 1272167315
1.68682 0.66816002 1.15016 1272102039
1.3907599 0.120656 1.20777 1271312513
1.76533 0.32306001 1.14836 1271642263
0.750018 0.256946 0.76749498 1245597313
1.14047 0.30447 0.81244898 1269341578
1.09194 0.56718802 0.86557901 1247692334
0.20848601 -0.104838 1.22469 1269142660
0.34437501 -0.81247997 1.1231101 1267761785
0.686198 -0.77238899 1.18733 1269210520
0.20454399 -0.70159698 1.12883 1270065316
-0.00191062 -0.248042 1.24549 1268813955
-0.58728701 -0.70429701 1.08999 1268748162
0.52355498 -0.22216 1.18169 1269012363
-0.59746498 -0.56047702 1.37312 1269208453
-0.30530199 -0.65615499 1.14042 1269735573
-0.94976199 -0.68832803 1.22971 1269604498
0.4425 -0.67388499 1.14659 1269539224
-0.20456 -0.90021503 1.2062 1269077903
0.35799101 -0.121101 1.23419 1267893367
-0.58017898 -0.51510298 1.1677901 1268878976
-0.17258701 -0.0499685 1.0111099 1247957062
-0.072572403 -0.31017801 1.2036901 1269932181
-0.043989498 -0.099182896 1.26568 1267234923
0.21019401 0.11564 1.0574 1268156800
0.50243002 0.2685 0.85778397 1249668455
0.57305902 0.350824 0.74424702 1266903384
0.56652999 0.0184168 1.18875 1272431780
0.92422003 0.28017399 0.77208501 1248026475
0.085834101 -0.118578 1.23463 1270458778
0.222756 0.256091 0.96904898 1248414774
1.84386 0.73062098 1.11821 1271510151
0.629825 0.078314699 1.2252001 1271247506
0.951428 0.31261 0.78827298 1271313825
1.88706 0.71566802 1.02912 1272562587
0.7123 0.144537 1.13578 1270719091
1.9489501 0.51496899 1.12544 1271377803
1.22094 0.33343899 0.75832498 1271972009
0.052019 -0.104635 1.22773 1270195095
-0.57319701 -0.72963399 1.13319 1268484990
-0.194124 -0.65456402 1.13449 1269538194
-0.499722 -0.22801501 1.2413599 1268221046
0.131578 -0.81920898 1.00993 1270394794
-0.69762701 -0.509817 1.22022 1269142405
-0.94260901 -0.61178499 1.37033 1268683137
-0.44468701 -0.30926499 1.17986 1267628138
-0.156387 -0.675659 1.10498 1269538194
-0.016304599 -0.77419502 1.1945601 1269735832
-0.66644299 0.144875 1.35394 1268549240
0.062042698 0.0087185502 0.74530798 1247039042
0.26135901 -0.470833 1.18156 1268750218
-0.063937098 -0.31029499 1.2036999 1269932437
0.227383 -0.118429 1.25938 1268880775
0.16984899 0.043933399 0.92285502 1245459246
0.18757699 0.73326099 1.27626 1248349492
0.55177802 0.346717 0.76010102 1247231270
0.246152 0.0113712 1.34267 1271510929
0.2753 0.0683982 1.28254 1272431000
0.44312 0.077651098 1.36192 1271509899
0.98144603 0.464468 0.85908097 1249338954
1.03242 0.28761899 0.78935999 1270195337
1.15996 0.58018899 0.84217399 1249667149
0.97291201 0.20363 1.0529701 1267302260
1.03676 0.300396 0.79780698 1271972016
1.21668 0.30915999 0.80962598 1269670029
-0.117568 -0.104001 1.22337 1269732483
0.55027097 -0.72954702 1.14301 1269802653
0.33041701 -0.27017999 1.21457 1269077902
-0.426797 -0.72918701 1.12052 1267959162
-0.13441101 -0.15665001 1.21989 1268418425
-0.60204798 -0.54314399 1.33829 1270260887
-0.64798802 -0.67239797 1.16423 1269208713
0.0554532 -0.86907703 1.1379 1269473692
0.30669799 -0.107191 1.24614 1267433331
-0.74160999 -0.66210097 1.29092 1269537676
-0.353172 -0.52220201 1.1661299 1268484217
0.022676 -0.070468299 1.24177 1268616316
-0.0233385 -0.34917399 1.1928101 1270129815
0.225052 -0.31525999 1.20837 1271183530
0.74866802 0.172336 0.73718101 1247441836
0.281937 0.806997 1.4296401 1269272956
0.359411 0.341517 1.28828 1271380121
0.33738601 0.0281222 1.1712199 1271904406
0.30809799 -0.138844 1.22695 1269999256
0.226923 0.226777 0.77684098 1270323063
1.02429 0.609052 0.905828 1246378531
1.78913 0.739694 1.15343 1271312261
1.13112 0.32102299 0.79244298 1269010292
0.61260498 0.35803401 0.76282901 1268221808
0.67104298 0.152647 1.23762 1271378564
0.2308 0.80893397 1.35305 1248810803
0.99186701 0.45928699 0.84133399 1249404749
0.50551999 -0.094326504 1.2216901 1269473430
-0.50764602 -0.73537898 1.14095 1268550529
0.34620401 -0.69464397 1.14038 1267498870
-0.143939 -0.58171201 1.15342 1269865103
0.18564799 -0.27267101 1.2105401 1268814984
-0.13680699 -0.213872 1.20998 1268484475
0.109122 -0.499773 1.17181 1268813955
-0.47405401 -0.58740199 1.1932 1269406092
0.56038898 -0.316845 1.22841 1269670039
0.25648701 -0.76174998 1.1431 1268881294
0.60461301 -0.33279601 1.13855 1268486019
0.193321 0.053282801 1.25846 1267564656
-0.47513801 -0.45138901 1.22711 1268748162
0.25357601 -0.308386 1.20693 1268683656
0.104397 -0.30184501 1.2041399 1270328737
-0.29789001 -0.092862397 1.13407 1267827060
0.174363 0.049265198 0.87413001 1245788211
0.313831 0.44898501 0.95318902 1247826502
0.234697 0.40602499 1.1610399 1247822896
0.55274701 0.34517601 0.75797403 1249862990
0.26646599 0.0252137 1.2285 1272366240
0.45764801 0.065505497 1.29369 1272102039
1.11309 0.058243301 1.21998 1268482907
1.44723 0.40339601 0.78808498 1272234142
0.50045598 0.088779896 1.23563 1270326657
1.41565 0.11847 1.13557 1271115144
1.66872 0.43875501 1.17178 1271971228
0.408602 0.16575 1.2348 1272299414
0.56328499 0.802724 0.87557298 1248548668
1.0652699 0.078319497 1.26955 1269272690
0.35146099 -0.094368502 1.22808 1270064790
0.062383201 -0.547306 0.75695801 1248879972
0.057610501 -0.171452 1.23971 1268880262
-0.26552701 -0.603338 1.51921 1269930636
-0.193817 -0.65730298 1.1403199 1269143436
-0.652457 -0.66724199 1.15973 1269800850
-0.68449998 -1.1854399 1.78313 1269735573
0.35519999 -0.12681 1.1968 1267103335
-0.044911299 -0.059749998 1.29705 1267432299
0.24039499 -0.221945 1.2171 1268551297
0.034068398 -0.38190901 1.18968 1269538194
-0.091937102 -0.29569101 1.2094899 1270722466
0.16740701 0.207846 0.84900701 1245657136
0.62470698 0.241731 0.75695097 1245926286
0.413335 0.0268982 1.18791 1272695205
0.70790601 0.45288399 0.815193 1271423306
0.16205201 0.41827399 1.1160001 1246641198
0.908535 0.310545 0.74898702 1269669505
1.45443 0.138154 1.12837 1270983554
1.32368 0.30205101 0.79355299 1269933713
1.70899 0.61441499 1.18209 1272036246
1.61838 0.76646 1.1986001 1270523005
0.445117 0.166832 1.23543 1272299414
1.10414 0.302136 0.81023502 1270657439
0.254235 0.90917498 1.24588 1244867351
0.43883699 -0.090238199 1.22313 1270459809
-0.145256 -0.68133199 1.13129 1269471374
0.34515399 -0.70773703 1.13416 1249470299
0.58565199 -0.28431201 1.2075 1268814986
0.112162 -0.80656701 1.0062701 1270460587
-0.13534699 -0.21258201 1.2120301 1269208967
0.34959701 -0.51132399 1.1679699 1267761013
0.418053 -0.61631101 1.11185 1269276052
0.19267599 -0.69796401 1.14293 1269144214
0.41154 -0.48070499 1.1739 1269012626
-0.59531999 0.120324 1.3071001 1267037025
-0.043869901 0.0054687401 0.74193901 1246053175
0.27559301 -0.30974999 1.20731 1270788774
-0.184214 -0.28355899 1.18835 1269406606
0.245974 -0.18927801 1.2432801 1268880777
0.176195 0.054574601 0.834041 1245261867
0.41430801 0.581828 1.31197 1249271881
0.25331801 0.030539701 1.19655 1270524036
0.72511601 0.45400301 0.821392 1270833992
0.46390799 0.079108298 1.3733701 1272694176
0.716869 0.44532299 0.809668 1270318690
0.63212502 0.108197 1.23639 1269800059
0.69262302 0.31233099 0.74809301 1269800590
1.42045 0.36560801 0.74619401 1272628132
1.47982 0.12898301 1.17688 1271115132
1.9651 0.333442 1.08742 1272169378
1.17825 0.328848 0.77683699 1271773344
1.13187 0.35332 0.80928898 1269205870
-0.682886 -0.103775 1.2167799 1269011074
0.63442498 -0.83446699 1.1313601 1268881294
0.352157 -0.60817301 1.13385 1268485508
0.49300301 -0.29127699 1.21359 1267762813
-0.373036 -0.73275203 1.12009 1269275020
-0.50092798 -0.546233 1.3411 1269866128
0.628748 -0.699076 1.14589 1269079185
0.35181901 -0.69689399 1.12011 1268879751
-0.35486799 -0.58862299 1.12692 1269537678
-0.75928497 -0.086763799 1.25771 1268878975
-0.80713898 -0.498247 1.1340899 1268617856
-0.65186298 -0.27074701 1.18344 1269998997
-0.38348001 -0.069571704 1.2197 1268023926
0.186497 0.42724699 1.10553 1247169082
0.193284 0.67979902 1.2563 1248282929
0.43204001 0.031811502 1.1627899 1272103325
0.53213298 -0.037076201 1.2535599 1268618634
0.31336701 0.31222099 1.26244 1273024705
0.92073202 0.357685 0.74980199 1268747372
0.674968 0.133605 1.24944 1270193529
0.69773102 0.297741 0.76130402 1248879700
1.18139 0.125763 1.11409 1270391421
0.856857 0.154926 1.17065 1271575433
0.94808102 0.35607499 0.75229299 1266904140
0.23136801 0.64162201 1.33509 1267428429
0.24796499 0.59855098 1.22102 1247494432
1.69731 0.33846101 1.1532 1272958126
0.23338801 -0.091821 1.2237999 1270722981
0.53863102 -0.74300802 1.15288 1269605278
0.62538898 -0.28316101 1.20041 1268881293
0.36680901 -0.256708 1.20749 1267498609
-0.43216199 -0.46591499 1.20287 1268681596
-0.240449 -0.58498198 1.15332 1269735057
0.19013301 -0.76103902 1.15022 1269999775
0.62441301 -0.110451 1.16471 1267301745
-0.71421802 -0.41959101 1.14741 1268682367
-0.697007 -0.51657498 1.17089 1267300205
0.334842 -0.192185 1.25168 1271315632
-0.243627 -0.072975002 1.26464 1266905186
0.439116 0.023095399 1.24465 1272828871
0.55257702 0.336564 0.72573698 1266904669
0.23676901 0.52131498 0.95541698 1245327138
0.62739003 0.19149099 1.02152 1249604727
0.774616 0.44944599 0.83019102 1270576726
0.104444 -0.0037752499 0.83192903 1249279014
0.50575399 0.077460498 1.37676 1273088680
0.53042299 0.112791 1.33707 1269272679
1.48393 0.49348801 0.93070602 1268945520
1.8722 0.38873801 1.19502 1272759969
0.94616401 0.217656 0.86547798 1246650250
0.62204599 0.166703 1.19065 1272233621
0.806337 0.301963 0.62559402 1269932685
1.02554 0.495857 0.89457601 1247232810
1.36663 0.38923201 0.76348197 1267956827
0.105401 -0.092738502 1.22926 1270656927
-0.42166501 -0.74300897 1.14897 1269076616
0.00213401 -0.53535199 0.77372402 1246972227
-0.79038399 -0.20416699 1.3309 1267629681
0.30979201 -0.193004 1.20815 1268814984
0.16170099 -0.58424902 1.35961 1268813955
-0.51184398 -0.64994901 1.18005 1269274506
0.27738899 -0.68867397 1.11462 1269538972
0.117963 -0.87845999 1.1729701 1269868450
0.076605402 -0.10181 1.25223 1267695474
0.185059 -0.296128 1.22165 1269932693
0.35414401 -0.37538499 1.19587 1266907752
-0.17935701 -0.14578199 0.58264703 1270064022
-0.120068 -0.161934 1.22449 1267694702
0.104079 0.30271101 0.69187701 1267690572
0.36838901 -0.0146517 1.22607 1271973044
1.0716799 0.312042 0.80796301 1269406860
0.32933199 0.071992703 1.3028899 1271576461
0.51559699 0.283813 0.74467498 1248549466
1.17663 0.37175801 0.80855101 1267560780
0.86491299 0.222752 0.782103 1244677752
1.14903 0.30727401 0.80793297 1270590614
1.81802 0.71658099 1.08136 1271312261
0.65851998 0.169202 1.22225 1272036242
0.96255302 0.31099799 0.76983798 1270523783
0.62258899 0.057872199 1.2471 1270589576
1.08995 0.54975802 0.86104602 1247429160
0.41487899 -0.088091202 1.22408 1270920874
-0.43099299 -0.66383702 1.14728 1268748678
-0.042070501 -0.676597 1.1301301 1269933211
-0.70771402 -0.194132 1.2329299 1267826545
-0.191267 -0.77321398 0.99231201 1269406867
0.649418 -0.64391702 1.1732 1268486535
0.062647097 -0.57024598 0.82090503 1248419675
-0.74713099 -0.082331903 1.31795 1268155252
0.51982701 -0.16723099 1.22778 1268420226
0.20987999 -0.54449701 1.18701 1268749191
0.375027 -0.553496 1.1489 1270262944
0.36173901 0.00744391 1.25546 1249405533
0.50767499 -0.17954899 1.09728 1270066078
-0.60393 -0.116448 1.22063 1267629166
0.123974 0.02627 1.273 1271446189
0.36524501 0.116748 1.2452199 1271182239
0.15543699 0.026680101 0.85127199 1247104067
0.61282498 0.19398201 1.01844 1268553365
0.46996099 0.033840999 1.1876 1273221295
2.4108801 0.232759 1.87572 1272365462
1.37631 0.144356 1.1556799 1270786179
1.12857 0.33163199 0.79871303 1268812914
1.03404 0.222775 1.02161 1267040643
0.373106 0.18095 1.20084 1270983809
0.62507302 0.191055 1.02166 1268945795
1.42663 0.143705 1.0561399 1270720386
0.85441798 0.31272399 0.73929399 1271509147
-0.19380599 -0.095160902 1.22347 1269206139
0.093996704 -0.76743001 1.10015 1269340562
-0.55483699 -0.62950701 1.15872 1269406092
0.58563697 -0.62546402 1.15924 1268881294
0.34349099 -0.27895299 1.21217 1268354179
-0.34229001 -0.74330002 1.14195 1268879749
0.073729798 -0.166945 1.22999 1268024953
0.164203 -0.58678597 1.37003 1269208713
-0.26704299 -0.65827799 1.16719 1269603217
0.28137499 -0.636464 1.14467 1269210007
-0.16395999 -0.24429201 1.01995 1248416833
0.059527799 -0.0065151602 0.82135499 1248094223
-0.82681 -0.29173899 1.15715 1268157820
0.0059498502 -0.278777 1.17577 1269801880
0.480634 -0.197651 1.2280101 1268749707
0.31047401 0.26447999 1.29184 1273288390
0.63129902 0.36589399 0.72723901 1268617090
0.29798201 0.32177499 0.99994701 1245788203
0.37186801 0.074987799 1.29074 1272168860
0.101234 -0.102903 1.23401 1268419965
0.62461197 0.074898899 1.32408 1271773071
0.22668999 0.23024 0.75072902 1270060403
0.75144303 0.219842 0.75535601 1244348525
0.65851402 0.30279699 0.74790698 1267367275
1.43541 0.143261 1.07077 1270456701
0.840599 0.444644 0.835109 1273338495
0.507801 0.176717 1.19169 1272167828
1.09255 0.31999499 0.798702 1269734793
1.13143 0.36586201 0.79839098 1269469818
1.15982 0.55393898 0.86817998 1267168088
1.92366 0.50491899 1.13774 1272696240
0.0317269 -0.090104498 1.23086 1270458780
-0.372262 -0.75045699 1.1614 1268287611
-0.431474 -0.66896999 1.16078 1269011850
0.0246034 -0.54513198 0.76313001 1249538923
0.36166999 -0.26430699 1.21594 1248812882
-0.044327401 -0.793576 1.00922 1270196384
0.406297 -0.25808299 1.18981 1268486536
0.196144 -0.58867598 1.3773299 1269077390
0.38688701 -0.61483002 1.13183 1269670558
0.51842999 -0.70730698 1.14714 1269473943
0.21244299 -0.75953901 1.14483 1269933982
-0.481143 -0.73459601 1.14801 1269142407
-0.66004199 -0.59831101 1.19995 1268550781
0.087375402 -0.53575301 1.1867599 1269341328
0.061652999 -0.44813901 1.18463 1268749705
0.25102001 -0.305323 1.20541 1268157821
0.0548038 -0.17348699 1.2213 1270986151
0.39307299 -0.18776999 1.22087 1267828605
0.52024698 0.286035 0.73385799 1246382175
0.26521099 0.021550501 1.20085 1272960711
0.60613501 0.195693 1.0168999 1267895949
0.319765 0.038309399 1.1959 1271971480
1.13184 0.349841 0.756607 1249205309
1.75849 0.51876301 1.2146 1272958123
0.407083 0.14307 1.22475 1271445654
1.24889 0.33540499 0.77073503 1271181461
1.4855 0.25641 1.19682 1270919057
0.894225 0.303359 0.78851801 1268746345
0.57092202 0.173796 1.15806 1271838863
0.69404799 0.311616 0.73437798 1269011072
0.944188 0.46415901 0.83257902 1249272393
-0.173885 -0.079182699 1.05891 1248612929
-0.65653801 -0.62732798 1.17772 1269603471
-0.652933 -0.56505901 1.24642 1268616061
-0.30010301 -0.234377 1.22154 1268615803
-0.041021399 -0.15138599 1.25827 1267761267
0.25113001 -0.50114101 1.16883 1269802144
0.54725498 -0.659509 1.1771899 1269078672
-0.72934598 -0.71938699 1.13545 1268615804
0.58245301 -0.10876 1.1967601 1249735527
0.25488499 0.0176307 1.25731 1267762035
-0.71744901 -0.300906 1.16887 1266971491
-0.471935 -0.51776499 1.16399 1268813699
0.275282 -0.281551 1.16443 1270723495
0.394649 -0.188692 1.21184 1268025984
0.66006202 0.0396658 1.05161 1272369348
0.301884 0.265037 1.28354 1272893889
0.171857 0.472853 0.937527 1247036468
0.61821502 0.0346094 1.17814 1271971229
0.40061599 0.074100398 1.29434 1272365211
0.27085999 -0.105332 1.23341 1268551551
0.63056999 0.075272903 1.30667 1271246727
0.228136 0.328798 1.30371 1271180162
0.86793101 0.219579 0.78069198 1245598849
0.72389197 0.30548799 0.76577002 1268749179
1.18142 0.27664 1.21368 1268552061
0.68135399 0.142198 1.22343 1270326142
0.67647201 0.17409401 1.23711 1270917503
0.87532198 0.314623 0.74203998 1271708326
0.51889002 0.084826499 1.26387 1271643034
0.94275302 0.29947501 0.79585099 1268879223
-0.35692799 -0.74480897 1.14564 1269077127
0.043451902 -0.55505002 0.76660699 1247959126
0.27551699 -0.69465399 1.12703 1268946835
-0.62333101 -0.196733 1.24066 1268484218
-0.24599101 -0.741597 0.94803202 1269538196
0.215656 -0.550385 1.2108099 1269209491
0.45077401 -0.61387402 1.11999 1269736603
-0.31149599 -0.87988102 1.21337 1268946316
0.086616598 -0.119347 1.23391 1268748160
0.578049 -0.107858 1.21687 1266973294
0.222921 -0.0075699198 1.2595 1268156023
0.297997 -0.182752 1.20425 1270460325
0.47931501 0.28211999 1.30532 1272761532
0.607858 0.35551199 0.72338098 1269603987
0.421213 0.040812299 1.16444 1273747639
0.75422102 0.318174 0.71402299 1272821392
0.19397999 0.329797 1.3059 1249665850
0.14237399 0.25350201 0.82728398 1248679744
0.80087 0.111921 1.29848 1268746596
1.85195 0.50429702 1.13792 1272760997
1.45274 0.57521999 0.87865299 1269997180
1.19045 0.337522 0.76521498 1271510428
1.4634399 0.258944 1.1254801 1269998217
0.43518299 0.184063 1.23579 1271838863
1.83898 0.50609702 1.15083 1272762033
1.29564 0.25351301 1.22518 1271708827
0.472197 -0.081008397 1.22537 1269407635
-0.63922101 -0.65290099 1.1645401 1268419197
-0.139498 -0.57809502 1.16907 1269404039
0.36667401 -0.277931 1.20366 1267827060
0.000127401 -0.155663 1.25237 1268287611
0.095312603 -0.490197 1.17056 1269999258
-1.08234 -0.683411 1.36787 1269933979
0.21528 -0.68953001 1.14094 1269736351
0.104005 -0.102919 1.23809 1267761265
0.039827101 -0.388255 1.20862 1269735055
-0.68810701 -0.51091403 1.14214 1267563115
-0.26721901 -0.52808398 1.15488 1268154485
0.103915 -0.286562 1.20848 1270591908
0.526106 0.28752801 0.72764599 1246447464
0.246188 0.0033652801 1.25657 1272696771
0.61481601 0.192342 1.0134701 1269340558
0.97675401 0.307298 0.74007702 1270260361
1.2310801 0.253984 1.25139 1272497822
0.883614 0.311335 0.79433 1269602176
1.10618 0.28200701 1.04281 1270261129
1.04843 0.35424501 0.90763199 1249139778
0.60949802 0.25386599 0.67269701 1245925508
0.97111899 0.174943 1.24851 1271444360
1.1253099 0.31868199 0.79509503 1269865090
0.87831402 0.314246 0.74259198 1271181208
-0.62493998 -0.094512098 1.23253 1267892332
-0.331247 -0.75211 1.1597 1269142920
0.44648999 -0.69041097 1.1273201 1269934243
-0.31238601 -0.651932 1.13281 1270195608
-0.42262101 -0.74481601 0.98604602 1269011850
0.112339 -0.226091 1.21699 1268814469
-0.50571299 -0.469062 1.28572 1269931663
-0.36261699 -0.578385 1.1770999 1269603471
-0.650832 -0.58963603 1.1728801 1269340299
-0.45167601 -0.862535 1.22995 1269275020
0.53791797 -0.101936 1.22021 1268880523
-0.38557199 -0.088261202 1.24809 1269339010
-0.027659601 -0.27785799 1.1934299 1270591395
-0.0372371 -0.147993 1.2565399 1268156025
0.317624 0.35194701 0.91874701 1249273431
0.30520201 0.041865401 1.20618 1272366240
0.609743 0.069406196 1.2769901 1272562590
0.354774 0.092134103 1.24712 1271444358
1.39455 0.103162 1.23401 1270391159
1.02732 0.43681601 0.88183898 1245983260
0.88643003 0.152255 1.19256 1269470319
1.10935 0.066164397 1.18327 1267759196
0.97714198 0.24153499 0.78303099 1245926278
0.446632 0.193785 1.22382 1272299414
1.45402 0.273197 1.10402 1267038309
1.66821 0.778808 1.22883 1271970453
0.52983302 -0.071256503 1.1336401 1269539223
-0.31114101 -0.754655 1.16434 1268945287
0.37218899 -0.71362197 1.1249501 1270394281
0.210649 -0.685435 1.1332099 1270394281
-0.077440202 -0.23010699 1.2252001 1268089717
0.28577501 -0.76516199 1.11171 1269341593
-1.06549 -0.111657 1.4751101 1268815750
0.43455899 -0.57155597 1.25368 1269670558
0.278245 -0.59022498 1.16842 1269473179
0.455731 -0.70037401 1.14382 1269341845
-0.21923999 -0.74253398 1.14209 1270459296
0.031696301 -0.75712901 1.1684 1270591144
-0.446567 -0.59689802 1.19524 1270129300
0.118816 -0.306326 1.20107 1269670032
0.106201 -0.54580098 1.1828901 1269077896
0.27562699 -0.28707299 1.20622 1268618632
-0.61874998 -0.252518 1.19113 1269537676
0.13962901 -0.16259 1.24359 1268946055
0.56662202 0.0307837 1.2342 1272565699
0.148748 0.232518 0.98581302 1248811849
0.23757599 0.55985999 1.19821 1249006917
0.59443599 0.19726101 1.00974 1269275788
1.37094 0.25350401 1.23491 1272300445
0.75898701 0.311225 0.78170002 1269997708
1.20289 0.30801401 1.2004 1268814720
1.28039 0.336678 0.730856 1272234921
1.13232 0.36609399 0.79944402 1268745832
0.359283 0.20104501 1.2306499 1271378567
0.82682103 0.25406101 0.78021598 1245531519
0.98841298 0.239815 0.806696 1246256271
1.3210599 0.33011499 0.71279699 1273354177
1.76209 0.51743901 1.16281 1271574673
1.34606 0.27853099 1.15221 1267959411
1.33889 0.38463899 0.74546498 1267035467
-0.22386301 -0.086869799 1.2221299 1269008760
0.34344399 -0.689345 1.13811 1267103855
-0.69730598 -0.13467801 1.32626 1268418171
0.47012699 -0.202696 1.1919301 1268749191
0.13694499 -0.48649701 1.17418 1269933211
0.28531 -0.60996097 1.1507 1267959940
-0.61843699 -0.57898498 1.14783 1268813440
0.15724701 -0.88983399 1.22666 1269867937
0.32295901 -0.16433901 1.17409 1268749191
-0.144282 -0.0108954 1.04963 1245853743
0.30915299 -0.41645899 1.20821 1269144717
-0.096052803 -0.437163 1.18826 1268879748
-0.390708 -0.389447 1.19678 1268680314
0.058054499 -0.17240401 1.22264 1270657186
0.280588 -0.17584901 1.2156301 1267959675
0.22018901 0.26903 1.13068 1245521693
0.15457299 0.0228098 1.0911601 1248156246
0.57280099 0.29148701 0.72273397 1266844043
0.544496 0.043176301 1.19306 1272694951
1.1135 0.062444702 1.18145 1268351325
0.69046998 0.036090601 1.10843 1269800828
0.22847401 0.260672 0.87421 1247165219
1.28699 0.37774399 0.77591002 1248087080
1.73703 0.51866502 1.16458 1270785916
0.57044297 0.206349 1.02704 1267500404
0.398491 0.169705 1.2334 1270787208
1.0514801 0.177496 1.23884 1271904911
1.84056 0.45791101 1.14384 1272430750
0.35905099 -0.076888502 1.21612 1268484730
-0.295039 -0.756823 1.16588 1269866389
-0.18728 -0.690036 1.1808 1270722468
0.079855599 -0.481206 0.772928 1248814692
-0.267349 -0.216077 1.23511 1267760752
-0.13903201 -0.74470699 1.13529 1270393762
-0.622316 -0.158748 1.24907 1268418425
0.55053902 -0.60559201 1.16157 1268881293
-0.65327501 -0.65016103 1.16272 1269471883
0.215905 -0.76027501 1.14991 1270986670
-0.26577699 -0.73433101 1.14139 1269932952
0.059983399 -0.098031998 1.23355 1268354172
-0.77031499 -0.29597899 1.17848 1267630449
0.0061415099 -0.26989701 1.20472 1270656934
0.24245 -0.17095301 1.22324 1268814984
0.110553 0.059967101 0.885131 1244999464
0.205649 0.419274 1.09166 1246838579
0.42194399 0.59876502 1.3263299 1269272954
0.44738999 0.046197999 1.2068 1272496543
0.58159602 0.201151 1.00738 1267301743
0.94810498 0.30919901 0.747298 1270261642
0.68712097 0.30987599 0.747042 1269274757
1.02511 0.279385 0.790142 1269865866
1.63328 0.59512103 1.18296 1271838867
0.27055201 0.207065 1.20165 1270589051
1.33878 0.38701501 0.76045799 1268022368
1.20104 0.35402399 0.78470701 1269733503
1.9493001 1.0055799 1.11656 1269073757
1.29882 0.114894 1.13618 1270457214
-0.247425 -0.085437901 1.23253 1269074553
-0.60248202 -0.62797803 1.17945 1268419197
-0.122339 -0.17842899 1.24157 1268219763
0.100697 -0.83888501 1.09631 1269276052
-0.65017802 -0.103408 1.124 1267892595
-0.22342899 -0.46283299 1.17917 1269142148
-0.26002601 -0.59558302 1.1522599 1269340299
-0.77843302 -0.88293302 1.25527 1268945026
-0.35086799 -0.094788201 1.24849 1268023150
0.133591 -0.44987699 1.20164 1268355201
-0.448459 -0.51731598 1.16119 1269800339
0.170113 -0.177646 1.22177 1270657956
-0.46278301 -0.16113999 0.712439 1267367277
0.22902399 0.294936 0.69782698 1247493928
0.531156 0.218338 1.0134 1268816020
0.59970802 0.047086399 1.16636 1272497572
0.43077499 0.076184899 1.3137 1272167832
0.51041001 0.088026002 1.37086 1273088934
0.143773 0.256374 0.81475198 1268548457
1.0672801 0.56116802 1.2642 1246838309
0.91881502 0.213514 0.85396701 1246716044
1.05047 0.183576 1.15081 1271509648
1.79943 0.73293698 1.13554 1272562841
0.40220299 0.20870399 1.27421 1270654589
0.97307098 0.31564701 0.75664097 1269864826
1.08699 0.51428801 0.85042399 1248021562
1.33219 0.115263 1.13071 1270325374
-0.59595799 -0.088759303 1.22518 1268089717
-0.265064 -0.21608201 1.24019 1268878205
0.279964 -0.17927 1.23113 1268157054
0.350694 -0.544783 1.16934 1266709096
0.478387 -0.59660101 1.16053 1268881294
-0.163284 -0.64528501 1.08287 1269735575
0.30691499 -0.76234698 1.14758 1270855084
-0.77154797 -0.70850003 1.12892 1268550783
0.28478 -0.60928202 1.15145 1268815500
0.197449 -0.0676874 1.24093 1268748930
-0.63201499 -0.30419201 1.1749099 1267563115
0.188448 -0.273949 1.2102 1271644597
0.335897 -0.16997001 1.2393301 1268749191
0.48504099 0.245993 1.01431 1270261915
0.23477399 0.467464 0.98872298 1246511934
0.92689401 0.31652099 0.73838401 1269798779
0.58795899 -0.018755401 1.31039 1272694176
1.08552 0.33073401 0.80314398 1267759196
0.56671798 -0.0285777 1.22103 1271379861
1.43521 0.351758 0.77049601 1272037022
1.02858 0.27723199 0.78966898 1248421238
1.39423 0.167896 1.21191 1271378565
1.34022 0.38476399 0.75078398 1267232852
0.27656499 0.232007 1.2939399 1270853518
1.01797 0.82193202 0.93507499 1246971192
1.0727201 0.32866201 0.79533201 1268088163
-0.54533702 -0.087810203 1.22183 1269405577
-0.200408 -0.73282701 1.10435 1269538196
-0.38994601 -0.64813399 1.19989 1269340815
-0.21736699 -0.64857 1.13606 1270195608
0.330367 -0.254298 1.2191499 1267498870
-0.165755 -0.78550601 1.03826 1268748938
0.067440897 -0.210068 1.2163399 1269735057
0.31780699 -0.55971199 1.25161 1267236469
0.351805 -0.60364997 1.11936 1268615808
-0.041435398 -0.82533002 1.18138 1270327970
-0.231846 -0.52793801 1.18015 1268747389
-0.71710598 -0.208487 1.20682 1268945281
-0.71402699 -0.150306 1.3480999 1270392987
0.234456 0.178404 1.09498 1268679779
0.22771201 0.21357401 0.84269899 1270258041
0.233659 0.33756399 1.14987 1246903085
0.50639898 0.077765897 1.28265 1271707027
0.61118102 0.087165996 1.36277 1271707277
1.42746 0.0240291 0.98082101 1272236970
1.1779799 0.101846 1.3775001 1270193780
1.14431 0.314542 1.16554 1269866892
1.26931 0.231249 1.171 1272496543
1.32232 0.192794 1.10163 1271838612
0.33954 0.213525 1.27424 1271510153
0.25083399 0.82559699 1.08261 1246375697
0.62905502 0.110152 1.24804 1269866373
-0.408315 -0.087038599 1.24046 1270064790
0.3371 -0.59887898 1.1639 1268749456
-0.25373101 -0.16865399 1.23762 1268417657
-0.579036 -0.113755 1.02215 1268089717
0.44281 -0.51609302 1.23612 1269276052
-0.651465 -0.55219901 1.19752 1268813442
-0.646285 -0.65060198 1.1677099 1268551551
0.399672 -0.72496498 1.0497299 1269802395
-0.33893999 -0.73683703 1.23335 1269669780
0.106516 -0.525087 1.17496 1268485506
-0.61792701 -0.304959 1.17417 1268286069
0.215303 -0.16130599 1.20804 1269275535
0.35227001 0.0355714 1.26728 1273025475
0.33579099 0.30291501 1.30542 1272300982
0.56363899 0.34536299 0.74165303 1267759467
0.57326299 0.049848501 1.1633199 1272365986
0.73435199 0.30719301 0.732858 1271968657
0.622446 -0.110691 1.24043 1267631737
0.524423 -0.0207924 1.3592401 1273023141
1.56613 0.27793899 1.20253 1271641484
1.41995 0.38834 0.76009798 1272364957
1.0691299 0.35174301 0.81429499 1267627612
