VERSION .7
FIELDS x y z rgb
SIZE 4 4 4 4
TYPE F F F F
COUNT 1 1 1 1
WIDTH 1335
HEIGHT 1
VIEWPOINT 0 0 0 1 0 0 0
POINTS 1335
DATA ascii
0.685111 0.614054 0.393577 7434609
0.462834 0.757647 0.270074 8618883
-1.63559 0.426819 1.41106 3815994
-1.52303 0.623386 1.06433 2763306
0.532014 0.796496 0.280449 11053224
0.372194 1.06531 0.101903 7829367
0.964034 0.91794 0.294595 4605510
-0.866087 0.0175764 1.30479 5460819
-0.0992373 -0.0295063 0.814223 11579568
-0.157921 -0.054689 0.855697 13224393
-0.0940927 -0.044543 0.834233 9605778
-0.206979 0.0902804 0.751615 5000268
-0.0975833 -0.00995925 0.786316 10000536
0.923298 0.884721 0.322933 4868682
-0.114441 -0.000468582 0.776176 10790052
-0.0223845 -0.0877455 0.880033 12895428
0.967315 0.702746 0.372971 3881787
0.746985 0.457764 0.548815 5723991
0.818293 0.447879 0.570009 5526612
0.743521 0.621924 0.652426 6316128
-0.16578 -0.0612812 0.922686 5066061
-0.154775 0.00368214 0.775763 13092807
0.517231 0.816539 0.321495 8947848
-0.164953 -0.0547233 0.91359 6447714
0.944609 0.19385 0.627847 7237230
0.716035 0.362119 0.640235 5987163
-0.0746205 -0.0411588 0.826406 8882055
1.22241 -0.000723869 1.49386 2829099
-1.38909 0.722384 0.890076 2631720
0.639653 0.727803 0.407277 9671571
0.933658 0.230085 0.622601 6316128
-0.183278 0.101168 0.727772 7039851
0.950801 0.0754345 0.825387 4934475
0.690423 0.696083 0.447884 8487297
-0.0439278 -0.0858141 0.879746 13355979
0.474732 0.829611 0.339288 8618883
0.105579 1.16248 0.0895729 7368816
1.00116 0.74168 0.406692 3355443
0.961782 0.410541 0.477872 4079166
-0.00483343 -0.0456407 0.822925 10592673
0.644974 0.792657 0.4156 8355711
-0.155925 -0.0835511 0.895425 8289918
0.851086 -0.19239 1.11535 3092271
-0.124698 0.0547241 0.72359 10658466
0.982152 0.356456 0.565353 4144959
-0.00501567 -0.0330607 0.799049 8553090
0.978092 0.344209 0.581572 5197647
0.956754 0.289526 0.663194 8487297
-0.151723 -0.028107 0.818724 13948116
0.988695 0.224136 0.755009 5131854
-0.104916 0.0506129 0.72198 11908533
0.873728 -0.141913 1.11685 5658198
-0.214463 -0.0431695 0.931421 4934475
-0.157096 -0.0190812 0.807116 14013909
0.0142046 0.0163299 0.712685 8816262
-0.0199791 -0.0809986 0.870797 12961221
-0.092542 0.0339047 0.718806 12303291
-0.161828 0.00785902 0.829869 4802889
-0.0775799 0.0109346 0.752963 13027014
1.13644 0.0540094 1.26363 1776411
-0.144742 0.0413338 0.722723 12698049
0.614241 0.120632 1.43088 4210752
1.07964 -0.0807773 1.15887 1907997
1.23791 -0.0440552 1.51033 1907997
-0.202287 -0.0729503 0.958627 4408131
-0.16152 0.0277595 0.801633 5395026
1.25061 -0.044479 1.51584 1907997
-0.21117 -0.0521581 0.927272 5329233
-0.0269414 0.0210677 0.71565 9276813
0.719104 0.856433 0.463481 6645093
-0.0295725 0.0236982 0.715781 11645361
-0.14295 0.0317949 0.735505 12237498
0.723689 0.656049 0.628246 3487029
1.11135 -0.179393 1.31161 5395026
0.176162 -0.0845492 0.898175 8750469
-0.2092 -0.02393 0.889885 6316128
0.623226 0.147731 1.3736 5855577
-0.0256482 0.0161343 0.728701 14013909
0.178524 -0.149788 0.851876 12040119
-0.0344491 -0.0318321 0.806355 8882055
0.143003 -0.118744 0.95572 5526612
-0.159447 0.0584683 0.760615 6579300
-0.0710926 0.0301026 0.718032 11645361
-0.153087 0.15046 0.877682 3552822
0.832248 -0.132438 1.1493 4079166
-0.0942939 0.0021731 0.768934 8684676
0.182044 -0.140355 0.856352 10592673
-0.0732184 -0.0464038 0.834136 9605778
0.193057 -0.166029 0.873316 4473924
-0.00857157 -0.0874641 0.938965 4671303
-0.157149 -0.0283513 0.819786 14408667
-0.0860475 -0.0344295 0.819442 9737364
0.182512 -0.135745 0.860773 10263708
-0.154611 0.141085 0.85568 4079166
0.690396 0.547082 0.602549 5658198
-0.0794975 -0.0131936 0.788704 8487297
-0.126497 -0.0196374 0.804506 7960953
0.730481 0.396425 0.571157 4605510
-0.147836 0.122598 0.838714 2763306
-0.200625 -0.074218 0.96077 4473924
0.170948 -0.15804 0.814382 4737096
0.686818 0.114293 1.33888 3684408
-0.0782479 0.0324594 0.718323 11316396
0.831613 0.133798 1.37194 4013373
-0.0411217 -0.053757 0.838074 9671571
0.010885 -0.0903002 0.938411 4144959
0.970528 0.230495 0.637311 3092271
0.974994 0.279981 0.685704 8421504
-0.146065 0.132489 0.861768 3552822
0.169264 -0.190143 0.860667 5197647
-0.119108 0.0286767 0.735319 11776947
-0.0756727 0.0325599 0.718331 11645361
0.948928 0.0442477 0.865365 5723991
0.900648 -0.130811 1.13121 5526612
-0.155716 0.132484 0.836334 3487029
0.190818 -0.15825 0.830254 9803157
0.988671 -0.102148 1.05564 4144959
1.08535 -0.130328 1.13166 2302755
-0.186073 -0.0860483 0.965702 4605510
0.718209 0.0689978 1.51041 3684408
1.07374 -0.0647017 1.17422 2039583
0.97946 0.318018 0.698768 3421236
-0.110253 -0.0387092 0.828911 7960953
0.945817 0.124016 1.37506 3158064
1.03162 0.901653 0.283477 4473924
0.189113 -0.0788713 0.900937 7960953
-0.168914 -0.0903426 0.96823 4210752
0.921638 0.0273593 1.24658 5066061
0.981579 0.0270004 1.50018 2960685
-0.162992 0.0409825 0.75231 6710886
0.898558 -0.0972752 1.15293 4276545
0.906206 0.0548348 1.3026 2500134
0.542687 0.84806 0.312758 8487297
0.707076 0.48484 0.667633 5131854
-0.158947 -0.091752 0.968174 3289650
0.193189 -0.199265 0.863766 6118749
-0.0395976 0.00134027 0.758718 9671571
0.867863 0.0253957 1.27407 2434341
0.938318 0.179795 0.619773 5987163
-0.141941 0.0142213 0.755572 13487565
-0.152823 0.150134 0.876715 3026478
-0.15235 -0.0750023 0.943694 5658198
0.960818 0.0127763 0.834389 6776679
-0.147079 0.0417097 0.722777 11579568
0.855874 -0.211005 1.10281 3947580
-0.155837 0.133843 0.841457 3026478
-0.0438247 0.0291338 0.716341 12500670
0.458552 0.738611 0.258129 9013641
-0.165944 -0.0780985 0.924433 5526612
-0.214939 -0.0510264 0.94292 2565927
0.85825 -0.0898933 1.18699 3815994
0.960497 0.0744862 0.831367 4013373
-0.165107 -0.0709486 0.908678 8421504
0.925255 0.0441175 0.861141 4473924
0.275953 -0.00892848 0.791822 3684408
0.940506 0.229895 0.656462 5855577
-0.123827 -0.094869 0.966723 4342338
-0.148716 0.132103 0.820847 3618615
-0.0190311 -0.00108397 0.757799 8882055
-0.15088 -0.0844252 0.894955 11711154
-0.040581 0.00153647 1.67768 4605510
-0.0633934 -0.0645357 0.855315 13948116
-0.0647454 0.0310426 0.717837 11579568
-0.0412203 -0.0239925 0.797081 10395294
-0.191947 -0.0795813 0.967414 5197647
-0.0355029 0.00140345 0.758419 9605778
0.946212 0.279968 0.666749 6776679
-0.0285847 -0.00830618 0.772082 8158332
-0.210869 -0.0535448 0.929556 5460819
-0.13054 -0.0420182 0.835461 10921638
-0.214155 0.00396606 0.863373 3684408
-0.214954 0.00166947 0.864762 3750201
-0.160264 0.0491456 0.772697 5131854
-0.210196 -0.0474914 0.922308 4802889
-0.115439 -0.0798814 0.943741 5197647
-0.0161072 -0.0683587 0.853459 12566463
0.190192 -0.154355 0.818313 4802889
-0.115489 -0.0243102 0.809538 8553090
-0.202894 -0.0723305 0.957618 4144959
-0.0381082 -0.104057 0.962494 4539717
-0.209972 -0.0381095 0.909224 5066061
-0.209385 -0.0183511 0.881252 5395026
-0.0366602 0.0268217 0.715283 11908533
0.18809 -0.0923974 0.892782 9671571
-0.0225988 -0.0879322 0.880726 11908533
-0.209817 -0.0158113 0.877157 6513507
0.845414 -0.0566741 1.20837 2171169
-0.209718 -0.0141346 0.874632 5263440
-0.123122 -0.0962593 0.965835 4737096
-0.207826 -0.0256553 0.889108 5460819
-0.0245273 0.016014 0.730359 13158600
-0.160258 -0.0580926 0.862698 13092807
-0.148776 0.124129 0.843704 3684408
0.781296 0.291008 0.579602 4934475
0.976188 0.160432 0.838814 5855577
1.3859 -0.0304313 1.57829 2368548
-0.156985 -0.0195256 0.807647 14408667
0.695781 0.632885 0.629589 3092271
-0.210128 -0.060244 0.940269 5395026
0.874454 0.0613167 1.82359 2302755
-0.194736 -0.0807369 0.971211 4210752
0.856629 -0.0548127 1.21435 2236962
-0.0222875 -0.0586517 0.842272 13224393
-0.210449 0.0612265 0.786319 3618615
-0.129016 -0.0264316 0.813863 9079434
-0.211293 0.0633327 0.781262 4079166
-0.157855 0.120923 0.809965 4210752
-0.20695 0.0116029 0.841174 5263440
0.701522 0.63472 0.632043 2631720
-0.0673557 0.031558 0.717589 12698049
0.730127 0.46066 0.593669 4276545
-0.129654 -0.00931707 0.789849 11316396
-0.158277 0.016748 0.755457 13684944
0.835147 0.326782 0.588274 5592405
-0.169445 -0.090942 0.968992 3881787
0.205827 -0.0663862 0.88879 6974058
-0.134464 -0.0873282 0.897908 13290186
0.948359 0.198935 0.597266 6645093
-0.0656626 -0.0839493 0.942348 4342338
0.882582 -0.203327 1.07796 5066061
0.131838 -0.0709209 0.895226 7697781
0.952243 0.177373 0.629949 7566195
-0.140236 -0.0917378 0.902731 11711154
-0.175485 -0.0894097 0.968167 5000268
-0.0942829 -0.0809126 0.942319 4671303
-0.095309 -0.0183609 0.79814 11842740
-0.0175799 -0.108679 0.904803 8289918
-0.168064 -0.0908685 0.96853 4539717
0.184488 -0.124273 0.869087 10263708
-0.1669 -0.0671015 0.929107 6316128
0.858709 -0.208881 1.11244 2368548
0.547387 0.784945 0.379719 9211020
0.914983 0.179753 0.651142 6776679
-0.152401 -0.0692034 0.942079 5066061
0.94293 0.203394 0.633157 5000268
0.952344 -0.10868 1.03618 4408131
-0.146806 -0.0928423 0.967538 3421236
-0.0099301 -0.0148611 0.778015 6513507
0.902312 0.0307227 0.822393 9342606
-0.114376 -0.00105834 0.776646 11645361
1.03357 0.0293029 0.910868 6381921
0.189005 -0.0942068 0.919546 4342338
-0.112136 -0.0134369 0.7939 9276813
0.941409 0.221738 0.649566 5197647
-0.0853162 -0.052875 0.84467 11053224
0.838337 -0.17864 1.12461 2631720
0.505272 0.0778213 1.4953 4539717
0.933423 0.232315 0.658262 4539717
-0.162604 0.0114873 0.823142 4868682
0.847029 -0.168795 1.13415 2565927
-0.0595094 0.0034399 0.759838 9342606
1.0718 0.342452 0.599978 6513507
-0.213433 -0.0279527 0.911053 4144959
-0.16269 0.0166336 0.815669 4802889
0.164435 -0.188442 0.85875 5197647
0.719731 0.376291 0.529265 7237230
0.842409 0.465022 0.49935 7500402
0.545463 0.754871 0.34282 7631988
0.673393 0.583579 0.388317 5329233
0.966938 0.273345 0.690516 9605778
0.84346 -0.181453 1.11838 3815994
0.838815 0.332956 0.556572 7368816
-0.153759 0.124063 0.810134 3289650
1.0681 -0.196301 1.33603 2565927
0.462529 0.741135 0.244081 7960953
0.514893 0.768039 0.340016 7500402
-0.0116128 -0.0181513 0.78352 7105644
0.189886 -0.165222 0.824565 8158332
0.994492 0.70735 0.386617 4079166
-0.021974 0.0100712 0.739719 11908533
-0.213481 0.00603154 0.86295 2960685
0.223927 0.051006 0.70478 4079166
0.730301 0.31124 0.594456 7631988
0.672907 0.663114 0.450257 6645093
-0.2089 0.0446489 0.817383 3158064
0.224702 0.0511923 0.705688 5066061
1.01996 0.814754 0.330862 3421236
0.632261 0.719623 0.409439 8289918
0.978703 0.856847 0.296042 3947580
-0.211279 -0.0519378 0.927568 5000268
0.469541 0.760355 0.247148 7631988
0.62818 0.687084 0.429412 8882055
-0.101165 -0.0492545 0.838613 7763574
0.489949 0.843592 0.301367 7039851
0.541722 0.690998 0.310058 9605778
0.224286 0.064858 0.700757 4473924
0.744175 0.456429 0.509588 5000268
0.591952 0.890146 0.306109 7303023
-0.210163 -0.0429399 0.916434 5329233
0.536601 0.680346 0.318922 8684676
1.10354 -0.179584 1.10103 2302755
-0.207409 -0.0693778 0.951909 5000268
0.209633 0.0764465 0.696884 5000268
-0.215005 -0.0616949 0.931131 4342338
0.190437 -0.157974 0.830968 10592673
-0.21283 -0.0673122 0.93993 4802889
0.5396 0.779763 0.382308 8882055
-0.211266 -0.0523247 0.923219 4605510
0.713157 0.32422 0.600285 7237230
-0.210524 0.0741957 0.771905 4144959
0.925147 -0.136878 1.00925 5131854
0.558567 0.799253 0.390517 7697781
0.698771 0.696425 0.447503 5789784
0.575835 0.785032 0.411261 10263708
0.689578 0.370475 0.57445 5987163
0.481693 0.860373 0.346798 7303023
0.699285 0.376003 0.575839 5000268
-0.164359 -0.0280659 0.823832 10066329
0.892281 0.319398 0.545271 7368816
0.470304 0.779252 0.266833 7237230
0.878212 0.32276 0.534524 6381921
-0.208362 -0.0153036 0.879085 5460819
0.597463 0.661757 0.37706 8289918
0.558187 0.827661 0.393874 7895160
0.738479 0.45297 0.544602 4079166
-0.207647 -0.00566819 0.866599 5658198
0.473595 0.787083 0.273798 8026746
-0.20767 -0.00607386 0.867053 5526612
0.84783 -0.166025 1.13706 2434341
0.179618 -0.151744 0.848785 10197915
0.181584 -0.134522 0.863604 10526880
0.703327 0.427852 0.723845 3618615
0.477609 0.845355 0.346351 7895160
-0.207853 0.000982761 0.856411 5263440
0.710921 0.340457 0.615422 6052956
0.011526 0.0198035 0.710996 8947848
0.985063 0.335083 0.593317 3947580
-0.0529462 0.0312666 0.709818 12237498
0.00979283 0.0268699 0.714875 12434877
-0.0767941 0.0343724 0.717947 11513775
-0.195241 1.48679 -0.144436 4539717
-0.0331725 0.0275384 0.732992 11711154
-0.0244164 0.0293971 0.721366 12040119
-0.0170969 0.0276033 0.726822 12500670
-0.0977452 0.007434 0.760611 13421772
-0.0323955 -0.815094 1.88079 9079434
-0.161648 -0.808377 1.89298 8684676
-0.135008 -0.784104 1.84326 8816262
-0.231859 -0.834694 1.95726 9211020
-0.0512624 0.0320352 0.721961 11711154
-0.541178 -0.724257 1.80826 8684676
-0.481053 -0.729781 1.80868 8684676
-0.43737 -0.833961 1.99709 9342606
-0.650312 -0.642121 1.67512 9671571
-0.633653 -0.681331 1.74613 9539985
-0.632023 -0.691974 1.76588 9539985
-0.646742 -0.640149 1.6769 11908533
-0.534404 -0.698301 1.76804 12105912
-0.141203 0.0359836 0.742608 14342874
-0.0264589 0.0243443 0.7144 8750469
-0.00172896 -0.0327398 0.810396 10132122
-0.0139388 0.0545143 0.761356 9079434
0.00465246 0.0249067 1.62407 7105644
-0.129938 0.0674579 0.743417 9539985
-0.0162745 0.0237987 1.63851 7631988
-0.12387 0.0669878 0.743349 9474192
-0.0760487 0.0633275 0.742552 10000536
-0.0479657 0.0612487 0.741676 9803157
-0.121514 0.089397 0.72911 6381921
-0.079641 0.0864119 0.718937 4868682
-0.0185128 0.0853313 0.689614 6118749
-0.0463826 0.0855235 0.703225 5066061
-0.0516448 0.0865489 0.699056 4539717
0.543819 -0.241511 1.34934 2171169
-0.38093 -0.493899 1.51739 7434609
0.000901051 0.0820135 0.697916 5000268
0.0431356 0.0780195 0.698574 5658198
0.0382176 0.0766484 0.710387 5395026
0.0662104 0.0759882 0.696214 4868682
0.0547993 -0.110386 0.953776 8618883
-0.43256 -0.441842 1.44444 2105376
0.139505 0.0699898 0.686449 4539717
-0.409893 -0.470714 1.5175 3026478
-0.0479416 -0.890768 1.92302 11382189
-0.0650883 -0.890692 1.92856 10461087
-0.0436739 -0.915919 1.97015 9211020
0.18939 -0.642399 1.69105 8553090
-0.203393 -0.867208 1.91253 10395294
-0.166995 -0.874414 1.92034 10132122
-0.371347 -0.483163 1.50412 7039851
-0.253354 -0.832405 1.86095 10526880
-0.327559 -0.832728 1.87489 9868950
-0.323138 -0.831831 1.87269 10263708
-0.398292 -0.786551 1.80563 9934743
-0.490163 -0.715909 1.69539 11053224
-0.472996 -0.737039 1.73072 9671571
-0.537873 -0.688327 1.6556 9803157
0.192824 -0.63571 1.70067 7368816
-0.372086 -0.483362 1.50359 7303023
-0.0377211 -0.90494 2.04932 9342606
-0.086989 -0.874006 2.00248 9474192
-0.462422 -0.451158 1.45466 3618615
0.204854 -0.470129 1.36803 2763306
-0.173626 -0.846983 1.96801 9276813
-0.249119 -0.866177 2.01801 8421504
-0.22493 -0.874348 2.02984 8487297
0.309403 -0.764622 1.64093 4868682
-0.375201 -0.836827 1.98822 8882055
-0.329295 -0.842466 1.99229 9211020
-0.421425 -0.831995 1.98931 8487297
-0.522901 -0.824274 1.99279 9079434
-0.626003 -0.8248 2.01202 8158332
-0.00524285 -0.867277 1.87586 9342606
0.222195 -0.59909 1.64949 3223857
-0.516417 -0.117142 1.29705 5329233
-0.0627673 -0.0551436 0.8432 10855845
0.604231 -0.626875 1.64943 2434341
0.00313775 -0.0558655 0.831242 10987431
0.615148 -0.541938 1.47087 1315860
-0.0677387 0.0857596 0.715711 5592405
-0.0185879 0.0814908 0.713416 5066061
-0.0309916 -0.0326779 0.807721 10066329
0.0361339 0.0775852 0.706702 6579300
0.0956701 0.0755692 0.679517 4539717
-0.537416 -0.122976 1.30344 5066061
-0.0215992 0.0587346 0.740968 9474192
-0.0197855 -0.000680104 0.758092 10855845
-0.0371563 0.00163113 0.758379 10790052
-0.058416 0.00555308 0.750744 9276813
-0.461031 -0.451616 1.45688 2829099
-0.567141 -0.3775 1.38387 2894892
-0.370254 -0.481173 1.50903 7039851
0.0246663 -0.866278 1.96174 8092539
-0.356362 -0.458789 1.51414 5789784
0.361464 -0.603536 1.66776 1579032
0.309272 -0.707223 1.63386 2631720
0.184786 -0.787147 1.66873 6908265
0.331768 -0.713499 1.65884 4210752
0.294329 -0.781308 1.63611 3684408
-0.414327 -0.382523 1.37675 2763306
0.0259906 -0.90911 1.94153 10987431
0.527214 -0.609065 1.65891 1907997
-0.00426328 -0.867683 1.87853 8618883
0.457241 -0.752758 1.5835 4802889
0.199766 -0.591464 1.73351 7237230
0.0186983 -0.908558 1.95902 8947848
-0.375556 -0.507636 1.71021 8947848
0.543928 -0.719845 1.54568 2039583
-0.401167 -0.0916028 0.775969 4605510
0.191098 -0.727777 1.66445 6118749
0.310543 -0.720366 1.63104 3684408
-0.404986 -0.366096 1.41802 2434341
0.031736 -0.871295 1.97262 10855845
-0.352861 -0.494073 1.72035 8947848
0.200271 -0.677797 1.58219 5658198
-0.343795 -0.459839 1.65175 5921370
0.446938 -0.717233 1.62842 3355443
0.517374 -0.250689 0.939727 2039583
0.305799 -0.767305 1.64773 4408131
0.208027 -0.55717 1.75791 5789784
0.547995 -0.685064 1.56915 2697513
0.481275 -0.704338 1.62371 3618615
-0.341444 -0.478863 1.71855 8026746
0.435811 -0.663397 1.55851 4473924
0.219418 -0.426371 1.48764 2894892
-0.47349 -0.532971 1.51353 7829367
0.210674 -0.45457 1.44338 1907997
0.189105 -0.652738 1.69281 8158332
-0.314072 -0.445874 1.72622 7434609
0.331863 -0.701576 1.68934 3421236
-0.428139 -0.393654 1.41153 2434341
-0.426339 -0.519316 1.5097 8487297
0.229929 -0.394025 1.46138 2565927
0.682531 -0.634995 1.48879 2105376
-0.0433836 0.0285075 0.715458 12171705
-0.309157 -0.43568 1.72668 6842472
0.198262 -0.685992 1.71165 7105644
0.216029 -0.502574 1.75306 6513507
0.202877 -0.614893 1.5698 3092271
0.186977 -0.14212 0.830487 5329233
-0.408394 -0.511589 1.50721 6842472
0.193541 -0.531406 1.42013 2565927
0.183788 -0.141163 0.834796 8224125
0.693856 -0.654417 1.55442 1381653
-0.488657 -0.304514 1.34322 1579032
0.441884 -0.656976 1.62057 2697513
0.24462 -0.37657 1.39635 3158064
0.55056 -0.651423 1.58443 2302755
-0.317337 -0.375834 1.60771 5131854
-0.392217 -0.501886 1.50675 7171437
0.231323 -0.383884 1.48024 1907997
-0.551966 -0.479452 1.5069 2500134
0.223136 -0.444172 1.65481 6776679
0.217011 -0.505926 1.76388 7368816
0.222946 -0.434446 1.63281 7105644
0.19069 -0.63867 1.6871 5921370
-0.29617 -0.413809 1.73502 7566195
0.542922 -0.367148 1.04833 1776411
0.254652 -0.33393 1.36399 3684408
-0.451869 -0.451167 1.45944 1973790
-0.340046 -0.31614 1.49869 3947580
-0.373861 -0.484205 1.50962 6250335
0.180399 -0.133584 0.850101 8487297
0.242923 -0.445513 1.68982 7171437
0.217764 -0.491214 1.38466 3421236
0.18143 -0.132599 0.8534 9276813
0.338205 -0.641838 1.67561 2105376
-0.417516 -0.258836 1.38176 3289650
-0.442575 -0.44643 1.45584 2631720
-0.388097 -0.258531 1.40298 2434341
0.218196 -0.60873 1.65475 1250067
-0.343981 -0.285694 1.48866 3750201
-0.583299 -0.372435 1.36341 2960685
-0.282901 -0.383895 1.75158 7105644
-0.418551 -0.451574 1.49272 2500134
0.258058 -0.386079 1.60221 7763574
0.195109 -0.620682 1.70602 6908265
0.252462 -0.300887 1.36203 3223857
-0.578793 -0.382111 1.3857 3552822
-0.342439 -0.279101 1.48428 4079166
0.497704 -0.626815 1.65641 2763306
-0.401995 -0.229681 1.36977 2565927
-0.380528 -0.258678 1.39723 2500134
-0.480841 -0.160371 1.20387 2368548
0.545615 -0.633768 1.66319 1579032
-0.16067 -0.0814465 0.894654 8618883
-0.16304 -0.0811024 0.901463 12895428
-0.0239007 -0.0929692 0.886213 12434877
-0.0219924 -0.0898091 0.883051 12763842
0.264694 -0.373153 1.67109 6710886
0.280314 -0.384539 1.678 7434609
0.26668 -0.374164 1.65531 7566195
-0.344452 -0.245183 1.47649 3881787
0.254614 -0.341683 1.38105 4539717
0.0146707 -0.0621947 0.841596 9013641
-0.0472622 -0.00685456 0.775724 9079434
-0.559376 -0.121468 1.17588 3487029
-0.44254 -0.165033 1.27402 2039583
-0.0219602 -0.00421001 0.765963 9671571
0.251034 -0.309743 1.36503 5000268
0.185041 -0.108884 0.868753 8289918
-0.633422 -0.200998 1.23413 2302755
-0.382822 -0.11743 1.35098 2565927
0.247021 -0.119582 0.928459 1842204
0.70098 -0.213573 1.30197 2434341
0.249251 -0.119171 0.929033 2171169
-0.428825 0.0166668 0.855562 6513507
-0.412696 -0.156163 1.27078 2105376
0.0344201 -0.0248185 0.844448 6250335
-0.1996 -0.0806781 0.959916 6118749
0.635544 -0.25884 1.25941 2039583
-0.382992 -0.125323 1.40881 3223857
-0.206152 -0.0705207 0.942384 5723991
-0.270853 -0.343851 1.70403 7171437
-0.419428 -0.170814 1.33456 2697513
-0.427019 -0.0947438 1.31471 3092271
0.262778 -0.111708 0.921508 2434341
-0.421047 -0.0923609 1.32484 3552822
-0.207945 -0.0688551 0.94282 5723991
-0.464831 -0.0131585 1.03067 6842472
-0.118089 -0.0447711 0.840232 8947848
-0.376198 -0.121123 1.43708 5066061
-0.408666 -0.169407 1.35698 2631720
0.0337497 -0.0127834 0.833526 5526612
-0.0169981 -0.0509272 0.835696 10000536
0.248558 -0.116166 0.919555 3092271
0.00889402 -0.0524529 0.831889 9408399
-0.160239 -0.0786464 0.889016 10197915
0.19372 -0.0844272 0.883304 10526880
-0.398951 -0.0851834 1.34587 4144959
-0.0746833 -0.0382329 0.82482 11250603
-0.404376 -0.0958319 1.40784 3355443
-0.0585614 -0.0323945 0.813027 10526880
-0.298665 -0.318645 1.5621 5921370
0.262942 -0.0903158 0.88712 3552822
-0.455486 -0.00654586 1.099 6250335
-0.0183607 -0.0767873 0.865583 12566463
-0.374905 -0.0827487 1.43637 3881787
-0.0832732 -0.0719009 0.868452 14803425
-0.204075 0.0411535 0.792521 6645093
-0.342654 -0.188599 1.4653 3618615
-0.431484 -0.15205 1.33568 2631720
-0.123095 -0.0232745 0.811915 8750469
-0.353421 -0.0645128 1.3535 3881787
-0.157027 -0.0248353 0.816133 13421772
-0.00192638 -0.0312417 0.803767 9737364
0.0382679 0.0268257 0.77594 5658198
0.264032 -0.0741154 0.864975 3684408
-0.128841 -0.0221288 0.809823 10395294
-0.210824 -0.0371915 0.908187 5526612
-0.438052 -0.0062844 1.158 6710886
0.199086 -0.0686627 0.902389 8355711
-0.204267 0.061249 0.763027 5723991
-0.164786 -0.0108238 0.799744 8882055
-0.274006 -0.286693 1.63012 4605510
-0.489124 -0.0516653 1.34402 6645093
-0.461813 0.00954822 1.22126 5789784
-0.368099 -0.165937 1.44694 4276545
0.0238336 0.0544187 0.73808 5987163
-0.129783 -0.0100881 0.793977 11711154
-0.416373 -0.185138 1.34712 3223857
-0.177874 0.091793 0.711465 6250335
-0.486883 -0.115618 1.3243 4079166
-0.164468 -0.0139777 0.805911 9079434
0.264162 -0.0615324 0.846366 2500134
-0.173049 0.0967531 0.702338 6250335
0.711101 -0.457936 1.50616 2697513
-0.452035 -0.0893564 1.21863 3618615
-0.187776 0.104754 0.713905 4737096
-0.210231 -0.0244423 0.88921 5658198
-0.187854 0.105145 0.718975 3750201
0.17524 -0.0528952 0.853102 7303023
-0.180469 0.108127 0.697578 4013373
0.290472 -0.0732085 1.74108 2763306
0.777345 -0.353774 1.74067 1710618
-0.0409355 -0.00805494 0.775374 9276813
0.253959 -0.0901364 0.899049 6579300
0.264281 -0.0561088 0.839784 4079166
-0.503675 -0.155225 1.29246 3092271
0.651262 -0.281421 1.5353 3158064
-0.129039 0.00244823 0.773767 11184810
-0.154412 0.0164095 1.69824 7039851
-0.587136 -0.057288 1.14431 7237230
0.296777 -0.0545257 1.72415 2302755
-0.145913 0.117126 0.817148 4079166
-0.0627888 0.0219599 1.65631 6842472
-0.142836 0.0812487 0.988524 3750201
0.323103 -0.0470225 1.66739 2434341
-0.464169 0.0998135 1.29589 4408131
0.0903486 0.0192006 1.65025 5395026
0.301486 -0.0498256 1.72817 2829099
0.214136 0.0742798 0.982787 3026478
-0.438746 0.0585262 1.44234 4079166
-0.156927 0.125717 0.824162 4342338
-0.143887 -0.00330877 1.72975 7434609
-0.347963 0.0621059 1.67271 3421236
-0.349162 0.0636778 1.67117 3355443
0.225819 0.0828714 0.762626 2697513
-0.345227 0.065781 1.65905 4539717
-0.291746 0.213128 1.4473 6381921
-0.155224 0.127366 0.825375 3947580
-0.450898 -0.109229 1.3648 4276545
-0.354247 0.0685773 1.6658 3618615
-0.196978 0.0855497 0.73894 6645093
-0.145422 0.12629 0.841178 3355443
0.516064 0.15383 1.34737 4934475
0.223148 0.086235 0.971315 2302755
-0.139993 0.209358 0.994729 4605510
-0.390872 0.0951761 1.63538 3355443
-0.0253786 0.203225 1.40325 5066061
-0.155207 0.13854 0.853886 4342338
-0.11638 0.217447 1.02008 4605510
-0.40088 0.10133 1.63327 3750201
-0.0314638 0.231539 1.38103 5592405
0.224781 0.0957707 0.975848 2565927
-0.163056 0.0262109 0.749737 11513775
-0.144091 0.138295 0.870136 3223857
0.532572 0.187277 1.27508 4934475
-0.406162 0.106346 1.62339 3947580
-0.150749 0.033091 0.73537 13224393
-0.358468 0.27736 1.36541 6381921
-0.268367 0.114934 1.48164 5789784
0.0376895 0.0866294 1.59016 5921370
0.00965551 0.258238 1.36744 3223857
0.0312859 0.0918157 1.53625 5921370
-0.551752 -0.0162816 1.3103 6645093
-0.535176 0.0420783 1.34008 5921370
-0.446582 0.130641 1.61369 4013373
0.228368 0.109645 0.983107 2960685
-0.0184324 0.264528 1.34845 4671303
-0.447913 0.132402 1.60713 3750201
-0.476095 0.143759 1.62579 3750201
-0.30786 0.136326 1.55564 5592405
0.23083 0.123606 0.888874 2763306
0.0350854 0.115144 1.51829 5723991
-0.502312 0.16057 1.58165 3026478
0.229597 0.1239 0.989209 2500134
0.238797 0.129545 0.880263 2697513
-0.512005 0.164153 1.60167 3355443
-0.432873 -0.0143505 1.4182 4868682
0.230195 0.13074 0.990577 2829099
0.231144 0.133108 0.98688 4210752
-0.00473321 0.142917 1.4943 5855577
0.016605 0.0327446 0.720383 7829367
0.221261 0.142786 1.00026 4144959
0.233066 0.141889 0.995705 3026478
-0.666009 0.201522 1.80355 3223857
-0.0590216 -0.0317483 0.811159 10790052
-0.1364 0.182691 0.970363 3750201
-0.201884 0.0949885 0.741919 3487029
-0.265712 0.193379 1.45403 5723991
0.589941 -0.031279 1.60348 1842204
-0.0610648 0.111018 1.54251 5395026
-0.623105 -0.00185691 1.08692 7631988
0.59353 -0.0788984 1.67217 1973790
0.16583 0.0713037 0.697713 4342338
-0.243815 0.124939 1.54263 5658198
-0.400741 0.0172137 1.45841 3223857
0.0955675 -0.0403135 1.72419 2697513
0.100366 -0.0418053 1.7335 3289650
0.096739 -0.0383375 1.71923 4013373
0.286602 -0.0302373 1.5921 2039583
0.586941 -0.0474959 1.61222 1842204
0.0577732 -0.0249021 1.68571 2631720
0.222731 0.0569227 0.970558 2631720
-0.049622 -0.0109174 1.67754 6908265
-0.324668 0.043518 1.67627 3487029
0.0124513 -0.0100012 1.69704 4342338
0.176297 -0.0143574 1.66571 5395026
-0.286289 0.00874577 1.7182 3684408
-0.565643 -0.0434075 1.28014 6776679
0.131527 -0.0115839 1.6873 5329233
-0.606219 0.115563 1.19977 5000268
-0.2914 0.0103849 1.71845 2960685
-0.377108 -0.0849495 1.43952 3552822
0.237546 0.106169 1.49817 4868682
-0.505748 0.0934839 1.40138 4144959
-0.453604 0.0482325 1.48859 4079166
-0.162742 0.0529983 0.730576 9342606
-0.0573288 0.00559689 1.67866 4605510
-0.363548 -0.0939073 1.52735 4671303
-0.0611765 0.00853345 1.6663 6316128
-0.0209005 0.00424413 1.6843 6710886
-0.350485 0.0655416 1.66992 3355443
-0.343316 -0.081256 1.50158 4408131
0.213275 0.068772 0.981746 3158064
-0.632719 0.0207834 1.07351 6513507
-0.453533 0.062277 1.40313 4013373
-0.564506 0.169597 1.483 1381653
-0.441479 0.0579855 1.45725 3815994
0.223362 0.0836502 0.968638 2894892
-0.2084 0.0661917 1.61484 5395026
0.209658 0.103019 0.78853 2500134
-0.306874 0.024398 1.71097 3421236
0.215932 0.0869836 0.987544 2763306
0.165672 0.00377083 1.65278 5395026
-0.497951 0.0895844 1.40936 3947580
-0.343185 0.0577136 1.67983 3355443
0.208925 0.0623726 0.700499 3947580
0.145794 0.0388764 1.58437 5658198
-0.323449 0.038648 1.70013 3684408
-0.520315 0.0991032 1.34127 5000268
0.0828691 0.0451775 1.61065 5987163
-0.516284 0.177776 1.5229 4144959
0.216037 0.0983995 0.985439 2829099
0.199429 0.115561 0.743236 2631720
-0.521563 0.179122 1.52664 4473924
-0.583653 0.113005 1.30459 5263440
0.234867 0.151695 0.996475 3552822
0.207767 0.0436019 1.60743 5723991
-0.58827 0.128343 1.33804 4539717
-0.413319 0.0862808 1.57001 1710618
-0.0192133 0.155856 1.47794 5592405
-0.366817 0.0788483 1.64653 2829099
0.155622 0.146968 1.46032 5131854
-0.35474 0.0870671 1.64835 5592405
-0.547843 0.191039 1.51948 4079166
-0.0929201 0.0785139 1.60204 5987163
-0.191607 0.103366 0.731582 3289650
-0.510124 0.117933 1.39052 3552822
-0.819998 0.215883 1.39545 3750201
-0.388137 0.0937746 1.63439 3421236
0.242904 0.161878 1.42102 3487029
0.228407 0.110807 0.984294 2565927
-0.594252 0.205837 1.54697 3026478
0.202728 0.126908 0.773029 2565927
-0.566931 0.206042 1.48647 5329233
-0.411518 0.111122 1.60142 2565927
-0.189886 0.191407 1.47529 6447714
0.218908 0.117839 0.992162 2631720
-0.617537 0.211493 1.58513 3881787
0.223307 0.125158 0.865096 2500134
0.204702 0.173726 0.869033 2368548
-0.416733 0.116746 1.61623 4671303
-0.0435953 0.185525 1.44158 5987163
0.0716839 0.0955837 1.56344 5329233
0.224659 0.17446 0.997779 2631720
-0.258664 0.114427 1.57086 6250335
-0.292355 0.21295 1.44325 6316128
-0.146533 0.194599 0.98373 5263440
0.109463 0.102638 1.52984 6052956
-0.272177 0.202923 1.45627 5921370
-0.505928 0.137735 1.52146 1907997
-0.0725442 0.23042 1.38509 6974058
-0.628412 0.225993 1.50187 4868682
-0.453586 0.216678 1.43995 6776679
-0.561684 0.239924 1.37311 5723991
-0.0436037 0.233408 1.37143 6250335
-0.291323 0.212607 1.44395 6513507
-0.225344 0.249329 1.36258 6974058
-0.513803 -0.421604 1.32886 9474192
-0.410744 -0.515325 1.514 8421504
-0.081564 0.246958 1.35823 6381921
-0.396188 -0.508187 1.50855 11184810
-0.144325 0.205033 1.00617 5395026
-0.401411 -0.50772 1.51139 6842472
0.206276 -0.484775 1.36269 4802889
0.196421 -0.625643 1.67324 2565927
0.849866 -0.755276 1.83286 2500134
0.195571 -0.631246 1.71216 7105644
0.541899 -0.627754 1.64734 2105376
0.240689 0.221959 1.0663 2236962
-0.686075 0.249643 1.47374 3618615
-0.369003 -0.481413 1.50984 8750469
-0.522917 -0.445496 1.46336 2829099
-0.232517 0.22598 1.39549 6184542
-0.469672 0.2783 1.37585 3355443
-0.379591 0.0919112 1.62571 4342338
-0.447463 -0.450374 1.46332 2236962
0.545434 -0.622652 1.6561 1710618
-0.329215 0.274021 1.39 6710886
-0.173914 0.224104 1.39976 6908265
-0.137798 0.253225 1.12011 6052956
0.353992 -0.599034 1.67011 2039583
-0.0200383 0.218175 1.39284 4802889
-0.312145 0.234652 1.41486 6316128
-0.237134 0.271449 1.35159 6842472
-0.561508 -0.376287 1.38483 2434341
-0.363623 -0.434842 1.48285 2697513
0.358532 -0.577978 1.67882 1118481
-0.361019 0.279944 1.37617 6316128
-0.473509 -0.348527 1.33658 2894892
-0.0175461 0.263364 1.33126 4144959
-0.345281 -0.434835 1.51393 6908265
-0.166467 0.27368 1.36506 6710886
-0.0297418 0.229921 1.38449 5789784
0.259293 -0.116898 0.929274 2105376
0.22892 -0.527307 1.64759 2039583
0.2166 -0.433695 1.46265 2302755
0.208604 -0.561432 1.77383 7368816
-0.230078 0.254677 1.37432 8289918
-0.195992 0.243274 1.3771 6776679
-0.15683 0.277021 1.31412 6513507
0.022568 0.112313 1.5264 5592405
0.217685 0.128931 0.98942 4210752
-0.463974 0.258698 1.40146 4276545
-0.460413 0.138296 1.60651 3026478
-0.604737 0.15682 1.44887 2960685
-0.112855 0.252494 1.02849 5000268
-0.475531 0.145883 1.59257 2236962
0.205002 0.110815 1.55338 5526612
-0.382414 0.293617 1.35787 6052956
-0.47573 0.148539 1.58773 3289650
-0.469165 0.300003 1.33437 4144959
-0.245438 0.14432 1.53211 5460819
-0.12254 0.157217 1.01105 5131854
-0.442856 0.157146 1.56927 6184542
-0.0238431 0.133525 1.60169 6447714
0.176414 0.1285 1.50533 6250335
-0.0926538 0.248296 1.35923 6710886
0.223192 0.129434 1.47099 6381921
0.280119 0.1277 1.46565 5329233
0.162119 0.134742 1.47906 6052956
-0.611032 0.179526 1.56013 1447446
-0.519466 0.177724 1.52585 3355443
-0.524737 0.177986 1.5325 2631720
-0.341801 0.275024 1.34296 7303023
-0.0356073 0.143116 1.49309 6184542
-0.220351 0.158248 1.49463 6250335
-0.407933 -0.22682 1.36591 2894892
-0.356049 -0.252317 1.42748 1973790
-0.501511 -0.152928 1.29419 3092271
-0.112275 0.252741 1.02509 5526612
0.238359 0.127397 1.47608 5789784
-0.0817024 0.269089 1.33254 6316128
0.217554 0.142402 0.986828 4079166
-0.136299 0.176562 0.957259 4539717
-0.0571566 0.266873 1.32586 6447714
0.244805 0.23368 1.1452 2368548
0.217306 0.151571 0.985959 3421236
0.247173 0.230693 1.09873 1907997
-0.43471 0.194311 1.47275 5987163
-0.469571 0.300792 1.33531 4079166
-0.148826 0.180538 0.950042 5789784
0.565441 -0.257459 1.39248 1710618
-0.570751 0.206516 1.49659 5658198
-0.0390486 0.268971 1.31817 5855577
0.227991 0.153698 0.936994 3223857
-0.269236 0.287862 1.33324 6579300
0.242587 0.154143 0.928034 3618615
-0.0390403 0.269845 1.31664 6118749
-0.125454 -0.0365196 0.832087 10000536
0.247533 0.235259 1.10676 1644825
-0.640446 0.216355 1.61281 3618615
-0.0443916 0.274087 1.30183 6513507
-0.222346 0.186225 1.46516 5987163
0.207186 0.0624264 0.697821 3487029
-0.585067 0.0835816 1.31226 5658198
-0.298793 0.0258185 1.677 4013373
-0.317246 0.0347257 1.69573 3158064
0.0448075 0.0137433 1.65203 7039851
0.199823 0.00245568 1.65775 5723991
-0.0285693 0.0252576 0.714958 12105912
-0.0810907 0.0282357 1.65792 5855577
-0.454743 0.0818468 1.45422 4342338
0.216952 0.0741267 0.768293 3289650
-0.0694266 -0.0194551 0.79683 10987431
-0.499973 0.0917083 1.41081 4276545
-0.127817 0.101423 0.997778 4013373
-0.247077 0.0548102 1.60993 5789784
0.159116 0.0293708 1.60021 5723991
-0.345964 0.0669948 1.64581 4013373
-0.59171 0.11502 1.32679 5526612
0.556995 0.171922 1.36346 5066061
0.0159874 0.0256882 0.718733 10000536
-0.532457 -0.123258 1.30479 3750201
0.000374809 0.0273317 0.719343 11579568
-0.151367 -0.00519623 0.786118 13948116
-0.434267 -0.103175 1.38013 3355443
-0.0984649 -0.010086 0.788574 11119017
0.22605 0.0740443 0.975064 3026478
-0.518825 -0.121865 1.30754 3487029
-0.158572 0.0735673 1.61134 5460819
0.538465 0.180521 1.29207 5395026
-0.423999 -0.0995559 1.38547 3684408
-0.365018 -0.169328 1.44947 3881787
0.270281 0.00104822 0.765848 3289650
-0.0225932 -0.0039499 0.764181 8224125
-0.129296 0.00247686 0.773539 11250603
0.227804 0.0883607 0.982591 2960685
0.0451333 0.0785526 1.56812 5921370
-0.155528 0.00415808 0.777236 13290186
-0.125574 0.128542 1.00079 3881787
0.268125 -0.0427343 0.826455 3750201
-0.499075 -0.118777 1.32615 3289650
-0.434976 0.137476 1.55082 4210752
-0.0354297 0.000912383 0.75955 11579568
-0.469798 -0.0858561 1.38569 5592405
-0.409311 -0.0881281 1.40043 4934475
0.268222 -0.0382266 0.820452 4737096
-0.489936 -0.114308 1.31924 3618615
0.0170234 0.036863 0.727288 9276813
-0.078415 0.00579385 0.761009 12632256
-0.0192865 0.00327893 0.753285 12369084
0.502591 -0.199672 1.67658 2829099
0.695492 -0.28964 1.62234 2236962
0.27034 0.016607 0.743716 3421236
-0.424963 -0.130716 1.36915 3815994
-0.392606 -0.0908647 1.4427 3750201
-0.379307 -0.130593 1.35554 2763306
-0.162739 0.0528844 0.73185 9211020
-0.119165 0.0138827 0.756917 14211288
-0.207774 0.0409495 0.802319 5658198
-0.204741 0.0475834 0.782261 6316128
-0.162245 0.0533488 0.726367 9605778
-0.53353 -0.0470193 1.30484 6447714
0.271021 0.0216327 0.735253 2434341
0.0168619 0.0399196 0.725617 9474192
0.0401738 0.0351722 0.765477 6842472
-0.461396 -0.110185 1.35362 4144959
-0.555571 -0.0847509 1.28801 5723991
0.270655 0.0250416 0.731317 3289650
0.0340119 0.0480555 0.752476 5460819
-0.379031 -0.0873459 1.46539 3881787
-0.460543 -0.116433 1.3906 2894892
-0.455728 -0.0694867 1.4259 5855577
-0.162658 0.0267633 0.746832 10592673
-0.399341 -0.0673541 1.4238 4802889
-0.461301 -0.0228626 1.30598 5066061
-0.536538 -0.026607 1.29451 4934475
0.258992 0.0464354 0.700962 5395026
-0.161031 0.0683718 0.74312 8750469
0.0400972 0.0458707 0.748337 6710886
-0.0493534 0.0611784 0.741555 9145227
-0.163411 0.0977538 0.687447 6118749
-0.0326956 0.0600415 0.741192 8618883
-0.206951 0.0614524 0.772386 4802889
-0.103548 0.0653991 0.743161 10263708
-0.38561 -0.0701639 1.4779 4408131
0.0187298 0.0524434 0.739101 7368816
-0.0952842 0.0648762 0.742776 9276813
0.623173 -0.0768629 1.57125 2039583
-0.0825035 0.0639771 0.742635 8684676
0.0230198 0.0540884 0.741523 6908265
-0.0636863 0.062928 0.741048 9539985
-0.0130676 0.0575853 0.740245 9342606
0.00141551 0.0565482 0.740163 9342606
-0.147621 0.0690116 0.744112 9013641
-0.16984 0.094082 0.722689 4605510
0.675825 -0.0615385 1.66157 2105376
-0.15066 0.0924702 0.724222 3947580
-0.438185 -0.0361152 1.42122 5131854
0.60613 -0.0420593 1.59413 2763306
0.237076 0.0541565 0.699256 4802889
0.214711 0.0702945 0.703495 3487029
0.241475 0.0532861 0.702133 4276545
-0.495405 0.0143366 1.33087 5723991
0.184049 0.0726026 0.706062 3158064
-0.47003 0.0927665 1.45387 2500134
0.177683 0.0593874 0.703498 6381921
-0.544102 0.0164159 1.36455 5395026
0.189447 0.0586836 0.702755 6447714
0.223909 0.0810477 0.788302 3289650
0.197204 0.0583776 0.70143 5395026
-0.70902 0.00453974 1.33909 5855577
-0.44776 0.0101799 1.39522 4276545
-0.0611606 0.0574821 1.61378 6052956
0.151006 0.0362092 1.60874 6118749
-0.541529 0.00377452 1.30157 5263440
0.0810086 0.0338245 1.76716 6710886
0.227253 0.0589057 0.706054 4013373
0.033518 0.0893637 0.721849 3552822
-0.634839 0.00639793 1.3292 5526612
0.625736 -0.00536172 1.56149 1579032
0.144312 0.0660719 0.708934 4473924
0.153283 0.0425268 1.58485 5723991
0.148968 0.0668822 0.702667 5131854
-0.109446 0.0709382 1.59873 5460819
0.214283 0.0625297 0.704254 4802889
0.226555 0.0937936 0.8201 3421236
-0.181683 0.0971928 1.57256 5592405
0.238703 0.0958758 0.814643 3487029
-0.51816 0.163814 1.04611 4079166
0.0720472 0.0729429 0.712404 4342338
0.184412 0.0672911 0.699398 3618615
-0.169344 0.10533 0.720749 4013373
0.0563549 0.0747574 0.711764 6316128
0.206658 0.0726522 1.55001 6118749
0.0862804 0.0740966 0.703556 7500402
-0.448042 0.145758 1.53787 3750201
-0.126374 0.0864377 0.722246 6645093
0.0217699 0.0777426 0.712061 6118749
-0.475619 0.156855 1.54317 3618615
-0.0224034 0.0812677 0.716436 4868682
0.228457 0.107699 0.852463 3684408
-0.0464242 0.0834136 0.717219 4539717
0.177535 0.091968 1.5216 5921370
-0.0398567 0.0829418 0.717262 5131854
0.281637 -0.07018 1.70923 2763306
-0.0645619 0.0851872 0.717741 5197647
0.226009 0.0779491 0.964082 3618615
0.109846 0.104958 1.51653 5987163
-0.199921 0.137777 1.54038 5855577
-0.0819265 0.0868495 0.718583 4342338
-0.0978758 0.0880112 0.721747 5131854
0.0915979 -0.0513455 1.70846 3289650
0.113328 0.0764814 0.70224 4342338
-0.0170453 0.126163 1.47571 6118749
0.148952 0.0731935 0.706749 3947580
-0.535873 0.0489417 1.32414 5329233
0.150441 0.0730936 0.70672 5395026
0.338903 -0.0622223 1.67656 3092271
0.241917 0.118579 0.867485 3289650
-0.564605 0.249579 1.35513 2236962
0.31827 -0.0438742 1.63509 2039583
-0.121727 0.0901923 0.72223 4868682
-0.14911 0.00649987 1.68891 6908265
0.0962478 -0.0357283 1.69513 2894892
-0.14892 0.00811605 1.68678 7763574
0.40465 0.0994536 1.49055 5921370
0.214352 0.0707833 0.982987 3223857
0.294226 -0.0480986 1.69761 2631720
0.459574 0.0847466 1.47822 4802889
0.66608 -0.0377199 1.62835 1973790
-0.440131 0.0589852 1.44852 4013373
-0.296626 0.0217969 1.68881 3223857
0.212818 0.0612886 0.982003 2697513
-0.00429076 0.00769375 1.64427 5855577
0.441077 -0.0359409 1.63607 3815994
-0.0201742 0.00876661 1.66678 6842472
-0.4579 0.0565443 1.42236 5197647
0.0532531 0.00679836 1.6422 5789784
-0.420134 0.0555357 1.41026 3223857
-0.673231 0.0889334 1.38272 5460819
0.199227 -0.0199492 1.6811 5329233
-0.152597 0.0209595 1.67233 7105644
-0.435527 0.0562696 1.44 3684408
-0.0894563 0.0214889 1.66668 7697781
-0.294009 0.0109186 1.73157 3750201
0.16867 0.00657807 1.6479 5855577
0.660825 0.0648545 1.39034 3487029
-0.32454 0.0468113 1.66234 2960685
-0.044607 0.184283 1.43495 6579300
-0.48189 0.0853645 1.41001 3092271
0.0915973 0.0260974 1.6259 5592405
-0.407948 0.119807 1.58047 5395026
0.604756 -0.00282478 1.58191 2171169
0.662191 0.0610676 1.46055 3552822
0.612385 -0.00187832 1.56826 2302755
1.06601 0.0222436 1.65622 2631720
-0.10443 0.104027 1.55162 5263440
0.216604 0.0885656 0.989112 2631720
0.572524 0.0696879 1.45175 4144959
0.0144915 0.0356132 1.64679 5329233
0.589004 0.070328 1.42702 4013373
-0.144993 0.128519 0.849054 4013373
-0.340461 0.0650053 1.63639 3158064
-0.069656 0.107009 1.54846 5395026
0.503382 0.0760718 1.49388 4013373
-0.343377 0.0700282 1.62677 3618615
0.513228 0.0764302 1.47877 3947580
0.253504 0.102969 0.881621 2697513
-0.0229986 0.107516 1.53365 5789784
-0.117584 0.213477 1.01672 3223857
0.472338 0.079881 1.48361 4079166
-0.258982 0.0795697 1.5613 4802889
0.258947 0.106487 0.90289 2631720
-0.953615 -0.0569522 1.80376 5395026
-0.140736 0.15655 0.910233 3355443
-0.364572 0.0851482 1.61726 3815994
-0.442454 0.136652 1.56271 3355443
0.227433 0.103227 0.979798 3223857
0.407092 0.0868614 1.51549 4210752
-0.586844 0.159008 1.35747 3355443
-0.371021 0.0887254 1.6103 3092271
-0.451455 0.22846 1.39104 6447714
-0.282473 0.0847191 1.59109 5460819
0.309861 0.098603 1.48038 4210752
-0.0899215 0.0338717 0.718052 13750737
-0.12578 0.128648 1.00226 4276545
-0.141621 0.0815872 1.58167 5987163
0.304674 0.101236 1.46089 4802889
0.231362 0.117613 0.887203 3092271
-0.107102 0.205163 1.46915 6381921
0.017404 0.0109738 0.799966 7895160
0.220121 0.110131 0.999079 3026478
0.232958 0.105643 1.50379 5526612
-0.401637 0.108739 1.59005 3487029
0.276038 0.102453 1.51348 4671303
-0.556827 0.133769 1.41783 3092271
0.190733 0.113601 1.49391 5658198
-0.125228 0.137854 1.00594 3355443
-0.467305 0.153014 1.53507 3026478
-0.530431 0.138939 1.36861 3223857
-0.150113 0.166213 0.913418 4473924
0.706509 0.0604442 1.37962 3223857
0.0184358 0.125932 1.50616 5855577
-0.28378 0.110321 1.56928 5855577
-0.485016 0.158793 1.53664 2829099
0.0323529 0.0917135 1.55186 5131854
-0.245543 0.144408 1.53182 5526612
0.738287 0.0561035 1.429 3618615
0.219931 0.141767 0.99645 5000268
0.736092 0.0631082 1.33195 3026478
-0.49766 0.165998 1.52586 2236962
0.72658 0.0659248 1.30058 2960685
0.245634 0.146853 0.936553 3092271
-0.520703 0.180593 1.51944 4539717
0.234035 0.147659 0.951589 3947580
-0.0698128 0.162384 1.46437 5921370
0.221673 0.148654 1.00163 4737096
-0.549421 0.192134 1.50336 3684408
-0.484138 0.17125 1.52181 5000268
0.109433 0.15412 1.46071 5789784
0.221279 0.130847 1.46645 5526612
0.243565 0.146681 1.44167 5131854
-0.0371137 0.0602439 0.741461 8882055
-0.0327579 0.0597813 0.741375 9803157
0.245703 0.151038 0.944925 3158064
-0.0105086 0.0574184 0.740687 9605778
0.260182 0.132164 1.46296 4868682
0.0206503 0.0545215 0.742219 5329233
-0.200503 0.160376 1.48154 5658198
0.336524 0.096819 1.48014 4737096
-0.134233 0.156312 1.48361 6645093
-0.563896 0.20016 1.49322 3618615
-0.523684 0.180764 1.51966 3684408
0.72325 0.131032 1.28732 3487029
-0.704924 0.251331 1.47417 3421236
0.0818104 0.166435 1.44934 3947580
-0.420085 0.113028 1.62724 3158064
-0.220875 0.185002 1.46975 6447714
-0.141703 0.218175 1.03457 4802889
-0.0879004 0.177443 1.45625 5789784
0.571245 0.181392 1.36985 4802889
-0.326717 0.192301 1.47372 5197647
0.674808 0.0631368 1.40478 3552822
0.247722 0.168342 0.981878 2565927
-0.301044 0.233551 1.42799 5658198
0.246885 0.160691 1.422 3092271
-0.581112 0.253572 1.34117 4013373
-0.588593 0.209833 1.48139 2763306
-0.134261 0.192179 0.991687 5000268
0.663045 0.0630522 1.44391 3487029
0.033796 0.173767 1.4535 3815994
0.731916 0.0654889 1.30969 3158064
-0.488897 0.161273 1.53764 3026478
-0.125976 0.128991 1.00361 3487029
-0.0296022 0.302078 1.2649 5131854
0.602397 0.0670707 1.45521 3815994
-0.366887 0.327503 1.26078 5723991
-0.112427 0.315318 1.26949 4079166
-0.140206 0.156305 0.911065 3881787
-0.241879 0.328092 1.27502 6184542
-0.479789 0.346013 1.288 5197647
-0.396931 0.333558 1.19993 6908265
-0.130792 0.325253 1.25355 6513507
-0.320889 0.337707 1.26456 6316128
0.714204 -0.631393 1.68364 1052688
-0.0828299 0.324582 1.24219 5592405
-0.510063 0.172864 1.52201 2434341
0.00371746 0.108021 1.52414 5855577
-0.438129 0.344925 1.23138 6316128
-0.435439 -0.397729 1.42657 2236962
0.206555 -0.45081 1.41339 1842204
-0.327858 0.346558 1.25621 6316128
-0.157608 0.124008 0.82218 4342338
-0.0676362 0.332628 1.23703 4539717
-0.449977 -0.4176 1.47899 2105376
0.197434 -0.580306 1.70703 6052956
-0.212321 0.34541 1.24657 6250335
0.0606326 0.150333 1.46244 5987163
-0.207721 0.345386 1.24844 5658198
-0.112239 0.16065 1.47923 6381921
0.209687 -0.453031 1.43496 2302755
-0.148912 0.342793 1.23414 5526612
-0.540721 0.185777 1.51231 2039583
-0.367449 -0.500234 1.69815 8553090
-0.280317 0.355945 1.23699 6513507
0.224414 -0.512605 1.6071 1710618
-0.226419 0.353609 1.23151 5723991
-0.308309 0.357709 1.202 5921370
0.00688617 0.170872 1.43939 4342338
-0.351548 -0.44829 1.58912 4473924
0.104315 0.15239 1.45949 5066061
0.224362 -0.168895 0.825952 2302755
-0.0558524 0.351119 1.20378 5329233
-0.356503 -0.488904 1.69055 8684676
-0.0281433 0.186097 1.42967 5066061
-0.105966 0.342476 1.03928 4671303
-0.535136 0.189923 1.50947 5460819
-0.249407 0.376536 1.21827 7237230
0.225555 -0.538909 1.71704 1842204
-0.0537689 0.365018 1.20118 4605510
-0.335473 -0.314995 1.31619 2236962
0.249319 0.169943 0.989412 2302755
0.208301 -0.541924 1.7578 7434609
0.22456 -0.50035 1.65826 1644825
-0.561125 0.196833 1.50229 3355443
-0.338721 -0.478339 1.72962 8487297
-0.280382 0.245674 1.38166 6118749
0.208701 -0.539459 1.75944 7171437
-0.0794711 0.234371 1.37724 6974058
0.195465 -0.142913 0.816316 4605510
-0.03444 0.232731 1.36802 6381921
0.00584641 0.169667 1.44953 4868682
0.558032 0.168381 1.3837 4802889
0.238053 0.211672 1.09052 2368548
0.225257 0.172405 1.00492 2105376
0.725682 0.132544 1.28539 3289650
-0.283324 0.248687 1.36759 5592405
0.247846 0.17364 0.994137 1776411
-0.641053 0.234393 1.4423 4079166
-0.255236 0.24947 1.37799 6118749
-0.620885 0.218098 1.51079 4144959
-0.63814 0.235755 1.40615 3750201
-0.275953 0.198837 1.44607 5658198
-0.146917 0.188212 0.970208 4671303
0.70953 0.144912 1.18064 3092271
-0.0700019 0.16284 1.46871 6710886
0.529634 0.153874 1.37468 4408131
0.25646 0.22958 1.13906 1907997
-0.269735 0.200617 1.45412 5723991
-0.615963 0.222976 1.4572 3815994
-0.543348 0.193028 1.48837 4539717
-0.13254 0.200355 1.00841 3815994
0.172857 -0.183502 0.840088 7434609
-0.263013 0.26842 1.34105 6579300
-0.621805 0.227777 1.45237 4802889
0.261087 0.235632 1.16194 3223857
-0.118837 0.199988 1.41989 6118749
0.554223 0.162326 1.39615 4802889
-0.178923 0.27135 1.32596 5921370
0.251823 0.240868 1.14643 1579032
0.70015 0.16429 1.05117 3092271
-0.637722 0.232052 1.44182 3552822
-0.392082 0.290193 1.35334 6381921
-0.0342011 0.188928 1.4297 5395026
-0.362089 0.218162 1.49854 6645093
-0.669232 0.248929 1.37906 2631720
-0.0881253 0.276644 1.30801 6842472
-0.273512 0.213296 1.4277 6250335
-0.122422 0.158251 1.00862 4473924
0.184525 -0.307203 1.96316 2565927
-0.293753 0.296494 1.3085 6842472
-0.1423 0.211822 1.01977 4868682
0.147726 0.272398 1.2788 2236962
0.253016 0.227938 1.12514 1776411
-0.679868 0.246466 1.4463 2960685
-0.228391 0.220596 1.41917 6118749
0.262768 0.265445 1.23327 2236962
-0.35486 0.27583 1.35557 5855577
-0.686963 0.255195 1.38918 3421236
-0.0921248 0.213837 1.40053 6381921
-0.241578 0.301107 1.30058 7171437
-0.213496 0.299384 1.29677 6052956
-0.110693 0.295317 1.2871 6645093
-0.17423 0.302256 1.28346 5921370
-0.254602 0.245258 1.37949 6579300
-0.360625 0.313733 1.29513 6381921
-0.214817 0.310158 1.28347 6118749
-0.136772 0.252223 1.10883 4802889
-0.00463463 -0.0288326 0.798286 7960953
-0.116217 0.219422 1.01834 4013373
-0.142846 0.210995 1.01868 5197647
-0.579133 0.252351 1.33996 4342338
-0.178011 0.275539 1.32723 5921370
-0.691306 0.259694 1.35443 3026478
-0.112464 0.250599 1.03072 4934475
0.268585 -0.254611 1.90306 2631720
-0.0720731 0.229374 1.3775 5723991
-0.311737 0.295248 1.3068 6381921
-0.594386 0.257641 1.33484 4079166
-0.290524 0.297598 1.3223 6118749
-0.234587 0.331861 1.26146 5987163
-0.500804 0.34519 1.25086 2236962
0.257515 0.259925 1.20436 2105376
-0.0850249 0.326919 1.24913 4802889
-0.252353 0.293258 1.28699 6118749
-0.109116 0.30665 1.04087 3684408
-0.356867 0.30025 1.27965 5855577
-0.0658346 0.336765 1.23793 4079166
-0.342892 0.349099 1.22585 6710886
-0.111628 0.26375 1.03214 3947580
-0.294212 0.348371 1.23554 6184542
-0.223546 0.298275 1.29567 6447714
-0.0452138 0.338726 1.22814 4737096
0.174018 -0.146444 0.83231 10526880
-0.36571 0.355151 1.2038 6052956
-0.113479 0.238981 1.01997 4934475
-0.227146 0.356256 1.23343 6316128
-0.065721 -0.234458 1.93941 4013373
-0.0386787 0.299168 1.27423 6974058
-0.213637 -0.000266135 0.87515 5000268
-0.290789 0.318659 1.27812 6250335
-0.113382 0.252285 1.03891 4144959
-0.184583 0.294747 1.29813 6052956
-0.0186599 0.0250517 0.713713 9605778
-0.303075 0.326114 1.29008 5789784
-0.161587 0.318556 1.27458 5460819
0.0354428 -0.00202326 0.817739 6184542
-0.0297363 0.298962 1.26792 4671303
-0.107641 0.0282385 0.730766 13882323
-0.110851 0.294271 1.03964 3421236
-0.0329797 0.0267882 0.714951 13487565
-0.0323238 0.0267486 0.714932 13224393
0.613847 -0.0112184 1.63363 2368548
-0.136976 0.0288462 0.739241 14737632
-0.325233 0.0389763 1.70503 2631720
-0.123293 0.028668 0.735945 15132390
-0.163244 0.0297093 0.745697 12040119
0.619729 -0.00816132 1.62439 1579032
-0.468825 -0.00693604 1.30439 5987163
-0.519888 -0.0666798 1.29139 7039851
-0.329547 0.0453935 1.69408 2894892
