# .PCD v0.7 - Point Cloud Data file format
VERSION 0.7
FIELDS x y z rgb
SIZE 4 4 4 4
TYPE F F F U
COUNT 1 1 1 1
WIDTH 1144
HEIGHT 1
VIEWPOINT 0 0 0 1 0 0 0
POINTS 1144
DATA ascii
-0.36365801 -0.37926301 2.6185601 1191226376
0.13509101 -0.143764 0.96332198 1124073728
0.134129 -0.143021 0.96328402 1174432538
0.136039 -0.143004 0.96335602 3204448511
0.133166 -0.142279 0.96324599 3204448511
0.135077 -0.142261 0.96331799 1056964609
0.136988 -0.142243 0.96338999 1174421578
0.134115 -0.141518 0.96328002 1174416002
0.13506299 -0.14075799 0.96331501 0
-0.22050101 -0.382945 2.6145401 3271622400
-0.223197 -0.38086399 2.61444 3221225978
-0.21784399 -0.380815 2.61464 1174417213
-0.22589201 -0.37878299 2.6143301 1157635689
-0.22054 -0.37873399 2.6145301 3221289982
-0.215188 -0.378685 2.6147299 1056964609
-0.223235 -0.37665299 2.61443 0
-0.220578 -0.37452301 2.6145201 3288398850
-0.15220401 -0.37864399 2.59128 1174431249
-0.154872 -0.37658399 2.5911801 0
-0.149573 -0.376535 2.5913799 3271622148
-0.15753999 -0.374524 2.5910699 1073741827
-0.152242 -0.374475 2.59127 1157635954
-0.146943 -0.37442601 2.59147 3288398345
-0.15491 -0.37241501 2.5911701 3204449023
-0.15228 -0.37030599 2.59126 1174414927
0.13142399 -0.142331 0.95815098 3204449279
0.130467 -0.141592 0.95811403 1174421320
0.132367 -0.14157499 0.95818502 3204448511
0.12951 -0.140854 0.958076 3221226494
0.13141 -0.140836 0.958148 1124073730
0.13331001 -0.140818 0.95821899 1174416002
0.13045301 -0.14009701 0.95810997 1174432027
0.131396 -0.139341 0.95814401 3221225726
-0.46805599 -0.33803001 2.3261001 1174415686
-0.47046101 -0.33617401 2.326 1157632516
-0.46568599 -0.33612999 2.32618 1124073728
-0.472866 -0.334317 2.3259101 0
-0.46809101 -0.33427301 2.3260901 1191225610
-0.46331599 -0.33422899 2.3262701 0
-0.47049499 -0.33241701 2.32599 0
-0.46812499 -0.33051601 2.3260801 1174426996
0.13657001 -0.37004301 2.6499701 1174430754
0.13385201 -0.367944 2.6498699 3271622400
0.13925 -0.36789501 2.65007 3221226238
0.131134 -0.36584601 2.64976 3221291003
0.136531 -0.365796 2.64996 1174417260
0.141929 -0.36574599 2.6501701 0
0.13381299 -0.36369699 2.6498599 3204448511
0.136493 -0.36154899 2.64995 1174417989
-0.54170603 -0.223235 1.55524 1174423569
-0.543311 -0.221995 1.55518 0
-0.540124 -0.221966 1.5553 3204448511
-0.54491597 -0.22075599 1.55511 3204448511
-0.54172897 -0.220727 1.55523 1174417232
-0.53854197 -0.220698 1.5553499 3221225726
-0.54333401 -0.21948799 1.5551701 1140851457
-0.54175198 -0.218219 1.55523 1191236881
0.026149699 -0.35545999 2.6728001 3221290750
0.0234033 -0.35334 2.6726999 1174415433
0.0288569 -0.35328901 2.6729 1073741827
0.0206569 -0.351219 2.67259 3271622149
0.0261105 -0.35116899 2.6727901 1124073728
0.031564102 -0.35111901 2.6730001 1174414193
0.023364101 -0.349049 2.6726899 1174431010
0.026071301 -0.34687799 2.67278 0
-0.52310699 -0.224832 1.63861 0
-0.52479798 -0.223526 1.63855 1174415165
-0.52144003 -0.22349501 1.63867 3271622400
-0.52648902 -0.22222 1.6384799 1140851968
-0.52313101 -0.22218899 1.63861 1140851200
-0.51977301 -0.222158 1.63873 1174432018
-0.524822 -0.220884 1.63854 1191237136
-0.52315497 -0.219547 1.6386 0
-0.32401401 -0.333801 2.51495 3204505855
-0.32661 -0.331797 2.5148499 1174415697
-0.321455 -0.33174899 2.5150399 3221225726
-0.32920501 -0.32979301 2.51474 1140851972
-0.32405099 -0.32974499 2.51494 1073741826
-0.31889701 -0.329698 2.51513 1174426734
-0.32664701 -0.327741 2.5148399 1191227145
-0.32408801 -0.32569 2.51493 1124073732
0.573488 -0.243186 1.93909 1174435937
0.571527 -0.24167199 1.93901 1056964609
0.57542098 -0.24163599 1.93916 0
0.56956601 -0.24015801 1.93893 3221226236
0.57345998 -0.24012201 1.93908 1174417722
0.57735401 -0.240086 1.93923 3221291006
0.57149899 -0.238608 1.939 3221225724
0.57343203 -0.237058 1.93907 1107296302
-0.4993 -0.222728 1.66686 1140851206
-0.501019 -0.22139999 1.66679 3221290749
-0.497605 -0.221368 1.6669199 1174429193
-0.50273901 -0.220072 1.66672 1191236882
-0.49932399 -0.22004101 1.66685 3221225726
-0.49590999 -0.220009 1.66698 0
-0.50104398 -0.218713 1.66678 3271622401
-0.499349 -0.217354 1.66684 3221289982
-0.362526 -0.337717 2.60741 1174415431
-0.36522001 -0.335637 2.6073 3204513791
-0.359871 -0.33558801 2.6075001 3204449279
-0.36791301 -0.33355799 2.6071999 1056964609
-0.36256501 -0.333509 2.6073999 1191226382
-0.357216 -0.33345899 2.6076 1056964609
-0.36525801 -0.331429 2.60729 0
-0.36260301 -0.32929999 2.6073899 1174425712
0.00932201 -0.33596101 2.63485 1073741826
0.0066144401 -0.33387101 2.6347401 1157635166
0.0119909 -0.333821 2.6349499 3221225978
0.00390686 -0.33177999 2.63464 0
0.0092833601 -0.33173099 2.63484 0
0.0146598 -0.33168101 2.63504 1174432288
0.00657578 -0.32964 2.6347301 1174416203
0.0092447102 -0.32749999 2.63483 3271622153
0.63989103 -0.238361 1.92001 3221225724
0.63795298 -0.236864 1.91993 1140851722
0.64180201 -0.236829 1.9200799 1174416981
0.63601398 -0.235367 1.91986 1174436116
0.63986301 -0.235332 1.92 3238068215
0.643713 -0.235296 1.92015 0
0.63792503 -0.233835 1.91993 3221225722
0.63983601 -0.23230299 1.9199899 3288398592
0.0171404 -0.32761699 2.6193299 0
0.0144493 -0.32554001 2.61922 1157635431
0.019793101 -0.32549 2.6194201 1140851212
0.0117582 -0.32346201 2.6191199 0
0.017101999 -0.32341301 2.6193199 3221225724
0.0224458 -0.32336301 2.6195199 1174432538
0.0144108 -0.32133499 2.61921 1174415947
0.017063599 -0.319208 2.6193099 3288398849
-0.52320302 -0.211659 1.62792 0
-0.52488297 -0.210362 1.6278501 1073741826
-0.52154702 -0.21033099 1.62797 1174415167
-0.52656299 -0.20906501 1.62778 1174427919
-0.52322698 -0.209034 1.62791 3288398336
-0.51989198 -0.209004 1.6280299 0
-0.52490699 -0.207737 1.62784 3204448511
-0.523251 -0.20641001 1.6279 0
0.38884401 -0.24952599 2.0607901 1174420307
0.386749 -0.24790899 2.0606999 3221226235
0.39091 -0.247871 2.0608599 3238066680
0.38465399 -0.246292 2.0606201 1056964609
0.38881499 -0.246253 2.06078 1191215704
0.392975 -0.246215 2.06094 1073741828
0.38671899 -0.244636 2.0606999 1073741827
0.388785 -0.24298 2.06077 1174413684
0.462758 -0.23030899 1.92106 3204449023
0.460812 -0.228806 1.92098 3271622400
0.46467701 -0.22877 1.92112 1174436958
0.45886499 -0.227303 1.9209 1174420551
0.46272999 -0.227267 1.92105 0
0.46659601 -0.22723199 1.92119 1124073778
0.46078399 -0.22576401 1.92097 3221225724
0.46270299 -0.224226 1.9210401 3271622400
0.67081398 -0.227632 1.94839 3238002936
0.66884702 -0.22611301 1.94832 1174420289
0.67275298 -0.22607701 1.94846 1073741826
0.66688001 -0.224595 1.94824 3271622400
0.67078602 -0.22455899 1.94839 0
0.67469102 -0.22452299 1.94853 1174436116
0.66881901 -0.22304 1.94831 1107296298
0.670757 -0.221485 1.94838 1157629952
0.54591799 -0.27915901 2.42383 3221225726
0.54345 -0.27725399 2.4237399 3221225979
0.54834902 -0.27720901 2.4239199 1157635943
0.54098397 -0.27535 2.42364 1174436951
0.54588199 -0.275305 2.42382 0
0.55078101 -0.27525899 2.42401 1073741826
0.54341501 -0.27340001 2.4237299 3204448511
0.545847 -0.27145001 2.42382 3204513791
0.133287 -0.112294 0.97800702 1174420539
0.13231 -0.11154 0.97796899 3288398849
0.134251 -0.111522 0.97804201 3288399109
0.131332 -0.110785 0.97793102 0
0.13327301 -0.110767 0.97800398 1191216221
0.135215 -0.110749 0.97807598 3204448511
0.132296 -0.110012 0.977965 0
0.133259 -0.109239 0.97799999 1174413682
0.57959098 -0.207876 1.9536099 0
0.57761502 -0.20635 1.95353 1107296318
0.58153898 -0.206314 1.95368 0
0.57563901 -0.204825 1.95345 3221225725
0.57956302 -0.204789 1.9536 3288399105
0.58348697 -0.204753 1.95375 1174414915
0.57758701 -0.203263 1.9535201 1174435862
0.57953501 -0.201701 1.95359 1073741827
-0.57425702 -0.171913 1.49157 3271622400
-0.57579702 -0.170724 1.49151 1191232014
-0.57273901 -0.17069601 1.49163 1140851468
-0.57733703 -0.169535 1.49145 1140851200
-0.57427901 -0.169507 1.49157 3221226238
-0.57122099 -0.169479 1.49168 1174413376
-0.57581902 -0.168318 1.49151 1174436626
-0.574301 -0.167101 1.49156 3204454143
-0.54355597 -0.166113 1.4508899 3204448511
-0.54505199 -0.164957 1.45084 1073741828
-0.54207999 -0.16493 1.45095 1174414153
-0.54654902 -0.163802 1.45078 1174435346
-0.54357702 -0.163775 1.4508899 3221226494
-0.54060501 -0.163747 1.451 3288399360
-0.54507297 -0.16261899 1.45083 3221291001
-0.543598 -0.16143601 1.4508801 3271622408
0.56093001 -0.25332499 2.43683 1056964609
0.55844998 -0.25141099 2.4367299 1174420314
0.563375 -0.25136501 2.4369199 3221290238
0.55597001 -0.249496 2.43663 3221225978
0.56089503 -0.249451 2.43682 3221225977
0.56581903 -0.249405 2.437 1157634634
0.558415 -0.247536 2.4367199 1174437398
0.56085902 -0.24557599 2.43681 1073741826
0.114372 -0.108293 0.98125798 3204448767
0.11339 -0.107535 0.98122001 1157634680
0.11534 -0.107517 0.98129302 0
0.112409 -0.106777 0.98118103 1073741826
0.114358 -0.106759 0.98125499 0
0.116308 -0.106741 0.98132801 1191216990
0.113376 -0.106001 0.98121601 1174420542
0.114344 -0.105225 0.981251 3271622154
0.151226 -0.107833 1.00448 0
0.15022101 -0.107058 1.0044399 1124073737
0.152216 -0.107039 1.0045201 1174417019
0.14921699 -0.106282 1.0044 1191215198
0.15121201 -0.106264 1.00448 1073741826
0.15320601 -0.106245 1.00455 3204448511
0.150207 -0.105488 1.0044399 3288399360
0.151197 -0.104694 1.00447 3288398852
-0.53189898 -0.17711499 1.62248 1157630208
-0.53357399 -0.175822 1.6224101 3305172739
-0.53024799 -0.17579199 1.62254 1191228505
-0.53524899 -0.174529 1.62235 1174415941
-0.531923 -0.17449901 1.62247 1056964609
-0.52859801 -0.174468 1.6226 3221225726
-0.53359801 -0.173206 1.6224101 3288398852
-0.53194702 -0.171882 1.62247 3238066916
-0.25947899 -0.105675 0.98422003 1174428783
-0.260479 -0.104903 0.98418099 1073741829
-0.25849399 -0.104885 0.98425502 3221225726
-0.26147801 -0.104132 0.98414201 3271622409
-0.25949299 -0.104113 0.98421597 1174415960
-0.25750899 -0.104095 0.98429102 1073741828
-0.26049301 -0.103342 0.98417699 1140851456
-0.25950801 -0.102552 0.98421299 1191236674
0.46021199 -0.19945601 2.09512 1124073729
0.45808399 -0.197814 2.0950401 1174421580
0.46230999 -0.19777501 2.09519 1056964609
0.45595601 -0.196171 2.09495 3221225721
0.46018201 -0.196132 2.0951099 3221225726
0.46440801 -0.19609299 2.0952699 1174413924
0.45805401 -0.194489 2.0950301 1174436884
0.46015099 -0.192807 2.0950999 0
-0.26411399 -0.102906 0.97893202 1174432116
-0.26510799 -0.102139 0.978894 1073741828
-0.263134 -0.102121 0.97896802 3221225726
-0.266103 -0.101371 0.97885501 0
-0.26412901 -0.101353 0.97892898 1174416202
-0.26215401 -0.101335 0.97900301 3204513535
-0.26512301 -0.100586 0.97889 3288399105
-0.26414299 -0.099799797 0.97892499 1191236689
0.197365 -0.103844 1.0711499 1124073728
0.196293 -0.103016 1.07111 3221290233
0.198422 -0.102997 1.07119 1174413929
0.19522101 -0.102189 1.07107 1174437397
0.19735 -0.102169 1.0711499 0
0.199479 -0.102149 1.0712301 0
0.19627801 -0.101341 1.07111 0
0.19733401 -0.100494 1.0711401 3271622145
-0.73125601 -0.15206499 1.5033 1191237659
-0.73281401 -0.15086199 1.50324 1056964609
-0.72972 -0.150833 1.50335 0
-0.73437297 -0.14965799 1.50318 1244921856
-0.731278 -0.14963 1.5032901 1090519054
-0.72818297 -0.149601 1.50341 0
-0.73283601 -0.14842699 1.50323 3271622416
-0.7313 -0.147195 1.5032901 1157634620
0.15183 -0.097205997 1.00861 1056964609
0.150822 -0.096427202 1.00857 1124073732
0.152825 -0.096408702 1.0086401 1174420805
0.149813 -0.0956484 1.00853 1157633646
0.151816 -0.095629901 1.0086 1140852488
0.15381899 -0.095611401 1.00868 1243611140
0.15080699 -0.094851099 1.00857 1269628928
0.151802 -0.094053797 1.0086 1073741826
0.123119 -0.095324203 1.0100501 1191216421
0.122108 -0.094543301 1.01002 3221226493
0.124116 -0.094524801 1.01009 3222536702
0.121096 -0.093762502 1.00998 3290692608
0.123105 -0.093743898 1.0100501 3355401832
0.125113 -0.093725398 1.01013 1140851203
0.122093 -0.092963099 1.01001 0
0.12309 -0.092163697 1.0100501 1174420037
-0.60416901 -0.10833 1.11869 3221225725
-0.605322 -0.10744 1.11865 0
-0.60303199 -0.107419 1.11874 1191250766
-0.606475 -0.10655 1.1186 1090519055
-0.60418499 -0.106528 1.11869 3221946622
-0.60189599 -0.106507 1.11878 3207987455
-0.60533798 -0.105638 1.1186399 3216638207
-0.60420197 -0.104727 1.11869 3221225725
0.20180599 -0.0938733 1.06248 0
0.200743 -0.093052603 1.06244 1225785344
0.20285399 -0.093033098 1.06252 1174421434
0.19968 -0.092231996 1.0624 3371897697
0.201791 -0.092212498 1.06247 3221094655
0.20390099 -0.092193 1.0625499 1244528902
0.200728 -0.091391899 1.06243 1269628928
0.201775 -0.090551801 1.06247 3355377664
-0.597794 -0.132801 1.4354 1244135428
-0.59927601 -0.13165601 1.43534 1090519055
-0.59633303 -0.13162901 1.43545 1073741827
-0.60075903 -0.130512 1.43529 3221288442
-0.59781498 -0.130485 1.4354 1270415362
-0.59487098 -0.130458 1.43551 1191237158
-0.599298 -0.12933999 1.43534 3355318861
-0.59783602 -0.128168 1.43539 1245380609
0.101797 -0.088729799 1.03389 1225548388
0.10076 -0.087929197 1.03385 0
0.10282 -0.087910198 1.0339299 1269628928
0.099723198 -0.087128498 1.03381 1226048512
0.101783 -0.087109499 1.03389 1174415684
0.103842 -0.0870905 1.03396 3288398848
0.100745 -0.0863088 1.03385 3254716148
0.101768 -0.085489102 1.03388 1191216916
-0.54107898 -0.139158 1.60361 3221225722
-0.54273498 -0.137879 1.60355 3206152447
-0.53944701 -0.137849 1.60367 1157635895
-0.54439002 -0.136601 1.60348 1174435150
-0.54110301 -0.136571 1.60361 3304913686
-0.53781497 -0.13654099 1.60373 1244987660
-0.54275799 -0.13529301 1.6035399 1270415360
-0.54112601 -0.133984 1.6036 3221356286
-0.327934 -0.090678602 1.04561 3288399104
-0.329 -0.089855596 1.04556 3207658751
-0.32688299 -0.089836001 1.04564 1208116085
-0.330066 -0.089032501 1.0455199 1191236925
-0.32794899 -0.089012899 1.0456001 3221225726
-0.32583201 -0.0889934 1.04568 3233284348
-0.32901499 -0.0881899 1.04556 3206676735
-0.32796401 -0.087347299 1.0456001 1191247872
-0.57928097 -0.122776 1.46 3372089344
-0.58078802 -0.121612 1.45994 3250127085
-0.57779503 -0.121584 1.46005 1191236893
-0.58229601 -0.120448 1.45988 1157633860
-0.57930201 -0.12042 1.45999 3221225721
-0.57630903 -0.120393 1.4601099 3222536700
-0.58081001 -0.119256 1.4599299 3208315135
-0.57932401 -0.118065 1.45999 1073741829
-0.32663199 -0.0892784 1.0379601 3207658751
-0.32769001 -0.088461503 1.03792 1191236925
-0.325589 -0.088442102 1.038 3221225726
-0.32874799 -0.087644599 1.0378799 1073741827
-0.32664701 -0.087625198 1.0379601 3206676735
-0.32454601 -0.087605797 1.03804 3355384392
-0.327705 -0.086808302 1.03792 3355405685
-0.326662 -0.085972004 1.0379601 1270349826
-0.63174301 -0.119888 1.4273 1191236199
-0.63321799 -0.118749 1.42724 1226309635
-0.63028902 -0.118722 1.42735 3226403070
-0.63469398 -0.11761 1.4271899 1246691330
-0.63176399 -0.117583 1.4273 3355377677
-0.62883401 -0.117555 1.42741 1073741827
-0.63323998 -0.116443 1.42724 1157631234
-0.63178498 -0.115277 1.42729 3371965001
0.20051099 -0.081779003 1.0324301 3215786239
0.199479 -0.080982499 1.03239 1191265194
0.201528 -0.080963597 1.03247 3204514303
0.198447 -0.080186002 1.0323499 3221362940
0.200496 -0.0801671 1.0324301 3242130168
0.202545 -0.080148198 1.0325 1208364896
0.19946399 -0.079370603 1.03239 1174437134
0.200481 -0.0785551 1.03242 1225588736
0.69913203 -0.139816 1.92831 3221225726
0.69718701 -0.13831399 1.9282399 1244135424
0.70104897 -0.13827799 1.92838 1225326683
0.69524097 -0.136812 1.92816 3372034374
0.69910401 -0.136777 1.9283 3371827712
0.70296699 -0.136741 1.92845 1244266496
0.69715899 -0.13527501 1.92823 3222405374
0.699076 -0.133737 1.9283 1208352769
0.20179901 -0.081722297 1.04326 1191265194
0.200756 -0.080917098 1.04322 3221362940
0.20282701 -0.080898002 1.0433 3242130168
0.19971301 -0.080111898 1.04318 1269628928
0.201784 -0.080092803 1.04326 1174437134
0.20385499 -0.080073699 1.04333 0
0.20074099 -0.079287603 1.04321 3221291517
0.20176899 -0.078463301 1.04325 1191267941
0.20023599 -0.080888398 1.03118 1225457668
0.19920599 -0.0800929 1.03114 1208365674
0.201252 -0.080073997 1.03122 1157633024
0.198176 -0.079297297 1.0311 3204448511
0.200222 -0.079278402 1.03118 3282960128
0.202268 -0.079259597 1.03126 1174436878
0.199191 -0.078482904 1.03114 1208108471
0.200207 -0.077668503 1.03118 3225548027
-0.262225 -0.079592802 0.94563502 3372025090
-0.26318401 -0.078851998 0.94559801 3233218813
-0.26127899 -0.078834496 0.945669 1191236911
-0.264144 -0.078111298 0.94555998 3355318855
-0.26223901 -0.0780937 0.94563198 3288268544
-0.260333 -0.078076102 0.94570303 1226506496
-0.26319799 -0.077353001 0.94559401 1244791808
-0.262252 -0.076594703 0.94562799 3204448511
0.71882498 -0.14865901 2.15065 3204448511
0.716649 -0.146979 2.1505599 1226572803
0.72096902 -0.14693899 2.1507199 3355388749
0.71447301 -0.145299 2.15048 3355408145
0.71879399 -0.14526001 2.15064 1073741827
0.72311401 -0.14522 2.1508 3205693951
0.716618 -0.14358 2.1505499 3222929662
0.71876198 -0.14185999 2.15063 3271622400
-0.32820201 -0.081291802 1.02924 1191271286
-0.32925099 -0.080481797 1.0292 0
-0.32716799 -0.080462597 1.0292799 1270349824
-0.3303 -0.079671897 1.02916 1226768384
-0.328217 -0.079652697 1.02924 3355384391
-0.326134 -0.079633497 1.02932 1073741827
-0.32926601 -0.078842796 1.0292 3271687939
-0.32823199 -0.078013599 1.02924 1191236902
0.108649 -0.075846501 1.02385 3204449279
0.107623 -0.075053997 1.02381 1269628928
0.109661 -0.0750352 1.02389 1191216916
0.106597 -0.074261598 1.02377 1157633607
0.108635 -0.0742428 1.02385 3271622400
0.110673 -0.074224003 1.02393 1225785602
0.107608 -0.073450401 1.02381 1244791043
0.10862 -0.072639197 1.02385 0
-0.677917 -0.113575 1.48227 1270416386
-0.679452 -0.11239 1.48221 1208160062
-0.676404 -0.112362 1.48233 3305110272
-0.68098599 -0.111205 1.48215 1208352768
-0.677939 -0.111177 1.48227 1245904896
-0.67489201 -0.111149 1.48238 1090519058
-0.67947298 -0.109992 1.48221 1191234650
-0.67796099 -0.10878 1.48226 3223454206
0.149225 -0.0746006 1.02429 1191216152
0.14820001 -0.073808998 1.02425 3288399106
0.150236 -0.0737902 1.02433 1225785856
0.147175 -0.0730175 1.02421 3224767230
0.149211 -0.072998703 1.02429 3371987830
0.15124699 -0.072979897 1.0243599 3288857865
0.148185 -0.072207101 1.02425 0
0.149196 -0.071396798 1.02428 1174420809
0.154917 -0.074774198 1.02803 3271622400
0.153888 -0.073979802 1.02799 1225785856
0.155931 -0.0739609 1.02807 1174422085
0.152859 -0.073185399 1.02795 3371791481
0.154902 -0.073166497 1.02803 3305305607
0.156946 -0.073147699 1.02811 3225614330
0.153873 -0.072372198 1.02799 3232563197
0.154888 -0.0715589 1.02802 1124073730
-0.057828099 -0.075464599 1.0254101 3225354238
-0.0588626 -0.074665897 1.02537 1191220053
-0.0568083 -0.074646898 1.02544 0
-0.059897199 -0.073867202 1.0253201 3204448511
-0.057842899 -0.073848203 1.0254 1244856326
-0.055788599 -0.073829301 1.02548 1157633096
-0.058877401 -0.073049501 1.02536 1174430584
-0.057857599 -0.072231904 1.0254 1270022144
0.74412698 -0.13388699 2.1093299 3371969859
0.74199599 -0.132241 2.1092501 3221225726
0.74622899 -0.132202 2.10941 3205693695
0.73986399 -0.130596 2.1091599 3207594239
0.74409699 -0.130556 2.1093199 1225457758
0.74833 -0.13051701 2.1094799 1208221701
0.741965 -0.128911 2.1092401 3288398592
0.74406701 -0.127226 2.1093199 1174435080
0.117282 -0.072796501 1.02802 1269563392
0.116252 -0.072001003 1.02798 1157633864
0.118298 -0.071982101 1.02806 3221290745
0.115221 -0.071205497 1.02794 3288464393
0.117267 -0.071186602 1.02802 1244397569
0.119314 -0.0711677 1.02809 3371921218
0.116237 -0.070391104 1.02798 1191216917
0.117253 -0.069576703 1.02801 1225785344
0.49728599 -0.119028 1.97598 3224826878
0.49528301 -0.117481 1.9759001 1174436354
0.49926001 -0.117445 1.97605 1208352768
0.49327999 -0.115935 1.9758199 3221356796
0.49725699 -0.115899 1.97597 1225785345
0.50123399 -0.115862 1.97612 1191248052
0.49525401 -0.114352 1.97589 1174427199
0.497228 -0.112769 1.97596 3272539904
-0.21926001 -0.066434599 0.93368602 1073741829
-0.22020499 -0.0657048 0.933649 1208090624
-0.218328 -0.065687403 0.93371999 1157634891
-0.22115 -0.064974897 0.93361199 1208183401
-0.219273 -0.064957596 0.93368298 3271622146
-0.21739601 -0.064940304 0.93375301 3291086081
-0.220219 -0.064227797 0.93364602 3283353348
-0.21928699 -0.063480601 0.93367898 3221225723
-0.233007 -0.064793199 0.92788702 3274899202
-0.23394699 -0.064067602 0.92785001 1191236923
-0.232081 -0.064050399 0.92791998 3221225722
-0.234887 -0.063341998 0.92781299 0
-0.23302101 -0.063324802 0.92788398 3221225725
-0.23115499 -0.063307598 0.92795402 1157635136
-0.233961 -0.062599197 0.92784703 1174434403
-0.233034 -0.0618564 0.92787999 1270153217
0.763116 -0.117373 2.11584 3355377682
0.76097798 -0.115722 2.1157601 1244987392
0.76522303 -0.115683 2.1159201 1107296356
0.75884002 -0.114072 2.11568 1174415413
0.76308501 -0.114033 2.11584 3271622405
0.767331 -0.113993 2.1159899 3290430466
0.76094699 -0.112382 2.1157501 1225654275
0.76305503 -0.110692 2.1158299 3355377698
-0.26883999 -0.063198 0.91799402 1124073729
-0.26977101 -0.062479299 0.91795701 1244790788
-0.26792201 -0.062462199 0.91802698 1208120440
-0.270702 -0.061760601 0.91792101 1191236893
-0.26885301 -0.061743502 0.91799003 3204448511
-0.267005 -0.061726499 0.91806 1270218752
-0.269784 -0.0610248 0.91795403 1226571779
-0.26886699 -0.060288999 0.91798699 3288398849
0.44830799 -0.111836 1.9774801 1174423651
0.446302 -0.110287 1.9773999 3372024325
0.450286 -0.11025 1.97755 1245053696
0.444296 -0.108738 1.97732 1226637312
0.44828001 -0.108701 1.97747 1191279361
0.45226401 -0.108665 1.97762 3371827712
0.44627401 -0.107152 1.9773901 1107296318
0.44825101 -0.105567 1.97746 3371849291
-0.214498 -0.060765199 0.92493498 3221225726
-0.215434 -0.0600425 0.92489898 1244594694
-0.213576 -0.060025401 0.924968 1208313976
-0.21637 -0.059319898 0.92486203 1191224895
-0.21451201 -0.059302699 0.924932 3221225724
-0.212653 -0.0592856 0.92500103 1270022144
-0.21544801 -0.05858 0.92489499 1208090625
-0.214525 -0.057840198 0.92492801 3355312384
0.45340401 -0.103384 1.96617 1225916416
0.45141 -0.101844 1.96609 1174423475
0.45537001 -0.101808 1.96624 1090519049
0.449415 -0.100305 1.96601 1191248899
0.45337501 -0.100268 1.9661601 3291020288
0.457335 -0.100232 1.96631 3371847501
0.451381 -0.098728597 1.96608 1174436611
0.453347 -0.097152397 1.9661601 3255688667
0.76337302 -0.101601 2.1001599 1073741829
0.76125097 -0.099963099 2.10008 3257467101
0.76546401 -0.099924199 2.10023 3371958415
0.75912899 -0.098325104 2.0999899 1225728827
0.76334202 -0.098286197 2.1001501 3288530183
0.767555 -0.098247297 2.1003101 3275292416
0.76122099 -0.096648201 2.10007 1225588736
0.76331198 -0.094971299 2.1001401 3237871870
-0.259727 -0.055103 0.902062 3207659775
-0.26064101 -0.0543973 0.902026 1191236930
-0.25882599 -0.054380599 0.90209401 1090519057
-0.26155499 -0.0536917 0.90199 0
-0.25974 -0.053674899 0.90205801 3222995454
-0.257925 -0.053658199 0.90212601 1157635142
-0.260654 -0.052969299 0.902022 1174434672
-0.25975299 -0.052246898 0.90205503 3216376063
-0.12515999 -0.0507931 0.91926497 3223387902
-0.126087 -0.050077699 0.91922897 3371917430
-0.124247 -0.050060701 0.91929799 3221488125
-0.127013 -0.049362201 0.91919202 1124073728
-0.125173 -0.0493453 0.91926199 3300129281
-0.123333 -0.049328301 0.91933101 1191222582
-0.1261 -0.048629802 0.91922498 3355317306
-0.12518699 -0.047897398 0.919258 3276537626
0.53088403 -0.087435998 1.97746 3372023920
0.52888101 -0.085889503 1.97738 3371958528
0.53285801 -0.085852802 1.97753 3308516867
0.526878 -0.084343098 1.9773 1226309633
0.530855 -0.084306397 1.97745 1174436622
0.53483301 -0.084269702 1.9776 3355312239
0.52885199 -0.082759999 1.97737 3355377670
0.53082699 -0.081176899 1.97744 3388365824
-0.12853 -0.0500012 0.91669101 3371852156
-0.129454 -0.049287699 0.916655 3204448511
-0.127619 -0.049270801 0.91672403 1270022912
-0.13037901 -0.048574299 0.916619 3223061498
-0.128544 -0.0485573 0.91668802 3355383610
-0.126708 -0.048540398 0.91675699 1191247885
-0.12946799 -0.0478439 0.91665101 3271884593
-0.128557 -0.047113501 0.91668397 1191225856
-0.629884 -0.064568803 1.26986 1073741826
-0.63119501 -0.063556299 1.2697999 3371958278
-0.628591 -0.0635323 1.2699 1226506302
-0.63250703 -0.062543698 1.26975 1270350351
-0.62990201 -0.062519699 1.26985 1191236866
-0.627298 -0.062495701 1.26995 1090519048
-0.63121402 -0.061507199 1.2697999 1073741829
-0.62992102 -0.0604706 1.26985 3221225725
-0.26861101 -0.047071699 0.89461899 1226441265
-0.26951799 -0.046371698 0.894584 3355403776
-0.26771799 -0.046355098 0.89465201 0
-0.27042499 -0.045671798 0.894548 0
-0.26862401 -0.045655102 0.89461601 1270218780
-0.26682401 -0.045638502 0.89468402 3204502527
-0.26953101 -0.044955201 0.89458102 3204521983
-0.268637 -0.044238601 0.89461303 1245053620
0.204879 -0.045092199 0.97799402 1191263232
0.203904 -0.0443395 0.977956 3204581631
0.20584001 -0.0443216 0.97802901 3290888736
0.20292901 -0.043586802 0.97791803 1245315108
0.20486499 -0.043568902 0.97799098 3372056065
0.206801 -0.043551099 0.97806299 3220111615
0.20389 -0.042816199 0.97795302 3221288700
0.204851 -0.042045701 0.97798699 3221252860
0.53041202 -0.076745398 1.9415801 3237937403
0.52844602 -0.075227797 1.94151 1244397588
0.53234899 -0.075191803 1.94165 3355333892
0.52648002 -0.073710203 1.94143 1191279379
0.53038299 -0.073674202 1.9415801 3388473344
0.53428698 -0.073638201 1.94172 1225654340
0.528418 -0.072156601 1.9414999 1208287235
0.53035498 -0.070602998 1.94157 1208223744
2.1463499 -0.12598801 3.8466699 1246298167
2.1424601 -0.122987 3.8465199 1174422528
2.1501801 -0.122916 3.8468101 3355377920
2.1385801 -0.119987 3.84636 1191247872
2.1462901 -0.119916 3.8466499 1244659740
2.1540101 -0.119844 3.84694 3221363964
2.14241 -0.116915 3.8464999 1208163855
2.14624 -0.113843 3.8466401 1225916592
-0.32498699 -0.049117502 0.977045 1073741826
-0.325982 -0.0483496 0.97700602 3273654103
-0.32400599 -0.048331399 0.97707999 3221298170
-0.326976 -0.047581699 0.97696698 1208115200
-0.325001 -0.047563501 0.97704101 3355378176
-0.323026 -0.047545198 0.97711498 1245315254
-0.32599601 -0.046795499 0.97700202 1270153244
-0.32501501 -0.046009399 0.97703701 3237937661
-0.22587 -0.045196999 0.89439303 3221280254
-0.22677501 -0.044498499 0.89435703 1124073733
-0.224979 -0.0444819 0.89442497 1191247928
-0.22768 -0.0438 0.89432198 1245249715
-0.22588301 -0.043783501 0.89438897 1208181760
-0.224087 -0.043766901 0.89445698 3355312896
-0.226788 -0.043085001 0.89435399 3204448511
-0.225896 -0.042369898 0.89438599 1157635082
0.485154 -0.071474001 1.95355 1243678013
0.483174 -0.069945402 1.95348 3355409924
0.48710501 -0.069909103 1.95362 1208090881
0.48119399 -0.068416797 1.9534 3254517993
0.48512501 -0.068380497 1.95355 1225654280
0.489057 -0.068344198 1.9536901 3220898047
0.48314601 -0.066851899 1.95347 1191271430
0.48509699 -0.065287001 1.95354 3271950121
0.53497398 -0.065217197 1.9177901 3237674490
0.53303301 -0.063718803 1.9177099 1225588774
0.53688699 -0.063683301 1.91786 3221322234
0.53109199 -0.062220499 1.91763 1073741827
0.53494602 -0.0621849 1.91778 3204514047
0.5388 -0.062149301 1.91792 1225261072
0.533005 -0.060686599 1.9177001 3290758419
0.53491801 -0.059152599 1.91777 3204448511
-0.26810801 -0.0410714 0.88362801 1270154789
-0.269003 -0.040380299 0.88359302 1157635082
-0.267225 -0.0403639 0.88366002 3355377664
-0.269898 -0.039689202 0.88355798 1140851456
-0.26811999 -0.039672799 0.88362402 1245184174
-0.266343 -0.039656401 0.88369101 1191274496
-0.269016 -0.038981698 0.88358903 1191232513
-0.26813301 -0.038274199 0.88362098 1226506801
-0.165318 -0.0394735 0.889202 1191254016
-0.166215 -0.038780998 0.88916701 3288399360
-0.164434 -0.0387646 0.88923401 3274964646
-0.16711199 -0.0380885 0.88913202 1270022194
-0.16533101 -0.038072102 0.88919902 1191225366
-0.16355 -0.038055699 0.88926601 3221225726
-0.166228 -0.0373796 0.88916397 3238002932
-0.165344 -0.0366707 0.88919598 3204475391
-0.54488999 -0.043285001 0.93719399 1270284454
-0.54585201 -0.042542402 0.93715602 1208166151
-0.54394197 -0.0425248 0.93722802 3221292541
-0.54681301 -0.041799899 0.93711901 3221225725
-0.54490399 -0.041782301 0.93719 1225654292
-0.54299402 -0.041764598 0.937262 0
-0.545865 -0.041039702 0.93715298 1191237632
-0.54491699 -0.040279601 0.93718702 1225850942
-0.13045201 -0.037019301 0.88937497 3221230845
-0.131348 -0.036327701 0.88933998 1140851224
-0.12956899 -0.036311299 0.88940603 1245184062
-0.13224301 -0.035636202 0.88930398 1270022719
-0.130465 -0.035619698 0.88937098 1191227648
-0.128686 -0.0356033 0.88943797 3204451583
-0.13135999 -0.034928199 0.88933599 3355377664
-0.130477 -0.0342202 0.889368 3237967102
0.20496 -0.035428599 0.95837897 3254845136
0.204005 -0.034691598 0.95834202 3290757958
0.205901 -0.034674101 0.958413 3254739944
0.203051 -0.033954699 0.958305 3204481535
0.204946 -0.033937201 0.95837599 3371958272
0.20684201 -0.033919699 0.95844698 1225916446
0.20399199 -0.033200301 0.95833802 3307205029
0.204933 -0.0324458 0.958372 1208091392
-0.61468101 -0.0472106 1.11964 3355377668
-0.61583602 -0.046319202 1.11959 3238067959
-0.61354297 -0.046298102 1.11968 1270284340
-0.61698997 -0.0454279 1.11955 3273063998
-0.61469799 -0.045406699 1.11963 3355319552
-0.612405 -0.045385599 1.11972 1140852480
-0.615852 -0.044515401 1.11959 0
-0.61471403 -0.043602899 1.11963 1191236097
-0.59115899 -0.058184501 1.5534 3238002916
-0.59276497 -0.0569451 1.55334 0
-0.58957702 -0.0569157 1.55346 3317101613
-0.59437001 -0.0557057 1.55328 1226244380
-0.59118199 -0.0556763 1.5534 1191256580
-0.58799499 -0.0556469 1.55352 1073741826
-0.59278798 -0.0544369 1.55334 3355377670
-0.591205 -0.053168099 1.55339 1191236096
-0.32455301 -0.0378474 0.960522 3254737903
-0.32553101 -0.037092801 0.96048301 1124073729
-0.32359001 -0.037074801 0.96055597 3300260911
-0.32650799 -0.036338098 0.96044499 1226637323
-0.32456699 -0.036320198 0.960518 3237945854
-0.32262599 -0.036302298 0.96059102 3355377666
-0.32554501 -0.0355656 0.96047997 3271687720
-0.324581 -0.034793001 0.96051401 3204503807
-0.100335 -0.0323699 0.88257903 1157633280
-0.101223 -0.0316847 0.88254398 1208352768
-0.099460602 -0.031668399 0.88261002 3275947822
-0.102111 -0.0309995 0.88250899 1270022164
-0.100348 -0.0309832 0.88257599 3204479999
-0.098585702 -0.0309669 0.88264197 3271622401
-0.101236 -0.030298 0.882541 3271687945
-0.100361 -0.0295965 0.882572 3355341827
-0.0765469 -0.0298132 0.94723898 1056964609
-0.077500902 -0.029076699 0.94720101 1243676720
-0.075606599 -0.0290592 0.947272 1157633024
-0.0784548 -0.0283402 0.947164 3237638909
-0.076560497 -0.0283227 0.94723499 3221290490
-0.074666299 -0.0283053 0.94730598 1247608925
-0.077514499 -0.0275863 0.94719797 1269892142
-0.076574199 -0.026832299 0.94723099 1073741828
-0.056698501 -0.0300116 0.969522 1191218697
-0.0576749 -0.0292578 0.96948397 3221291006
-0.055736098 -0.0292399 0.96955597 1243742767
-0.058651298 -0.028503999 0.96944499 1245380911
-0.056712501 -0.028486099 0.96951801 3221253374
-0.054773599 -0.028468199 0.96959102 3372026880
-0.057688799 -0.0277323 0.96947998 3221225725
-0.0567264 -0.0269606 0.96951503 3237877502
1.1995 -0.037311599 2.1795001 3371899904
1.19731 -0.035622802 2.17941 1073741826
1.20165 -0.035582799 2.17957 1246822691
1.19512 -0.033934101 2.1793201 1225920156
1.19946 -0.033893999 2.1794901 1174422528
1.20381 -0.0338539 2.1796501 1191250688
1.19728 -0.032205202 2.1794 3204579327
1.19943 -0.030476401 2.1794801 3221365758
0.493839 -0.031776901 1.88017 1226244143
0.491936 -0.0303075 1.88009 1225719845
0.49571499 -0.030272599 1.8802299 1208352791
0.49003199 -0.0288381 1.88002 3305044736
0.49381199 -0.0288032 1.88016 1244397577
0.49759099 -0.0287684 1.8803 1174429441
0.49190801 -0.0273338 1.88008 1174436610
0.49378499 -0.0258296 1.88015 1243938930
-0.32418799 -0.026962901 0.94471902 1226506283
-0.325149 -0.026220899 0.944682 3238093814
-0.323241 -0.026203301 0.94475299 3237937917
-0.32611001 -0.025479 0.94464397 3271622400
-0.324202 -0.0254614 0.94471598 3283418883
-0.322294 -0.0254438 0.94478798 3221273598
-0.32516301 -0.0247194 0.94467801 1174413314
-0.32421601 -0.023959899 0.94471198 1246232865
-0.265744 -0.022564 0.84921801 1245905011
-0.26660299 -0.0219006 0.84918499 1191219201
-0.26489699 -0.0218849 0.84924901 0
-0.267463 -0.0212372 0.84915102 3221225725
-0.26575601 -0.0212215 0.84921497 1226637373
-0.26405001 -0.021205699 0.84927899 3221233915
-0.26661599 -0.0205581 0.849181 3204477439
-0.265769 -0.0198789 0.84921199 1270022411
-0.055993199 -0.0214651 0.95252597 3204868351
-0.056951899 -0.020725001 0.95248902 0
-0.055048302 -0.020707401 0.95256001 1269891113
-0.057910599 -0.0199848 0.95245099 1226571828
-0.056006901 -0.019967301 0.95252299 1157634049
-0.0541033 -0.019949701 0.95259398 3271687692
-0.056965601 -0.019227101 0.95248502 1208156160
-0.056020599 -0.018469401 0.952519 3204484863
0.508448 -0.0212704 1.88588 3372023817
0.50654 -0.0197968 1.8858 1244464640
0.51033002 -0.019761801 1.88594 3237566716
0.50463098 -0.0183232 1.88573 3355409409
0.508421 -0.018288299 1.88587 3237544189
0.51221102 -0.0182533 1.8860101 1225850909
0.50651199 -0.016814699 1.8858 1208287326
0.508394 -0.0153062 1.88586 1208288000
-0.108452 -0.0190804 0.85223901 3271950080
-0.109308 -0.018419299 0.85220599 1270022656
-0.107608 -0.018403601 0.85227001 1174435328
-0.110164 -0.0177582 0.85217202 3204453631
-0.108464 -0.0177426 0.85223597 3221291516
-0.106764 -0.0177269 0.85229999 1226637347
-0.10932 -0.017081499 0.85220301 1245184092
-0.108476 -0.0164047 0.85223299 0
-0.202778 -0.017274 0.84840202 1124073728
-0.20363399 -0.0166131 0.84836799 3272146713
-0.20193399 -0.016597399 0.848432 3372030469
-0.20449001 -0.0159523 0.84833503 3204477695
-0.20279001 -0.0159366 0.84839898 1140851456
-0.20108999 -0.0159209 0.84846199 1245053033
-0.203646 -0.0152757 0.84836501 1269956901
-0.202802 -0.0145992 0.84839499 1191247879
0.206763 -0.0093915304 0.91397899 1225326629
0.205855 -0.0086903097 0.91394299 3371958272
0.20765799 -0.0086736698 0.914011 3220898047
0.204946 -0.0079890899 0.913908 3272212224
0.20675001 -0.00797245 0.913975 1245184000
0.208554 -0.0079558101 0.91404301 1208181760
0.205842 -0.0072712302 0.91394001 1174437378
0.206737 -0.00655337 0.91397202 1225392249
-0.21620899 -0.012086 0.83681899 3275488895
-0.21705399 -0.0114341 0.83678597 1191233025
-0.215377 -0.0114186 0.83684897 3288398336
-0.217898 -0.0107821 0.83675301 3372024071
-0.216221 -0.0107666 0.83681601 1208418929
-0.214545 -0.0107512 0.83687901 1174413314
-0.217066 -0.0101147 0.83678299 3204542975
-0.216234 -0.0094472598 0.83681297 3300064534
-0.11126 -0.00918689 0.83250397 3221157887
-0.112096 -0.0085415803 0.83247203 3300130304
-0.110436 -0.00852626 0.83253402 1174434816
-0.112932 -0.0078962697 0.83243901 1157633804
-0.111272 -0.0078809503 0.83250099 3238133989
-0.109612 -0.0078656403 0.832564 1226244118
-0.112108 -0.0072356402 0.83246797 1246757752
-0.111284 -0.0065750098 0.83249801 1140851712
0.52038503 0.0054142699 1.85074 3238002934
0.51851302 0.0068592601 1.85067 3290955008
0.52223003 0.0068935598 1.8508101 1208310528
0.51664197 0.0083042597 1.85059 1226079493
0.52035803 0.0083385604 1.8507299 1208156419
0.52407497 0.0083728498 1.85087 1246756895
0.51848698 0.0097835604 1.85066 1208352879
0.52033198 0.0112628 1.8507299 3305110272
-0.076840602 -0.0020723401 0.807733 3221225722
-0.0776494 -0.00144797 0.807702 3309369199
-0.076043397 -0.00143315 0.80776203 1174430209
-0.078458101 -0.000823604 0.80767 1174435840
-0.076852202 -0.00080878497 0.80773002 0
-0.075246297 -0.000793966 0.80779099 1269956608
-0.077660903 -0.00018441799 0.80769902 1226178628
-0.076863699 0.000454769 0.80772698 3271687936
-0.26390401 -0.00099818502 0.815795 3355339010
-0.26472899 -0.000361682 0.815763 3288399104
-0.26309201 -0.00034657499 0.81582499 1269956645
-0.265553 0.00027482101 0.81573099 3273326336
-0.26391599 0.000289927 0.81579202 3355386112
-0.262279 0.00030503399 0.81585401 0
-0.264741 0.00092642999 0.81576002 3305239296
-0.263928 0.00157804 0.81578898 1191230977
0.20802601 0.0044085798 0.89168501 1208242944
0.207141 0.0050918502 0.89165097 3204448511
0.20889901 0.0051080701 0.89171702 1225588812
0.206256 0.0057751299 0.89161599 1208156286
0.208014 0.0057913498 0.89168203 0
0.20977101 0.0058075599 0.89174801 0
0.207129 0.0064746202 0.89164698 3355377920
0.208001 0.0071741198 0.89167899 1174436608
0.61540103 0.0271498 1.95652 3288529152
0.61342299 0.028677 1.95644 1225392187
0.617351 0.028713301 1.9565901 3221258237
0.61144501 0.030204199 1.95636 0
0.61537302 0.0302405 1.9565099 1073741826
0.61930102 0.030276701 1.95666 1208352887
0.61339498 0.0317677 1.95643 1245446428
0.615345 0.0333312 1.9565001 3271622443
-0.26388299 0.0027443999 0.81046498 3310089928
-0.26470101 0.0033766199 0.81043202 1191225344
-0.26307499 0.00339162 0.81049401 3305172224
-0.26552001 0.0040088398 0.81040001 3288399360
-0.26389399 0.0040238402 0.810462 1226244096
-0.26226801 0.0040388498 0.81052297 1157635328
-0.26471299 0.0046560699 0.81042898 1174426112
-0.263906 0.0053033 0.810458 1269957932
0.20855699 0.0110388 0.88066602 1226178879
0.207683 0.0117132 0.88063198 1191247872
0.209418 0.0117292 0.88069701 3204448511
0.20681 0.0123876 0.88059801 3304782080
0.208545 0.0124036 0.88066298 1245578240
0.210279 0.0124196 0.88072801 1225484800
0.207671 0.013078 0.880629 3355344385
0.20853201 0.0137685 0.88066 1208418430
0.58390301 0.0572116 1.8954999 3371761664
0.58198702 0.058690701 1.89542 1225326743
0.58579201 0.0587258 1.89556 3204480255
0.58007097 0.060169902 1.89535 1107296289
0.58387601 0.060205001 1.8954901 1073741829
0.58767998 0.060240101 1.89563 1208352867
0.58196002 0.061684102 1.8954099 1244856872
0.583848 0.063198403 1.89548 0
0.51267397 0.0597146 1.85745 1225352960
0.510795 0.061165299 1.85738 1124073729
0.51452601 0.061199699 1.85752 1247281166
0.50891602 0.062615998 1.8573 1208418340
0.51264697 0.062650502 1.85744 3221225723
0.51637799 0.062684901 1.8575799 0
0.510768 0.064101197 1.85737 1208221696
0.51261997 0.065586299 1.85744 3355343893
-0.25558901 0.0137738 0.77945101 3221227773
-0.25637501 0.0143809 0.77942002 1243807828
-0.254814 0.0143953 0.77947903 3221232891
-0.257162 0.0149879 0.77938902 3254607848
-0.25560001 0.0150023 0.77944797 3204579583
-0.25403899 0.0150167 0.77950698 1246232660
-0.256387 0.0156094 0.77941698 1269891667
-0.25561199 0.016230799 0.77944499 3355377920
-0.071672902 0.018687701 0.87006003 0
-0.0725464 0.019362001 0.87002498 1225785472
-0.070811898 0.019378001 0.87009102 3238008306
-0.073419899 0.020036399 0.869991 3355336975
-0.071685404 0.020052399 0.87005597 3371958272
-0.069950901 0.0200684 0.870121 1245971565
-0.072558902 0.0207268 0.870022 1269760295
-0.071697898 0.0214171 0.87005299 3254714615
-0.047589101 0.020460401 0.875597 1208444161
-0.048467401 0.0211385 0.87556303 1090519057
-0.046723299 0.021154599 0.87562799 1269694795
-0.049345698 0.0218166 0.87552798 1225916463
-0.047601599 0.021832701 0.87559402 3237942268
-0.045857601 0.0218488 0.87565899 0
-0.0484799 0.022510801 0.87555897 3221226491
-0.047614198 0.023205001 0.87559098 1191217408
-0.67044002 0.056455001 1.5247 1244201070
-0.67201799 0.057673901 1.52464 1191233026
-0.66888303 0.057702899 1.52476 1157630210
-0.67359698 0.058892801 1.52458 3221225726
-0.67046201 0.058921698 1.5247 1244790815
-0.66732699 0.0589507 1.52481 1090519050
-0.672041 0.060140599 1.52463 3221094655
-0.67048502 0.0613885 1.52469 1269894983
0.210621 0.031047801 0.84531897 3371983872
0.209785 0.031693801 0.84528601 1226440707
0.211446 0.031709101 0.84534901 1246363752
0.208948 0.0323397 0.845254 1208352840
0.210609 0.0323551 0.84531599 1073741826
0.212271 0.0323704 0.84537899 0
0.209773 0.033000998 0.84528297 1208090624
0.21059699 0.033662301 0.84531301 1191279104
0.211555 0.042283598 0.83727401 1244397621
0.21072701 0.0429231 0.83724099 3371858432
0.21237101 0.042938299 0.83730298 3221356797
0.20989799 0.043562599 0.83720899 1090519049
0.21154299 0.043577701 0.83727098 1208090682
0.21318799 0.0435929 0.83733302 3221225722
0.210715 0.044217199 0.83723801 3238484972
0.211531 0.0448719 0.83726799 1246756972
-0.060976502 0.0434108 0.86128902 1056964609
-0.061840501 0.044077799 0.86125499 1244332614
-0.0601249 0.044093698 0.86132002 3221312762
-0.062704504 0.044744901 0.86122102 1191216386
-0.060988799 0.0447607 0.86128598 0
-0.059273198 0.044776499 0.86135 1269563472
-0.061852802 0.045427699 0.86125201 3272736621
-0.0610012 0.0461106 0.861283 1208092928
-0.070857003 0.045354199 0.84245098 1269563920
-0.071701802 0.0460063 0.842417 1157634049
-0.070024297 0.0460218 0.84248 1073741831
-0.072546497 0.046658501 0.84238398 1191247872
-0.070869103 0.046673998 0.84244698 1226442046
-0.069191597 0.046689499 0.84250998 3204468735
-0.071713798 0.0473262 0.84241402 1174434562
-0.070881099 0.047993802 0.842444 1225851503
0.60631502 0.096333504 1.46807 3221225726
0.60484499 0.097468302 1.4680099 3273129746
0.60776401 0.097495303 1.46812 3371979008
0.60337502 0.098603196 1.46796 1174435074
0.60629398 0.0986301 1.46806 1073741831
0.60921299 0.098656997 1.46817 1226244202
0.60482401 0.099765003 1.4680099 1245446213
0.606273 0.100927 1.46806 1191248128
0.20920201 0.0500516 0.82912999 1246953593
0.208382 0.050684601 0.82909799 1191247872
0.21001001 0.050699599 0.82915902 1090519050
0.207562 0.051317599 0.82906598 3304847920
0.20919 0.0513326 0.82912701 3274899200
0.21081799 0.051347598 0.82918799 3371915776
0.20837 0.051965602 0.82909501 3237509374
0.209179 0.052613702 0.82912397 3238330600
-0.67366302 0.100672 1.44844 1226047488
-0.67516297 0.101829 1.44838 3238002931
-0.672185 0.101857 1.44849 1107296359
-0.67666203 0.102987 1.44832 1107296310
-0.67368501 0.103014 1.44844 1269694980
-0.67070699 0.103042 1.44855 3221275642
-0.67518401 0.104172 1.44838 1140851207
-0.673706 0.105357 1.4484299 3222798589
0.196711 0.059306499 0.818928 1225654273
0.19590101 0.059931699 0.818896 3372047616
0.19750901 0.0599466 0.81895602 1191248156
0.19509199 0.0605569 0.81886399 3271098251
0.19670001 0.060571801 0.81892502 1246953472
0.19830801 0.060586601 0.81898499 1225292544
0.19588999 0.061197001 0.81889302 3204579583
0.196688 0.061836999 0.81892198 1243743233
0.14723399 0.061638702 0.800017 3273785089
0.146442 0.062250201 0.799986 1191215360
0.14801501 0.0622648 0.80004501 1107296361
0.14565 0.062861703 0.79995501 1124073728
0.147223 0.062876299 0.80001402 1208287253
0.14879601 0.062890798 0.80007303 1157634304
0.146431 0.063487798 0.79998302 3221253885
0.147212 0.064113803 0.80001098 1269170176
0.105752 0.061037701 0.78983098 1269039104
0.104969 0.0616423 0.789801 1208097806
0.106524 0.061656699 0.789859 3355377734
0.104186 0.0622469 0.78977001 3355378719
0.105741 0.062261201 0.789828 3289774848
0.107295 0.0622756 0.78988701 3355331105
0.104957 0.062865801 0.78979802 1191215872
0.105729 0.063484699 0.78982502 1225916416
-0.28454399 0.065158397 0.79041702 1244790784
-0.28534299 0.065775298 0.79038501 3255173339
-0.283757 0.065789901 0.79044503 3355312236
-0.28614199 0.066392101 0.79035401 3305174083
-0.28455499 0.066406697 0.79041398 3299671296
-0.282969 0.066421397 0.79047298 3221267966
-0.28535399 0.067023598 0.79038203 1157631748
-0.284567 0.067654997 0.790411 1243742209
-0.51651198 0.070428602 0.81500399 3305110788
-0.51734501 0.071072303 0.81497103 3324629513
-0.51569003 0.071087502 0.81503302 3371761740
-0.518179 0.071715899 0.81493801 3371998918
-0.51652402 0.071731202 0.81500101 1208225794
-0.51486802 0.071746401 0.815063 1244792576
-0.51735699 0.072374798 0.81496799 1244463104
-0.516536 0.073033698 0.81499702 1208221933
0.146607 0.086417802 0.87986702 1124073719
0.145732 0.087093599 0.87983298 1226768390
0.14747 0.087109603 0.87989801 1208228096
0.14485601 0.0877693 0.87979901 1174428747
0.146595 0.0877854 0.87986398 3355378997
0.148333 0.087801397 0.87992901 1226619163
0.14571901 0.088461101 0.87983 1269053974
0.14658201 0.089152902 0.879861 3321819666
0.088256098 0.190861 1.69713 3237806078
0.086527102 0.192196 1.69706 1191247953
0.089960396 0.192228 1.69719 3239623139
0.084798098 0.19353101 1.697 1268978688
0.0882314 0.193562 1.69712 1073741828
0.091664702 0.19359399 1.69725 1140851269
0.086502403 0.194897 1.69706 3271753232
0.088206701 0.196264 1.69712 3254714612
-0.0079190098 0.192017 1.6882 1269184003
-0.0096424501 0.19334701 1.68813 3205033983
-0.0062201698 0.193379 1.68826 3305370391
-0.0113659 0.19467799 1.68806 3371958374
-0.00794362 0.194709 1.68819 3222190846
-0.0045213299 0.194741 1.68832 3221225725
-0.0096670501 0.19604 1.68812 3305174786
-0.0079682199 0.197402 1.68819 1245579009
-0.73275101 0.172326 1.54592 1191247943
-0.73435497 0.173564 1.5458601 1225538048
-0.73117101 0.173593 1.54598 3288464896
-0.73595899 0.17480201 1.54579 3271622404
-0.73277402 0.174831 1.54591 1124073603
-0.72959 0.17486 1.54603 3232374011
-0.73437798 0.17606901 1.54585 1244443393
-0.73279703 0.17733701 1.54591 3288398107
0.051741801 0.197376 1.68589 3221553662
0.050023101 0.19870301 1.68582 1107296354
0.053436 0.198734 1.68595 1226291456
0.048304401 0.20003 1.68575 1268983555
0.0517173 0.20006099 1.6858799 3288399360
0.055130199 0.200093 1.68601 3288399185
0.0499986 0.201388 1.68581 3288334101
0.051692799 0.202746 1.6858701 3237806332
0.43165499 0.200619 1.66704 0
0.42997101 0.201919 1.66697 1225326692
0.43331501 0.20195 1.6671 1244640000
0.428287 0.20321999 1.6669 1246179843
0.431631 0.20325001 1.66703 3204513279
0.434975 0.203281 1.66715 1191247948
0.42994699 0.204551 1.66696 1191247883
0.43160701 0.205882 1.66702 3372023812
0.14898001 0.10488 0.92665601 1269056260
0.148056 0.105594 0.92662001 0
0.149891 0.105611 0.92668903 1191247887
0.14713199 0.106307 0.92658401 1208090639
0.148967 0.106324 0.92665303 1226749952
0.150801 0.106341 0.92672098 1056964609
0.14804301 0.107037 0.92661601 3221226492
0.14895301 0.107768 0.92664897 1226772992
-0.725914 0.202879 1.69168 3222405374
-0.72767001 0.204234 1.69161 1191248160
-0.72418398 0.204267 1.69174 1226586113
-0.72942501 0.20558999 1.69154 1269308422
-0.72593898 0.205622 1.6916699 3288398851
-0.72245401 0.205654 1.69181 3271622254
-0.72769499 0.20697699 1.69161 1107296323
-0.72596502 0.20836399 1.6916699 3355379200
0.566957 0.20038299 1.63097 3288398848
0.56531501 0.20164999 1.6309 1191247966
0.56857401 0.20168 1.63103 1225765123
0.56367397 0.20291699 1.6308399 1245328897
0.56693298 0.20294701 1.63096 1225326599
0.57019198 0.202978 1.63109 1225785688
0.565292 0.20421501 1.6309 3271622409
0.56691003 0.205512 1.63096 1225457666
-0.74798298 0.18048 1.4952101 1244377857
-0.74953401 0.181678 1.49515 0
-0.746454 0.18170699 1.49526 3271622428
-0.751086 0.18287601 1.49509 1225590633
-0.74800497 0.18290401 1.4952 1268455168
-0.74492401 0.182933 1.49532 3387949312
-0.74955601 0.184102 1.49514 3204448511
-0.74802703 0.18532801 1.4952 1225468160
0.080368303 0.206495 1.6531301 3355377664
0.078684799 0.207794 1.65307 1107296326
0.0820278 0.20782501 1.65319 1268912640
0.077001303 0.209094 1.653 1245840640
0.080344297 0.209125 1.6531301 1208287232
0.083687201 0.20915601 1.65325 3288268562
0.078660801 0.210425 1.65306 1090519049
0.080320299 0.21175499 1.65312 3204448767
0.120496 0.135592 1.10853 3355377668
0.119382 0.136452 1.10848 1268979716
0.121595 0.136473 1.10857 3288399360
0.118267 0.13731299 1.10844 3371696896
0.12048 0.13733301 1.10852 3288334094
0.122693 0.137353 1.10861 1247418627
0.119366 0.13819399 1.10848 1243723520
0.120464 0.139074 1.10852 3288399194
0.160816 0.1101 0.92226398 1208221697
0.159897 0.110809 0.92222798 3271622224
0.161722 0.110826 0.92229599 1269060100
0.158978 0.111519 0.92219198 1244600832
0.16080301 0.111536 0.92225999 1208091136
0.162628 0.111553 0.92232901 3271622413
0.15988401 0.112245 0.92222399 3372023825
0.16079 0.112971 0.92225701 3288398336
-0.115273 0.213763 1.67329 1269236224
-0.116985 0.215085 1.6732301 3221225724
-0.113586 0.21511599 1.67335 1107296312
-0.118698 0.216407 1.67316 3355378019
-0.115298 0.216438 1.67329 1225994756
-0.111898 0.216469 1.6734101 3221291006
-0.11701 0.21776 1.67322 3204449279
-0.115322 0.21911301 1.67328 1225726211
-0.17067 0.213552 1.66377 1225789696
-0.172374 0.21486799 1.6637 3355378176
-0.168989 0.214899 1.66383 1107296345
-0.174078 0.21618401 1.66363 1107296330
-0.17069399 0.216215 1.6637599 1269313537
-0.167309 0.21624599 1.66389 0
-0.172398 0.217531 1.66369 3355378433
