VERSION .7
FIELDS x y z rgb
SIZE 4 4 4 4
TYPE F F F F
COUNT 1 1 1 1
WIDTH 1381
HEIGHT 1
VIEWPOINT 0 0 0 1 0 0 0
POINTS 1381
DATA ascii
-0.353902 0.420899 1.1807 6184542
-0.354837 0.421748 1.18065 5789784
-0.35289 0.42155 1.18031 5066061
-0.355772 0.422596 1.1806 5723991
-0.353824 0.422398 1.18027 5197647
-0.351877 0.4222 1.17993 4671303
-0.354759 0.423246 1.18022 5329233
-0.353747 0.423897 1.17983 4802889
-0.443711 0.438526 1.20537 6118749
-0.444657 0.439384 1.20533 6052956
-0.442688 0.439183 1.20499 5395026
-0.445602 0.440242 1.20528 5855577
-0.443633 0.440041 1.20494 5131854
-0.441664 0.439841 1.2046 4671303
-0.444578 0.440899 1.20489 5066061
-0.443555 0.441557 1.2045 4868682
0.210261 0.419893 1.16372 1710618
0.209237 0.420822 1.16367 1447446
0.211369 0.420605 1.1633 1842204
0.208213 0.421751 1.16362 1842204
0.210345 0.421534 1.16325 1907997
0.212478 0.421317 1.16288 2368548
0.209322 0.422463 1.1632 2368548
0.21043 0.423176 1.16278 2763306
-0.329166 0.428141 1.13753 4802889
-0.330158 0.428959 1.1374 5000268
-0.328132 0.428862 1.13724 4473924
-0.331151 0.429778 1.13726 5197647
-0.329125 0.429681 1.1371 4473924
-0.327099 0.429583 1.13694 4210752
-0.330118 0.4305 1.13697 4802889
-0.329085 0.431221 1.13667 4276545
-0.490728 0.402223 1.61095 5460819
-0.491795 0.403464 1.61088 5460819
-0.489374 0.402842 1.61026 5197647
-0.492863 0.404704 1.61082 5395026
-0.490442 0.404083 1.6102 5066061
-0.48802 0.403462 1.60958 4605510
-0.491509 0.405323 1.61013 5329233
-0.490156 0.405942 1.60945 5000268
0.572661 0.174873 1.29561 1315860
0.57158 0.175808 1.29541 1052688
0.573845 0.175658 1.29535 2894892
0.570498 0.176742 1.2952 1973790
0.572764 0.176593 1.29515 4276545
0.575029 0.176444 1.29509 6974058
0.571682 0.177528 1.29494 6447714
0.572866 0.178313 1.29468 7303023
-0.49893 0.461817 1.49144 5395026
-0.499958 0.462965 1.49138 5131854
-0.497657 0.462432 1.49083 5658198
-0.500986 0.464114 1.49131 4934475
-0.498685 0.463581 1.49076 5658198
-0.496384 0.463048 1.49021 5921370
-0.499713 0.464729 1.4907 5197647
-0.49844 0.465345 1.49008 5263440
-0.212454 0.331424 1.28548 5000268
-0.213355 0.332431 1.28542 4144959
-0.211337 0.331964 1.28494 5000268
-0.214256 0.333439 1.28537 3552822
-0.212239 0.332971 1.28488 4276545
-0.210221 0.332504 1.2844 4408131
-0.21314 0.333979 1.28483 3552822
-0.212024 0.334518 1.28428 3618615
0.604359 0.153805 1.32207 8487297
0.603257 0.154758 1.32186 3487029
0.605566 0.154605 1.32181 8487297
0.602154 0.15571 1.32165 2039583
0.604463 0.155558 1.32159 5329233
0.606773 0.155406 1.32154 8618883
0.603361 0.156511 1.32138 1907997
0.604568 0.157311 1.32112 1710618
-0.10948 0.327208 1.04409 3552822
-0.110275 0.32801 1.04403 4473924
-0.108552 0.32772 1.0437 2894892
-0.11107 0.328812 1.04397 4737096
-0.109347 0.328523 1.04363 3552822
-0.107625 0.328233 1.0433 2763306
-0.110143 0.329325 1.04357 4408131
-0.109215 0.329837 1.04318 3487029
-0.16647 0.31379 1.24682 4079166
-0.167347 0.314771 1.24676 4079166
-0.165383 0.314316 1.24629 4605510
-0.168225 0.315751 1.24671 4276545
-0.166261 0.315296 1.24623 4342338
-0.164296 0.314841 1.24576 5263440
-0.167138 0.316277 1.24618 4342338
-0.166051 0.316802 1.24565 5329233
0.637748 0.207063 1.09015 4671303
0.636858 0.207826 1.08995 4276545
0.638722 0.207718 1.08997 4605510
0.635969 0.208588 1.08976 3355443
0.637832 0.20848 1.08977 4013373
0.639696 0.208373 1.08979 4276545
0.636942 0.209243 1.08958 3223857
0.637916 0.209898 1.0894 3355443
-0.200379 0.335009 1.27282 4934475
-0.201275 0.33601 1.27277 4408131
-0.19927 0.335546 1.27229 5855577
-0.20217 0.337011 1.27271 4276545
-0.200166 0.336546 1.27223 5460819
-0.198161 0.336082 1.27175 5395026
-0.201061 0.337547 1.27217 4342338
-0.199952 0.338083 1.27164 4539717
-0.265713 0.293575 1.3684 4473924
-0.266624 0.294634 1.36835 5066061
-0.264557 0.294103 1.36782 4342338
-0.267535 0.295692 1.36829 5263440
-0.265469 0.295162 1.36776 5000268
-0.263402 0.294632 1.36724 4079166
-0.26638 0.296221 1.36771 5789784
-0.265224 0.296749 1.36712 5329233
0.54695 0.166424 1.34354 7237230
0.545826 0.167395 1.34332 3947580
0.54818 0.16724 1.34327 7303023
0.544702 0.168366 1.34311 1710618
0.547056 0.168211 1.34305 5592405
0.54941 0.168056 1.34299 7105644
0.545932 0.169182 1.34284 1447446
0.547162 0.169998 1.34256 1973790
-0.219292 0.289423 1.36627 5066061
-0.220213 0.290492 1.36622 4473924
-0.218124 0.289957 1.36568 5460819
-0.221134 0.291562 1.36616 4342338
-0.219045 0.291026 1.36563 5329233
-0.216957 0.290491 1.3651 5592405
-0.219966 0.292096 1.36557 4737096
-0.218798 0.29263 1.36498 5526612
-0.323189 0.304503 1.35558 5263440
-0.324078 0.305536 1.35552 5329233
-0.322062 0.305018 1.35501 4671303
-0.324967 0.306569 1.35547 5658198
-0.322951 0.306051 1.35496 5395026
-0.320934 0.305534 1.35444 4605510
-0.32384 0.307084 1.3549 5987163
-0.322713 0.3076 1.35433 5723991
-0.647616 0.508923 2.02926 1710618
-0.649107 0.510518 2.02915 1513239
-0.645816 0.509847 2.02843 2697513
-0.650599 0.512112 2.02905 1052688
-0.647308 0.511442 2.02833 2631720
-0.644016 0.510771 2.0276 3947580
-0.6488 0.513037 2.02823 2302755
-0.647 0.513961 2.0274 3355443
-0.209332 0.407466 1.15102 5658198
-0.21022 0.408362 1.15095 5723991
-0.208296 0.408039 1.15058 5131854
-0.211108 0.409258 1.15088 5197647
-0.209184 0.408934 1.15051 5000268
-0.207261 0.408611 1.15014 4276545
-0.210072 0.40983 1.15044 4671303
-0.209037 0.410402 1.15 4079166
-0.336768 0.368591 1.30025 5460819
-0.33766 0.369587 1.30019 4868682
-0.335664 0.369125 1.29971 5592405
-0.338551 0.370584 1.30013 4210752
-0.336555 0.370121 1.29966 4868682
-0.334559 0.369659 1.29918 5197647
-0.337447 0.371118 1.2996 4210752
-0.336343 0.371652 1.29906 4210752
-0.249763 0.216968 1.39556 6052956
-0.250679 0.218032 1.3955 5987163
-0.248602 0.2175 1.39497 5131854
-0.251594 0.219096 1.39545 5395026
-0.249517 0.218564 1.39492 5526612
-0.24744 0.218031 1.39439 4408131
-0.250433 0.219628 1.39486 5329233
-0.249272 0.220159 1.39427 4802889
-0.23889 0.418023 1.14724 5395026
-0.239771 0.418912 1.14717 4802889
-0.237862 0.418591 1.1468 5987163
-0.240653 0.419801 1.1471 4737096
-0.238743 0.41948 1.14673 5723991
-0.236833 0.419159 1.14636 5987163
-0.239624 0.420369 1.14666 5066061
-0.238596 0.420937 1.14622 5329233
0.56055 0.166006 1.32772 7171437
0.55944 0.166964 1.32751 7237230
0.561764 0.166811 1.32746 6579300
0.558331 0.167923 1.3273 6974058
0.560654 0.16777 1.32724 5592405
0.562978 0.167617 1.32719 4605510
0.559545 0.168728 1.32703 5000268
0.560759 0.169534 1.32676 5526612
0.604208 0.153034 1.2951 8882055
0.603131 0.153964 1.29489 9408399
0.605386 0.153816 1.29484 8750469
0.602055 0.154895 1.29469 9211020
0.60431 0.154746 1.29463 7434609
0.606565 0.154597 1.29458 3355443
0.603233 0.155677 1.29443 4868682
0.604411 0.156458 1.29417 2039583
-0.0822219 0.407006 1.13494 3552822
-0.083123 0.407915 1.13487 3815994
-0.0811708 0.407587 1.13449 2236962
-0.0840242 0.408824 1.1348 3487029
-0.082072 0.408496 1.13442 3026478
-0.0801197 0.408168 1.13404 1842204
-0.0829731 0.409405 1.13435 2894892
-0.081922 0.409985 1.1339 2171169
0.242291 0.344488 1.05987 1644825
0.241403 0.345384 1.0598 1447446
0.243327 0.34506 1.05943 2171169
0.240514 0.34628 1.05973 1710618
0.242439 0.345956 1.05936 1973790
0.244364 0.345633 1.05898 2302755
0.241551 0.346853 1.05929 1710618
0.242587 0.347425 1.05884 2236962
-0.223638 0.218061 1.38176 5592405
-0.224551 0.219121 1.38171 5987163
-0.222481 0.21859 1.38118 5066061
-0.225463 0.220181 1.38165 5855577
-0.223394 0.21965 1.38112 5658198
-0.221324 0.219119 1.38059 4802889
-0.224306 0.22071 1.38107 5789784
-0.223149 0.22124 1.38048 5855577
0.895379 0.509758 1.35624 657930
0.894052 0.511097 1.35613 921102
0.896927 0.510613 1.35558 526344
0.892725 0.512435 1.35603 1381653
0.8956 0.511952 1.35547 921102
0.898476 0.511469 1.35492 526344
0.894273 0.513291 1.35537 1381653
0.895821 0.514146 1.35471 1381653
-0.395103 0.38616 1.30762 4737096
-0.39599 0.387152 1.30757 4605510
-0.394004 0.386692 1.30709 5066061
-0.396878 0.388144 1.30751 4144959
-0.394891 0.387684 1.30704 4737096
-0.392905 0.387224 1.30656 4934475
-0.395779 0.388676 1.30698 4013373
-0.39468 0.389207 1.30645 3947580
-0.0688577 0.404828 1.12825 2960685
-0.0697554 0.405734 1.12818 2171169
-0.0678107 0.405407 1.1278 3881787
-0.070653 0.406639 1.12811 2039583
-0.0687084 0.406312 1.12773 3026478
-0.0667638 0.405985 1.12735 4210752
-0.069606 0.407218 1.12766 2302755
-0.068559 0.407796 1.12721 3289650
0.57084 0.199741 1.2739 6974058
0.569772 0.200663 1.27369 3158064
0.572008 0.200516 1.27364 7303023
0.568705 0.201585 1.27349 1250067
0.57094 0.201438 1.27343 4079166
0.573176 0.20129 1.27338 7368816
0.569873 0.20236 1.27323 1184274
0.571041 0.203135 1.27297 1250067
-0.105648 0.314652 1.04754 2763306
-0.106501 0.315376 1.04739 1579032
-0.104731 0.315272 1.04732 3355443
-0.107354 0.316101 1.04725 1644825
-0.105584 0.315996 1.04717 2302755
-0.103813 0.315892 1.0471 3618615
-0.106437 0.316721 1.04703 1579032
-0.105519 0.317341 1.04681 2105376
-0.180423 0.422301 1.13821 5000268
-0.18131 0.423196 1.13814 4671303
-0.179388 0.422873 1.13777 5000268
-0.182198 0.424091 1.13807 3881787
-0.180275 0.423768 1.1377 3881787
-0.178353 0.423445 1.13733 4473924
-0.181163 0.424663 1.13763 3552822
-0.180128 0.425235 1.13719 3684408
-0.120012 0.394976 1.16958 5131854
-0.121002 0.395817 1.16941 5197647
-0.118947 0.395696 1.16932 5592405
-0.121993 0.396658 1.16923 4408131
-0.119937 0.396537 1.16915 4802889
-0.117882 0.396415 1.16907 4934475
-0.120927 0.397378 1.16898 4013373
-0.119862 0.398098 1.16872 3881787
-0.253303 0.232461 1.37686 5066061
-0.254208 0.233512 1.3768 5789784
-0.252156 0.232986 1.37628 4671303
-0.255112 0.234563 1.37675 5789784
-0.25306 0.234037 1.37623 5460819
-0.251009 0.23351 1.3757 4671303
-0.253965 0.235088 1.37617 6184542
-0.252818 0.235612 1.37559 5855577
-0.228695 0.357249 1.23695 4013373
-0.229561 0.358217 1.2369 3947580
-0.227623 0.357768 1.23643 5263440
-0.230427 0.359184 1.23684 4079166
-0.228489 0.358735 1.23638 4934475
-0.226551 0.358286 1.23591 5000268
-0.229354 0.359702 1.23632 4210752
-0.228282 0.360221 1.2358 5066061
0.122874 0.346645 1.18162 1907997
0.121866 0.347509 1.1814 1250067
0.123977 0.347387 1.18142 2960685
0.120859 0.348373 1.18119 855309
0.12297 0.348251 1.1812 2171169
0.12508 0.348128 1.18121 1710618
0.121962 0.349114 1.18098 855309
0.123065 0.349856 1.18078 1118481
-0.0417413 0.419617 1.1258 5460819
-0.0426467 0.42053 1.12573 4868682
-0.0406853 0.4202 1.12535 5131854
-0.0435521 0.421443 1.12566 4408131
-0.0415907 0.421114 1.12528 4473924
-0.0396292 0.420784 1.1249 4934475
-0.0424961 0.422027 1.12521 4408131
-0.04144 0.42261 1.12476 4473924
-0.216678 0.379862 1.19681 3815994
-0.217706 0.380743 1.19658 3487029
-0.215553 0.380619 1.1966 4144959
-0.218733 0.381624 1.19636 3421236
-0.216581 0.381499 1.19638 4868682
-0.214428 0.381375 1.19639 4210752
-0.217608 0.38238 1.19615 4934475
-0.216483 0.383137 1.19595 5197647
-0.135332 0.37861 1.18157 5131854
-0.136253 0.37954 1.1815 5395026
-0.134256 0.379205 1.18111 4473924
-0.137175 0.38047 1.18143 5526612
-0.135178 0.380135 1.18104 4802889
-0.133181 0.379799 1.18065 4342338
-0.1361 0.381064 1.18097 5131854
-0.135025 0.381659 1.18051 4408131
-0.173203 0.367914 1.21667 4737096
-0.174069 0.368882 1.21662 4276545
-0.172129 0.368433 1.21615 5592405
-0.174936 0.36985 1.21656 4013373
-0.172996 0.369401 1.2161 4737096
-0.171056 0.368952 1.21563 5329233
-0.173863 0.370369 1.21604 4013373
-0.172789 0.370889 1.21552 4737096
-0.306134 0.3892 1.22537 4408131
-0.306979 0.390145 1.22532 5263440
-0.305086 0.389706 1.22486 4013373
-0.307825 0.39109 1.22527 5723991
-0.305932 0.390651 1.22481 4539717
-0.304039 0.390213 1.22436 4210752
-0.306778 0.391596 1.22476 5197647
-0.30573 0.392103 1.22425 4605510
0.568737 0.200184 1.25549 7237230
0.567678 0.201084 1.2553 2500134
0.569877 0.200954 1.25522 7303023
0.566619 0.201984 1.25512 1052688
0.568817 0.201854 1.25503 4408131
0.571016 0.201724 1.25494 7237230
0.567758 0.202754 1.25485 855309
0.568898 0.203524 1.25457 1710618
-0.212111 0.389695 1.19174 4868682
-0.213028 0.39062 1.19167 4737096
-0.211041 0.390286 1.19128 4605510
-0.213946 0.391546 1.19159 4802889
-0.211958 0.391212 1.19121 4144959
-0.209971 0.390877 1.19082 3947580
-0.212876 0.392137 1.19114 4342338
-0.211805 0.392728 1.19068 3881787
-0.278764 0.391876 1.19461 3289650
-0.279792 0.392757 1.19439 3421236
-0.277639 0.392632 1.19441 3881787
-0.28082 0.393638 1.19417 3552822
-0.278667 0.393513 1.19418 4408131
-0.276513 0.393389 1.1942 4737096
-0.279694 0.394395 1.19396 4210752
-0.278569 0.395151 1.19375 4408131
-0.11219 0.381292 1.19242 3421236
-0.113215 0.382171 1.1922 3355443
-0.111068 0.382046 1.19221 4934475
-0.114239 0.383049 1.19198 3026478
-0.112093 0.382925 1.19199 3815994
-0.109946 0.382801 1.19201 4144959
-0.113117 0.383803 1.19177 3223857
-0.111996 0.384557 1.19156 3618615
-0.169593 0.386563 1.19378 3487029
-0.17062 0.387443 1.19356 4276545
-0.168469 0.387319 1.19358 4210752
-0.171647 0.388323 1.19334 4605510
-0.169496 0.388199 1.19335 4671303
-0.167345 0.388074 1.19337 4737096
-0.170523 0.389079 1.19313 4868682
-0.169399 0.389835 1.19293 5395026
-0.106003 0.295334 1.04196 4408131
-0.106862 0.296071 1.04177 1710618
-0.105061 0.295967 1.04178 5066061
-0.107722 0.296808 1.04159 1184274
-0.105921 0.296704 1.0416 3552822
-0.10412 0.296599 1.04161 4210752
-0.10678 0.29744 1.04141 1250067
-0.105839 0.298073 1.04124 2368548
0.581461 0.477506 1.23257 2302755
0.580316 0.478662 1.23248 2500134
0.582797 0.478245 1.232 2500134
0.57917 0.479817 1.2324 2697513
0.581652 0.4794 1.23191 2894892
0.584134 0.478983 1.23143 2894892
0.580506 0.480555 1.23183 3223857
0.581842 0.481294 1.23126 3289650
-0.235958 0.356498 1.31766 4276545
-0.236855 0.35754 1.3176 4408131
-0.234821 0.357018 1.31708 3684408
-0.237752 0.358583 1.31755 5000268
-0.235718 0.358061 1.31703 3881787
-0.233683 0.357539 1.31651 3815994
-0.236615 0.359103 1.31697 5000268
-0.235477 0.359623 1.3164 4934475
-0.0246099 0.378608 1.18898 4013373
-0.0256313 0.379483 1.18876 4013373
-0.0234917 0.37936 1.18878 3815994
-0.0266527 0.380359 1.18854 3355443
-0.024513 0.380235 1.18856 3881787
-0.0223734 0.380111 1.18857 3289650
-0.0255344 0.381111 1.18833 3092271
-0.0244161 0.381863 1.18813 3158064
-0.0440641 0.382545 1.17293 4737096
-0.0449991 0.383488 1.17285 3487029
-0.0429734 0.383147 1.17246 5000268
-0.0459342 0.384431 1.17278 3223857
-0.0439085 0.38409 1.17239 4210752
-0.0418828 0.38375 1.172 4737096
-0.0448435 0.385033 1.17232 3750201
-0.0437529 0.385636 1.17185 3815994
-0.0745328 0.373728 1.17062 3421236
-0.075535 0.374587 1.17041 2894892
-0.0734355 0.374466 1.17042 3487029
-0.0765372 0.375446 1.17019 3618615
-0.0744377 0.375325 1.17021 3223857
-0.0723382 0.375204 1.17022 4868682
-0.0754399 0.376184 1.16999 3881787
-0.0743426 0.376922 1.16979 5592405
-0.163584 0.432899 1.12265 5066061
-0.164465 0.433787 1.12258 4671303
-0.162557 0.433466 1.12221 4276545
-0.165345 0.434675 1.12251 4868682
-0.163438 0.434354 1.12215 3947580
-0.16153 0.434034 1.12178 3618615
-0.164318 0.435242 1.12208 4276545
-0.163291 0.43581 1.12164 3684408
-0.0765304 0.377604 1.17543 2894892
-0.0775382 0.378468 1.17521 3618615
-0.0754271 0.378346 1.17523 3223857
-0.078546 0.379332 1.175 3289650
-0.0764349 0.37921 1.17501 3881787
-0.0743238 0.379088 1.17502 5658198
-0.0774426 0.380074 1.17479 4737096
-0.0763393 0.380815 1.17459 5855577
-0.288514 0.307365 1.36672 5723991
-0.289491 0.308409 1.36666 4802889
-0.287335 0.30797 1.36618 5987163
-0.290468 0.309453 1.36659 4473924
-0.288312 0.309014 1.36612 5263440
-0.286157 0.308575 1.36564 5592405
-0.289289 0.310059 1.36605 4671303
-0.288111 0.310664 1.36551 4802889
-0.0791637 0.422597 1.1067 2631720
-0.0800456 0.423487 1.10663 1907997
-0.0781351 0.423166 1.10626 3552822
-0.0809275 0.424376 1.10656 1381653
-0.079017 0.424055 1.10619 2829099
-0.0771065 0.423734 1.10582 3881787
-0.0798989 0.424945 1.10612 1973790
-0.0788703 0.425513 1.10568 3026478
-0.0731886 0.389275 1.1646 4539717
-0.0741122 0.390207 1.16453 4868682
-0.0721114 0.38987 1.16414 3947580
-0.0750358 0.391138 1.16446 4144959
-0.073035 0.390802 1.16407 4144959
-0.0710341 0.390466 1.16368 3158064
-0.0739585 0.391734 1.164 3552822
-0.0728813 0.392329 1.16354 3158064
-0.106472 0.313677 1.04998 1842204
-0.107344 0.314425 1.04979 1250067
-0.105518 0.314319 1.04981 4013373
-0.108216 0.315172 1.04961 1381653
-0.106389 0.315066 1.04962 1579032
-0.104563 0.314961 1.04963 4473924
-0.107261 0.315813 1.04943 1184274
-0.106307 0.316455 1.04925 1447446
-0.280446 0.395672 1.16593 5921370
-0.281447 0.396531 1.16571 5723991
-0.279349 0.396409 1.16573 5592405
-0.282449 0.397389 1.1655 4868682
-0.280351 0.397268 1.16551 5263440
-0.278253 0.397146 1.16552 4737096
-0.281352 0.398126 1.16529 4276545
-0.280256 0.398863 1.16509 3618615
0.0615505 0.428745 1.09045 4013373
0.0606509 0.429652 1.09038 4473924
0.0625997 0.429325 1.09 4013373
0.0597513 0.430559 1.09031 4342338
0.0617002 0.430232 1.08993 5197647
0.063649 0.429904 1.08955 4013373
0.0608006 0.431139 1.08986 5000268
0.0618499 0.431719 1.08941 5066061
-0.387965 0.402938 1.15779 5329233
-0.388959 0.403791 1.15757 5197647
-0.386876 0.40367 1.15758 4737096
-0.389954 0.404643 1.15736 4473924
-0.38787 0.404523 1.15737 4079166
-0.385787 0.404402 1.15738 4276545
-0.388865 0.405375 1.15715 3684408
-0.387776 0.406107 1.15695 3881787
-0.306526 0.264324 0.93649 3289650
-0.307275 0.264966 0.936329 3289650
-0.305706 0.264875 0.936339 4013373
-0.308025 0.265608 0.936167 3487029
-0.306455 0.265518 0.936177 4276545
-0.304885 0.265427 0.936187 4934475
-0.307204 0.26616 0.936015 4539717
-0.306384 0.266711 0.935864 4737096
0.476357 0.420932 1.12431 3618615
0.475342 0.421955 1.12423 3487029
0.47754 0.421586 1.12381 4342338
0.474327 0.422979 1.12415 2960685
0.476526 0.422609 1.12373 3750201
0.478724 0.42224 1.1233 4210752
0.475511 0.423632 1.12365 2894892
0.476694 0.424286 1.12314 3355443
-0.1026 0.394711 1.0578 3552822
-0.103428 0.395546 1.05773 4079166
-0.101635 0.395244 1.05739 2894892
-0.104255 0.39638 1.05767 4539717
-0.102463 0.396079 1.05732 3421236
-0.100671 0.395777 1.05697 2105376
-0.10329 0.396913 1.05726 4144959
-0.102325 0.397446 1.05685 3355443
-0.204362 0.402678 1.16381 4210752
-0.205364 0.403537 1.16359 4013373
-0.203265 0.403416 1.16361 4144959
-0.206366 0.404396 1.16338 4144959
-0.204267 0.404274 1.16339 4737096
-0.202168 0.404153 1.16341 4868682
-0.205269 0.405133 1.16318 5197647
-0.204172 0.405871 1.16297 5723991
-0.176132 0.403042 1.16421 3750201
-0.177135 0.403901 1.164 3684408
-0.175035 0.40378 1.16401 5263440
-0.178137 0.40476 1.16378 3881787
-0.176037 0.404639 1.16379 4737096
-0.173937 0.404517 1.16381 5592405
-0.17704 0.405498 1.16358 4013373
-0.175942 0.406236 1.16337 4276545
-0.0680889 0.435795 1.08744 4737096
-0.0689603 0.436674 1.08738 4276545
-0.0670725 0.436357 1.08701 5329233
-0.0698317 0.437553 1.08731 4079166
-0.0679439 0.437236 1.08694 4671303
-0.0660561 0.436919 1.08658 5000268
-0.0688153 0.438115 1.08687 4408131
-0.0677989 0.438676 1.08644 5197647
-0.33733 0.378055 1.28352 4276545
-0.33818 0.379042 1.28347 5000268
-0.336253 0.378548 1.28298 3815994
-0.339029 0.380029 1.28342 5460819
-0.337103 0.379535 1.28293 4144959
-0.335176 0.37904 1.28244 3750201
-0.337952 0.380522 1.28288 4671303
-0.336875 0.381014 1.28233 4144959
-0.279388 -0.161533 1.78471 789516
-0.280841 -0.160287 1.7844 1579032
-0.277797 -0.160464 1.78442 197379
-0.282294 -0.159042 1.78408 1776411
-0.27925 -0.159218 1.7841 460551
-0.276207 -0.159394 1.78412 131586
-0.280703 -0.157973 1.78379 1315860
-0.279113 -0.156903 1.78349 526344
-0.237318 0.365796 1.28187 4737096
-0.238189 0.366808 1.28181 4144959
-0.236213 0.366301 1.28131 5197647
-0.239061 0.367821 1.28176 3684408
-0.237084 0.367314 1.28126 4671303
-0.235107 0.366807 1.28075 5000268
-0.237956 0.368326 1.2812 3750201
-0.236851 0.368832 1.28065 3618615
-0.0868174 0.440431 1.09063 1907997
-0.0876888 0.44131 1.09056 1513239
-0.0858009 0.440992 1.09019 3289650
-0.0885602 0.442189 1.09049 1250067
-0.0866724 0.441871 1.09012 3026478
-0.0847845 0.441554 1.08976 4013373
-0.0875438 0.44275 1.09006 2171169
-0.0865274 0.443312 1.08962 3684408
-0.127061 -0.167242 1.84785 10263708
-0.128574 -0.165945 1.84752 3750201
-0.125405 -0.166129 1.84754 11711154
-0.130087 -0.164648 1.8472 2302755
-0.126918 -0.164832 1.84722 7895160
-0.123748 -0.165015 1.84724 10592673
-0.128431 -0.163535 1.84689 3223857
-0.126774 -0.162421 1.84658 4342338
0.601642 0.210432 1.13 3815994
0.600707 0.21124 1.12982 3487029
0.602664 0.211111 1.12977 3750201
0.599773 0.212047 1.12964 3092271
0.60173 0.211918 1.12959 3421236
0.603687 0.211789 1.12955 3684408
0.600796 0.212726 1.12942 2829099
0.601818 0.213404 1.12919 2960685
-0.0984667 0.410172 1.06651 2236962
-0.0993065 0.411019 1.06645 2894892
-0.097487 0.410713 1.0661 1513239
-0.100146 0.411866 1.06638 3421236
-0.0983269 0.41156 1.06603 2171169
-0.0965074 0.411254 1.06568 1250067
-0.0991668 0.412407 1.06596 2894892
-0.0981872 0.412948 1.06555 2171169
0.563751 0.188955 1.29924 7500402
0.562666 0.189884 1.299 3815994
0.564937 0.189753 1.29902 7368816
0.561582 0.190813 1.29877 1184274
0.563853 0.190682 1.29878 5000268
0.566124 0.19055 1.2988 7237230
0.562769 0.191611 1.29855 986895
0.563956 0.192409 1.29833 1184274
0.610657 0.186469 1.29761 8355711
0.609575 0.187397 1.29738 8553090
0.611842 0.187266 1.29739 8355711
0.608492 0.188325 1.29714 8289918
0.61076 0.188194 1.29716 7697781
0.613027 0.188062 1.29717 7368816
0.609677 0.189121 1.29692 6052956
0.610862 0.189918 1.2967 6710886
-0.180572 0.393139 1.18704 4605510
-0.18142 0.394087 1.18698 4144959
-0.179522 0.393647 1.18653 5131854
-0.182268 0.395034 1.18693 3618615
-0.18037 0.394595 1.18647 4671303
-0.178472 0.394155 1.18602 4934475
-0.181218 0.395542 1.18642 3750201
-0.180168 0.39605 1.18591 3750201
-0.276635 0.211011 1.47035 4013373
-0.277599 0.212132 1.47029 3355443
-0.275411 0.211571 1.46973 4934475
-0.278564 0.213253 1.47023 3750201
-0.276376 0.212691 1.46968 4342338
-0.274188 0.21213 1.46912 4802889
-0.277341 0.213812 1.46962 3684408
-0.276118 0.214372 1.469 4276545
0.663265 0.217415 1.26461 2894892
0.662206 0.218323 1.26439 3552822
0.664424 0.218195 1.2644 2368548
0.661147 0.219231 1.26416 3684408
0.663365 0.219102 1.26417 2829099
0.665583 0.218974 1.26419 2039583
0.662306 0.22001 1.26394 3552822
0.663466 0.220789 1.26373 3289650
-0.107167 0.307149 1.04608 5526612
-0.107898 0.307966 1.04603 3881787
-0.106261 0.307587 1.04564 5855577
-0.108629 0.308783 1.04599 3092271
-0.106993 0.308404 1.0456 5526612
-0.105356 0.308025 1.0452 5658198
-0.107724 0.309221 1.04555 3947580
-0.106818 0.309659 1.04511 5066061
-0.34535 0.425635 1.1985 5658198
-0.346174 0.426556 1.19845 6052956
-0.34433 0.426129 1.198 4802889
-0.346999 0.427477 1.1984 5526612
-0.345154 0.42705 1.19795 5658198
-0.343309 0.426622 1.19751 4605510
-0.345978 0.42797 1.1979 5921370
-0.344957 0.428464 1.19741 5197647
-0.29594 0.418563 1.19365 4605510
-0.296771 0.419491 1.1936 4605510
-0.294911 0.41906 1.19315 5592405
-0.297602 0.42042 1.19355 4342338
-0.295742 0.419989 1.1931 5460819
-0.293882 0.419558 1.19265 5789784
-0.296573 0.420917 1.19305 4737096
-0.295544 0.421415 1.19255 4802889
-0.233605 0.392418 1.15434 3552822
-0.234414 0.393321 1.15429 3684408
-0.232604 0.392902 1.15385 3750201
-0.235222 0.394224 1.15424 4210752
-0.233413 0.393805 1.1538 4342338
-0.231603 0.393386 1.15337 4144959
-0.234221 0.394708 1.15375 4802889
-0.23322 0.395192 1.15327 5066061
-0.326073 0.451508 1.23212 4868682
-0.326936 0.452472 1.23206 5329233
-0.325005 0.452025 1.2316 4868682
-0.327799 0.453436 1.23201 5789784
-0.325867 0.452989 1.23154 5723991
-0.323936 0.452541 1.23108 5263440
-0.32673 0.453953 1.23149 5987163
-0.325662 0.45447 1.23097 5921370
-0.189731 0.209289 1.48407 5789784
-0.190729 0.210449 1.48401 5460819
-0.188466 0.209868 1.48343 5658198
-0.191727 0.211608 1.48395 5263440
-0.189464 0.211027 1.48337 5066061
-0.1872 0.210446 1.48279 5197647
-0.190462 0.212187 1.48331 5066061
-0.189196 0.212765 1.48267 4408131
-0.0385632 0.382104 1.15718 4737096
-0.0394206 0.383062 1.15712 5131854
-0.0375015 0.382618 1.15666 4144959
-0.040278 0.38402 1.15707 4868682
-0.0383589 0.383576 1.15661 4539717
-0.0364397 0.383131 1.15615 3947580
-0.0392162 0.384534 1.15656 4934475
-0.0381545 0.385047 1.15604 5197647
-0.048144 -0.167959 1.78935 5723991
-0.0496017 -0.166709 1.78903 10987431
-0.046548 -0.166886 1.78905 2829099
-0.0510594 -0.165459 1.78872 11645361
-0.0480057 -0.165636 1.78874 7434609
-0.044952 -0.165813 1.78876 2500134
-0.0494634 -0.164387 1.78842 10790052
-0.0478674 -0.163314 1.78813 10000536
-0.208243 0.378743 1.17863 3947580
-0.209241 0.379608 1.17843 4276545
-0.207144 0.379471 1.17841 4737096
-0.21024 0.380473 1.17822 4210752
-0.208142 0.380336 1.1782 4737096
-0.206044 0.380199 1.17819 5460819
-0.209141 0.381202 1.178 4473924
-0.208042 0.38193 1.17778 4473924
0.047338 -0.172795 1.94777 4342338
0.0457294 -0.171416 1.94743 2763306
0.0490991 -0.171611 1.94745 4671303
0.0441209 -0.170037 1.94708 2434341
0.0474906 -0.170232 1.9471 3487029
0.0508603 -0.170427 1.94712 4737096
0.045882 -0.168854 1.94675 2302755
0.0476432 -0.16767 1.94643 2500134
-0.207565 -0.156467 1.81434 1315860
-0.209049 -0.155196 1.81402 2302755
-0.205942 -0.155376 1.81404 1118481
-0.210532 -0.153925 1.8137 1250067
-0.207425 -0.154104 1.81372 5395026
-0.204318 -0.154284 1.81374 1644825
-0.208908 -0.152833 1.8134 7500402
-0.207284 -0.151742 1.8131 8750469
0.0516963 -0.167904 1.92492 4539717
0.0501083 -0.166543 1.92458 2894892
0.0534349 -0.166736 1.9246 4737096
0.0485203 -0.165182 1.92424 2302755
0.0518469 -0.165375 1.92426 3487029
0.0551735 -0.165567 1.92428 4802889
0.0502589 -0.164013 1.92392 2105376
0.0519975 -0.162844 1.92359 2302755
-0.399126 -0.140931 1.44711 4605510
-0.400261 -0.139958 1.44687 3881787
-0.397884 -0.140096 1.44688 5066061
-0.401396 -0.138986 1.44662 3487029
-0.399019 -0.139123 1.44664 4079166
-0.396641 -0.139261 1.44665 4868682
-0.400153 -0.13815 1.44639 3092271
-0.398911 -0.137315 1.44616 2894892
-0.136368 0.385963 1.19359 4408131
-0.137384 0.386844 1.19339 3618615
-0.135249 0.386704 1.19337 5066061
-0.138401 0.387724 1.19318 2894892
-0.136266 0.387585 1.19316 4408131
-0.13413 0.387445 1.19314 4934475
-0.137282 0.388466 1.19295 3289650
-0.136163 0.389207 1.19272 3881787
0.596239 0.106006 1.42419 9342606
0.595056 0.10702 1.42393 7631988
0.597534 0.106877 1.42395 8816262
0.593873 0.108034 1.42368 2434341
0.596351 0.107891 1.42369 5329233
0.598829 0.107747 1.42371 8684676
0.595168 0.108905 1.42344 1973790
0.596463 0.109775 1.4232 1579032
-0.111165 0.379098 1.12116 5329233
-0.111975 0.380003 1.12111 4737096
-0.110163 0.379583 1.12067 5658198
-0.112784 0.380907 1.12106 4605510
-0.110972 0.380488 1.12062 4868682
-0.10916 0.380068 1.12019 5263440
-0.111782 0.381392 1.12057 4013373
-0.110779 0.381877 1.12008 4079166
-0.205557 0.409594 1.15439 5395026
-0.206377 0.41051 1.15434 4737096
-0.204541 0.410085 1.1539 5658198
-0.207197 0.411427 1.15429 4342338
-0.205361 0.411001 1.15384 4737096
-0.203525 0.410576 1.1534 5526612
-0.206181 0.411918 1.15379 3947580
-0.205166 0.412409 1.1533 4934475
0.576639 0.110726 1.42996 2960685
0.57545 0.111746 1.4297 2894892
0.577941 0.111602 1.42972 4013373
0.57426 0.112766 1.42944 3158064
0.576752 0.112622 1.42946 6710886
0.579243 0.112477 1.42948 9013641
0.575562 0.113641 1.4292 8618883
0.576865 0.114517 1.42896 8553090
-0.0762619 0.376872 1.1733 2960685
-0.0772582 0.377736 1.17309 3026478
-0.0751653 0.377599 1.17308 3881787
-0.0782545 0.378599 1.17289 3552822
-0.0761616 0.378462 1.17287 4868682
-0.0740686 0.378326 1.17285 5789784
-0.0771579 0.379326 1.17267 4605510
-0.0760613 0.380052 1.17245 5395026
-0.235642 0.418896 1.14768 5789784
-0.236452 0.419801 1.14763 5921370
-0.234639 0.419381 1.14719 4605510
-0.237262 0.420706 1.14758 5921370
-0.235449 0.420286 1.14714 5395026
-0.233637 0.419866 1.14671 4210752
-0.236259 0.421191 1.14709 5658198
-0.235256 0.421676 1.1466 4802889
-0.337465 0.400571 1.1835 5460819
-0.33847 0.401443 1.18329 4868682
-0.336358 0.401305 1.18327 4868682
-0.339476 0.402314 1.18308 4342338
-0.337363 0.402176 1.18307 4210752
-0.335251 0.402038 1.18305 4408131
-0.338369 0.403047 1.18286 3947580
-0.337262 0.403781 1.18263 3750201
-0.0668354 0.402832 1.13497 3223857
-0.0676736 0.403769 1.13492 2500134
-0.0657974 0.403334 1.13447 3684408
-0.0685117 0.404706 1.13486 2171169
-0.0666356 0.404271 1.13441 3158064
-0.0647595 0.403836 1.13396 4210752
-0.0674738 0.405208 1.13436 2434341
-0.0664358 0.40571 1.13386 3092271
-0.236335 0.387243 1.1683 4671303
-0.237326 0.388101 1.1681 4605510
-0.235245 0.387965 1.16808 3487029
-0.238316 0.388959 1.1679 4408131
-0.236236 0.388823 1.16788 3881787
-0.234155 0.388688 1.16786 3223857
-0.237226 0.389681 1.16767 4013373
-0.236136 0.390404 1.16745 3421236
0.713858 0.103278 1.32085 3421236
0.712774 0.104207 1.32062 3421236
0.715046 0.104076 1.32063 3750201
0.711689 0.105137 1.32038 2697513
0.713961 0.105005 1.3204 3487029
0.716233 0.104874 1.32041 4210752
0.712877 0.105935 1.32016 2763306
0.714064 0.106733 1.31994 2434341
-0.107362 0.313528 1.05411 3026478
-0.108228 0.314278 1.05393 1513239
-0.106408 0.314159 1.05392 4210752
-0.109094 0.315029 1.05376 1315860
-0.107275 0.31491 1.05374 2894892
-0.105455 0.314791 1.05373 4342338
-0.108141 0.315661 1.05356 1447446
-0.107187 0.316292 1.05337 2697513
-0.140803 0.413365 1.12565 4276545
-0.141618 0.414275 1.1256 3487029
-0.139794 0.413853 1.12516 4079166
-0.142433 0.415186 1.12555 3289650
-0.140609 0.414763 1.12511 3815994
-0.138785 0.414341 1.12467 4737096
-0.141424 0.415674 1.12506 3815994
-0.140415 0.416162 1.12457 4802889
-0.231162 0.235857 1.46938 4802889
-0.232145 0.236999 1.46932 4079166
-0.229916 0.236427 1.46875 5131854
-0.233128 0.238141 1.46926 4276545
-0.230899 0.237569 1.46869 5263440
-0.22867 0.236997 1.46812 5592405
-0.231882 0.238711 1.46863 5197647
-0.230636 0.239281 1.468 5592405
0.835162 0.36708 1.1492 1447446
0.834093 0.368274 1.14913 1118481
0.836485 0.36772 1.14855 1381653
0.833024 0.369468 1.14906 394758
0.835416 0.368914 1.14849 986895
0.837809 0.36836 1.14791 1315860
0.834348 0.370108 1.14842 328965
0.835671 0.370748 1.14778 394758
-0.105826 0.319878 1.05145 2302755
-0.106691 0.320628 1.05127 1447446
-0.104873 0.320509 1.05126 4868682
-0.107556 0.321378 1.0511 1513239
-0.105739 0.321259 1.05108 1644825
-0.103921 0.321141 1.05106 5329233
-0.106604 0.322009 1.0509 1250067
-0.105651 0.32264 1.05071 1447446
-0.20133 0.429648 1.13058 3881787
-0.202137 0.430551 1.13053 4934475
-0.200329 0.430132 1.1301 4144959
-0.202945 0.431453 1.13048 5395026
-0.201137 0.431034 1.13004 4737096
-0.199329 0.430616 1.12961 4605510
-0.201945 0.431937 1.12999 5592405
-0.200944 0.432421 1.12951 5197647
-0.216105 0.401892 1.16556 4013373
-0.217097 0.402751 1.16536 4276545
-0.215013 0.402615 1.16534 4079166
-0.218089 0.40361 1.16516 5329233
-0.216005 0.403474 1.16514 5197647
-0.213921 0.403338 1.16512 4276545
-0.216997 0.404334 1.16494 5921370
-0.215905 0.405057 1.16472 5066061
-0.019554 0.391019 1.16711 3881787
-0.0205494 0.391881 1.16691 2631720
-0.0184584 0.391745 1.16689 4013373
-0.0215448 0.392744 1.1667 2960685
-0.0194538 0.392607 1.16668 3552822
-0.0173628 0.392471 1.16667 3750201
-0.0204492 0.39347 1.16648 2434341
-0.0193536 0.394196 1.16626 3552822
-0.413483 0.400747 1.13438 4079166
-0.41444 0.401576 1.13418 3815994
-0.412429 0.401445 1.13417 3947580
-0.415397 0.402406 1.13399 3815994
-0.413386 0.402274 1.13397 4013373
-0.411376 0.402143 1.13395 4671303
-0.414343 0.403104 1.13377 4144959
-0.41329 0.403802 1.13356 4539717
-0.0735992 0.394646 1.15436 4144959
-0.0745821 0.395498 1.15416 4408131
-0.0725173 0.395363 1.15414 3684408
-0.075565 0.39635 1.15396 4671303
-0.0735002 0.396215 1.15394 3223857
-0.0714355 0.39608 1.15392 2368548
-0.0744831 0.397067 1.15374 3026478
-0.0734013 0.397783 1.15352 2631720
0.225775 0.346765 1.03438 2565927
0.224958 0.347679 1.03433 2434341
0.226787 0.347255 1.03389 3355443
0.224141 0.348592 1.03428 2368548
0.22597 0.348168 1.03384 2894892
0.227799 0.347744 1.0334 3487029
0.225153 0.349081 1.03379 2763306
0.226165 0.349571 1.0333 3355443
-0.384236 0.603599 1.33937 5197647
-0.38521 0.604688 1.33931 4473924
-0.383029 0.604183 1.33878 5460819
-0.386185 0.605777 1.33925 3618615
-0.384003 0.605272 1.33872 4737096
-0.381822 0.604766 1.3382 5263440
-0.384978 0.606361 1.33866 4013373
-0.383771 0.606945 1.33808 4276545
-0.169609 0.429564 1.11193 5131854
-0.17041 0.430459 1.11188 5592405
-0.168617 0.430044 1.11145 4473924
-0.171211 0.431355 1.11183 5526612
-0.169418 0.430939 1.1114 5131854
-0.167625 0.430524 1.11097 3947580
-0.170219 0.431834 1.11135 5329233
-0.169227 0.432314 1.11087 4605510
0.628567 0.191853 1.28557 7171437
0.627493 0.192783 1.28535 7105644
0.629748 0.192635 1.28533 8750469
0.62642 0.193713 1.28513 7434609
0.628675 0.193565 1.28511 8882055
0.630929 0.193418 1.28509 9934743
0.627601 0.194496 1.28489 9211020
0.628783 0.195278 1.28465 8882055
0.572154 0.198977 1.28997 7500402
0.571076 0.199911 1.28975 3355443
0.57334 0.199763 1.28973 7237230
0.569998 0.200845 1.28953 1315860
0.572262 0.200698 1.28951 4737096
0.574527 0.20055 1.28949 7105644
0.571184 0.201632 1.28929 723723
0.572371 0.202418 1.28905 657930
0.173832 0.374805 1.05784 3552822
0.173001 0.375733 1.05779 3289650
0.17486 0.375303 1.05735 3289650
0.172171 0.376661 1.05774 3026478
0.17403 0.376231 1.05729 4210752
0.175888 0.3758 1.05685 3289650
0.173199 0.377158 1.05724 4539717
0.174228 0.377656 1.05674 4144959
0.603105 0.194516 1.27627 7960953
0.60204 0.195438 1.27605 8224125
0.604277 0.195292 1.27603 7697781
0.600976 0.19636 1.27583 7631988
0.603212 0.196214 1.27582 6842472
0.605448 0.196068 1.2758 5789784
0.602148 0.197137 1.2756 5263440
0.603319 0.197913 1.27536 6579300
-0.17462 0.399029 1.16266 5131854
-0.175558 0.399925 1.16257 4934475
-0.17356 0.399653 1.16224 5460819
-0.176495 0.400821 1.16249 4802889
-0.174498 0.400549 1.16215 4737096
-0.1725 0.400277 1.16182 4934475
-0.175435 0.401445 1.16207 4671303
-0.174375 0.402069 1.16165 4671303
-0.284746 0.447356 1.1127 5066061
-0.285524 0.448225 1.11265 4934475
-0.283784 0.447822 1.11224 6052956
-0.286301 0.449093 1.11261 4737096
-0.284561 0.44869 1.11219 5855577
-0.282821 0.448287 1.11177 5921370
-0.285338 0.449559 1.11214 5131854
-0.284376 0.450024 1.11167 5526612
0.211101 0.410431 1.09967 3684408
0.210218 0.411417 1.09961 4342338
0.212194 0.410959 1.09914 4079166
0.209335 0.412404 1.09956 4671303
0.211311 0.411946 1.09908 4737096
0.213287 0.411488 1.09861 4408131
0.210428 0.412932 1.09903 4802889
0.211521 0.413461 1.0985 5000268
-0.0769033 0.392153 1.14933 4210752
-0.0778453 0.393053 1.14924 4802889
-0.0758382 0.39278 1.14891 3355443
-0.0787873 0.393953 1.14916 4671303
-0.0767802 0.39368 1.14882 3289650
-0.0747731 0.393407 1.14849 2105376
-0.0777222 0.39458 1.14873 3421236
-0.0766571 0.395207 1.14831 2302755
-0.099464 0.401746 1.06216 2434341
-0.100236 0.402608 1.06211 2960685
-0.0985084 0.402208 1.0617 1315860
-0.101007 0.40347 1.06206 3552822
-0.0992801 0.40307 1.06165 2105376
-0.0975527 0.40267 1.06123 986895
-0.100052 0.403932 1.0616 2829099
-0.0990961 0.404395 1.06114 1973790
0.0415435 0.432757 1.11315 4210752
0.040687 0.433714 1.1131 4802889
0.0426042 0.43327 1.11264 4276545
0.0398306 0.434671 1.11304 5395026
0.0417477 0.434227 1.11258 5197647
0.0436648 0.433783 1.11212 4408131
0.0408912 0.435184 1.11253 5658198
0.0419519 0.435697 1.11202 5197647
-0.154024 0.403828 1.15518 5592405
-0.15496 0.404723 1.1551 6250335
-0.152965 0.404451 1.15476 5263440
-0.155896 0.405618 1.15501 5723991
-0.153901 0.405346 1.15468 5789784
-0.151907 0.405074 1.15434 4868682
-0.154837 0.406241 1.15459 5395026
-0.153779 0.406864 1.15417 4737096
-0.0243379 0.431673 1.10281 5197647
-0.0251691 0.432602 1.10276 4868682
-0.0233085 0.432171 1.10231 4605510
-0.0260004 0.433531 1.10271 4934475
-0.0241398 0.4331 1.10226 5066061
-0.0222792 0.432669 1.10181 4276545
-0.024971 0.434028 1.10221 5592405
-0.0239416 0.434526 1.10171 5789784
-0.129241 0.438481 1.10294 4276545
-0.130048 0.439383 1.10289 6316128
-0.128242 0.438964 1.10245 4276545
-0.130854 0.440284 1.10283 6645093
-0.129049 0.439866 1.1024 4539717
-0.127243 0.439447 1.10197 3881787
-0.129855 0.440767 1.10235 5592405
-0.128856 0.44125 1.10187 4144959
-0.255062 0.450955 1.10692 5592405
-0.255843 0.451828 1.10687 4539717
-0.254094 0.451423 1.10645 6052956
-0.256624 0.452701 1.10682 4605510
-0.254876 0.452296 1.1064 4605510
-0.253127 0.451891 1.10598 4737096
-0.255657 0.453169 1.10635 4079166
-0.254689 0.453637 1.10588 3881787
0.670849 0.0602824 1.52934 2631720
0.669576 0.0613852 1.52908 2368548
0.672249 0.0612106 1.52906 3092271
0.668303 0.062488 1.52882 3487029
0.670977 0.0623134 1.5288 3421236
0.67365 0.0621389 1.52877 3815994
0.669704 0.0634163 1.52854 4144959
0.671105 0.0643445 1.52825 4079166
0.0197176 0.433492 1.10226 5000268
0.0188752 0.434433 1.10221 4079166
0.020761 0.433997 1.10176 5263440
0.0180327 0.435375 1.10215 4408131
0.0199185 0.434938 1.1017 4408131
0.0218043 0.434501 1.10125 4934475
0.019076 0.435879 1.10165 4276545
0.0201193 0.436384 1.10114 4802889
0.596407 0.0634512 1.50712 2894892
0.595156 0.0645348 1.50686 2960685
0.597783 0.0643633 1.50684 2236962
0.593905 0.0656185 1.50661 3750201
0.596532 0.0654469 1.50659 3684408
0.59916 0.0652754 1.50656 3289650
0.595282 0.0665305 1.50633 4276545
0.596658 0.0674426 1.50605 4605510
-0.0984129 0.413839 1.0612 2302755
-0.0991874 0.414705 1.06115 3158064
-0.0974538 0.414303 1.06074 1315860
-0.0999619 0.41557 1.0611 3552822
-0.0982283 0.415169 1.06069 2039583
-0.0964947 0.414767 1.06027 1118481
-0.0990028 0.416034 1.06064 3026478
-0.0980437 0.416498 1.06017 1579032
-0.262444 0.392966 1.19111 3618615
-0.263449 0.393835 1.19092 3684408
-0.261344 0.393696 1.19087 4079166
-0.264454 0.394703 1.19072 3881787
-0.262349 0.394564 1.19067 4539717
-0.260244 0.394425 1.19062 5131854
-0.263354 0.395433 1.19048 4342338
-0.262254 0.396162 1.19024 5066061
0.37353 0.405553 1.08357 3815994
0.372621 0.40657 1.08351 4210752
0.374657 0.406098 1.08302 3815994
0.371711 0.407587 1.08345 4539717
0.373747 0.407115 1.08296 4079166
0.375784 0.406643 1.08248 3750201
0.372837 0.408132 1.08291 4539717
0.373964 0.408677 1.08236 3881787
0.0790453 0.428413 1.0921 3881787
0.0781973 0.42936 1.09205 4342338
0.0800955 0.428921 1.09159 4276545
0.0773492 0.430308 1.09199 5197647
0.0792475 0.429868 1.09154 4802889
0.0811458 0.429429 1.09108 4276545
0.0783994 0.430816 1.09148 5197647
0.0794496 0.431324 1.09097 5592405
0.551318 0.0690463 1.50507 2763306
0.550069 0.0701285 1.50481 2697513
0.552693 0.0699572 1.50479 3026478
0.54882 0.0712107 1.50455 3289650
0.551444 0.0710394 1.50453 3947580
0.554068 0.0708681 1.50451 4276545
0.550195 0.0721216 1.50428 4408131
0.55157 0.0730325 1.504 4473924
-0.0704707 0.37563 1.17562 3289650
-0.071464 0.376488 1.17543 3750201
-0.0693835 0.376351 1.17538 4079166
-0.0724574 0.377346 1.17524 4079166
-0.0703768 0.377209 1.17519 4473924
-0.0682963 0.377072 1.17514 4671303
-0.0713702 0.378068 1.175 5131854
-0.070283 0.378789 1.17476 5460819
-0.0668515 0.402598 1.1313 2697513
-0.0677823 0.403488 1.13121 2434341
-0.0657991 0.403218 1.13088 3684408
-0.0687131 0.404377 1.13113 2236962
-0.0667299 0.404107 1.1308 3289650
-0.0647467 0.403837 1.13047 4079166
-0.0676606 0.404997 1.13071 3158064
-0.0666082 0.405616 1.13029 4079166
-0.0979146 0.421354 1.0632 2368548
-0.0986928 0.422223 1.06315 3158064
-0.0969508 0.42182 1.06273 1447446
-0.0994711 0.423093 1.0631 3881787
-0.0977291 0.42269 1.06268 2368548
-0.095987 0.422286 1.06226 1118481
-0.0985073 0.423559 1.06263 3158064
-0.0975435 0.424025 1.06216 2500134
-0.0351216 0.365793 1.14594 4473924
-0.0360856 0.366626 1.14575 4605510
-0.0340665 0.366493 1.1457 3947580
-0.0370496 0.367459 1.14557 3684408
-0.0350305 0.367326 1.14552 3881787
-0.0330114 0.367193 1.14547 3487029
-0.0359945 0.368159 1.14534 3223857
-0.0349395 0.368859 1.1451 2960685
-0.235256 0.394783 1.17351 4408131
-0.236246 0.395638 1.17332 4079166
-0.234173 0.395501 1.17327 5000268
-0.237236 0.396493 1.17313 3026478
-0.235163 0.396357 1.17308 4144959
-0.23309 0.39622 1.17303 3881787
-0.236153 0.397212 1.17289 2960685
-0.23507 0.39793 1.17265 3552822
-0.10694 0.316035 1.05354 3421236
-0.1078 0.316779 1.05337 1579032
-0.105998 0.31666 1.05333 4210752
-0.108661 0.317522 1.05321 1315860
-0.106858 0.317403 1.05316 2565927
-0.105056 0.317285 1.05312 4210752
-0.107719 0.318147 1.053 1315860
-0.106777 0.318772 1.05279 2500134
-0.0690727 0.389251 1.16786 3815994
-0.0700622 0.390106 1.16767 4473924
-0.0679897 0.38997 1.16762 3223857
-0.0710518 0.390961 1.16748 4473924
-0.0689792 0.390825 1.16743 3750201
-0.0669067 0.390688 1.16738 2697513
-0.0699688 0.39168 1.16724 3552822
-0.0688858 0.392398 1.167 2763306
-0.174971 0.398536 1.17113 3947580
-0.175961 0.399392 1.17094 3684408
-0.173886 0.399255 1.17089 5921370
-0.176952 0.400248 1.17075 3487029
-0.174877 0.400111 1.1707 4605510
-0.172802 0.399975 1.17065 4868682
-0.175868 0.400968 1.17051 4144959
-0.174784 0.401687 1.17027 4276545
-0.0370414 0.389805 1.15959 4539717
-0.0380245 0.390655 1.1594 5066061
-0.0359654 0.390519 1.15935 3815994
-0.0390076 0.391504 1.15921 5066061
-0.0369485 0.391368 1.15916 4473924
-0.0348895 0.391232 1.15911 3487029
-0.0379316 0.392218 1.15897 4408131
-0.0368557 0.392932 1.15873 3487029
-0.203243 0.403533 1.16506 3947580
-0.204228 0.404384 1.16487 4079166
-0.202165 0.404248 1.16482 4539717
-0.205213 0.405235 1.16468 4671303
-0.20315 0.405099 1.16463 4671303
-0.201086 0.404963 1.16458 5197647
-0.204135 0.40595 1.16444 5460819
-0.203057 0.406666 1.1642 5395026
-0.103417 0.325437 1.04962 3881787
-0.104277 0.326179 1.04945 2302755
-0.102477 0.326061 1.04941 4342338
-0.105136 0.326922 1.04929 1644825
-0.103336 0.326803 1.04924 3289650
-0.101536 0.326684 1.0492 4342338
-0.104195 0.327546 1.04908 1776411
-0.103255 0.32817 1.04887 2960685
-0.200644 0.403944 1.16301 5197647
-0.201627 0.404794 1.16282 5460819
-0.199567 0.404658 1.16277 4737096
-0.202611 0.405644 1.16263 5395026
-0.200551 0.405508 1.16258 5066061
-0.198491 0.405372 1.16253 4342338
-0.201534 0.406358 1.16239 4868682
-0.200458 0.407072 1.16216 4671303
-0.104077 0.331681 1.05305 2960685
-0.104941 0.332428 1.05289 1842204
-0.103131 0.332309 1.05284 4276545
-0.105805 0.333175 1.05272 1644825
-0.103996 0.333056 1.05268 2829099
-0.102186 0.332936 1.05263 4802889
-0.10486 0.333802 1.05251 1579032
-0.103914 0.33443 1.0523 2171169
-0.103218 0.39221 1.06303 3881787
-0.104078 0.393032 1.06295 4473924
-0.102245 0.392783 1.06264 3289650
-0.104939 0.393855 1.06287 4737096
-0.103105 0.393605 1.06256 4079166
-0.101272 0.393355 1.06226 3092271
-0.103966 0.394428 1.06249 4408131
-0.102993 0.395 1.0621 3947580
0.210924 0.39479 1.07452 3026478
0.209994 0.395679 1.07443 3289650
0.211975 0.395409 1.0741 3289650
0.209064 0.396568 1.07435 3552822
0.211045 0.396298 1.07402 3815994
0.213027 0.396028 1.07369 3552822
0.210115 0.397187 1.07393 4144959
0.211167 0.397806 1.07351 4605510
0.256744 0.38762 1.06279 3092271
0.255818 0.388505 1.06271 3881787
0.257791 0.388237 1.06238 1973790
0.254892 0.389391 1.06262 3750201
0.256865 0.389122 1.06229 2565927
0.258839 0.388853 1.06196 1381653
0.255939 0.390007 1.06221 3092271
0.256986 0.390623 1.06179 1973790
-0.512536 0.268452 1.77885 4342338
-0.513736 0.269793 1.77878 3881787
-0.511049 0.269171 1.77813 4802889
-0.514937 0.271135 1.7787 3750201
-0.51225 0.270512 1.77806 4210752
-0.509563 0.26989 1.77741 4868682
-0.51345 0.271853 1.77798 3750201
-0.511963 0.272572 1.77726 4210752
1.03595 0.0529869 1.73154 2368548
1.03447 0.0542688 1.73125 2434341
1.03758 0.0540639 1.73118 2368548
1.03299 0.0555508 1.73097 2631720
1.03609 0.0553459 1.73089 2434341
1.0392 0.055141 1.73082 0
1.03461 0.0566279 1.73061 2105376
1.03624 0.057705 1.73025 2039583
-0.257125 0.39256 1.20666 5000268
-0.258001 0.393496 1.2066 4342338
-0.256068 0.393102 1.20617 5460819
-0.258877 0.394433 1.20654 4276545
-0.256944 0.394039 1.20611 5263440
-0.255011 0.393645 1.20568 5460819
-0.257821 0.394976 1.20605 4473924
-0.256764 0.395518 1.20557 5066061
-0.0810616 0.43269 1.09806 3421236
-0.0819686 0.433557 1.09798 2960685
-0.080036 0.433294 1.09766 3684408
-0.0828756 0.434424 1.0979 2763306
-0.080943 0.434161 1.09757 3355443
-0.0790104 0.433897 1.09725 4276545
-0.0818501 0.435028 1.09749 3223857
-0.0808245 0.435631 1.09708 3815994
0.0187977 0.431198 1.09866 4934475
0.0178719 0.432083 1.09857 3815994
0.0198445 0.431815 1.09824 5460819
0.0169462 0.432968 1.09849 4276545
0.0189188 0.432699 1.09816 4079166
0.0208914 0.432431 1.09783 5197647
0.017993 0.433584 1.09807 4210752
0.0190398 0.434201 1.09766 4737096
-0.322125 0.308231 1.36328 4605510
-0.323188 0.309247 1.36318 5329233
-0.320924 0.308938 1.3628 4408131
-0.324251 0.310262 1.36309 5855577
-0.321987 0.309954 1.36271 4802889
-0.319722 0.309645 1.36233 4276545
-0.323049 0.31097 1.36261 4802889
-0.321848 0.311677 1.36213 4539717
-0.315836 0.179986 1.51371 4802889
-0.316851 0.181121 1.51365 4737096
-0.314578 0.180594 1.5131 4868682
-0.317867 0.182255 1.51358 4473924
-0.315593 0.181729 1.51304 4408131
-0.31332 0.181202 1.51249 4342338
-0.316609 0.182863 1.51297 3947580
-0.315351 0.183472 1.51236 3750201
0.290854 0.397693 1.11138 2039583
0.289875 0.398628 1.11129 1710618
0.29196 0.398344 1.11095 2763306
0.288897 0.399564 1.1112 1513239
0.290982 0.39928 1.11086 2171169
0.293067 0.398996 1.11051 2960685
0.290003 0.400215 1.11077 1644825
0.29111 0.400866 1.11033 2105376
-0.085917 0.423925 1.13352 3289650
-0.0868522 0.424819 1.13344 3552822
-0.0848596 0.424548 1.1331 2368548
-0.0877874 0.425713 1.13335 3487029
-0.0857948 0.425442 1.13302 2829099
-0.0838022 0.42517 1.13268 1644825
-0.08673 0.426336 1.13293 2960685
-0.0856725 0.426958 1.13251 2368548
-0.251329 0.395165 1.19796 5131854
-0.2522 0.396097 1.1979 5329233
-0.250278 0.395705 1.19748 4539717
-0.253071 0.397028 1.19784 5526612
-0.251149 0.396636 1.19742 4934475
-0.249227 0.396245 1.19699 4276545
-0.25202 0.397567 1.19736 5263440
-0.250969 0.398107 1.19688 4605510
0.559601 0.18456 1.30425 7303023
0.55851 0.185503 1.30404 2894892
0.560796 0.185352 1.30398 7105644
0.557418 0.186446 1.30383 1513239
0.559704 0.186296 1.30378 5000268
0.561991 0.186145 1.30372 7105644
0.558613 0.187239 1.30357 1579032
0.559808 0.188032 1.3033 1710618
-0.0752167 0.417492 1.12007 1842204
-0.0761401 0.418375 1.11998 1842204
-0.0741725 0.418107 1.11965 2565927
-0.0770635 0.419257 1.1199 1513239
-0.075096 0.418989 1.11957 2171169
-0.0731284 0.418721 1.11924 3750201
-0.0760194 0.419872 1.11948 2039583
-0.0749753 0.420487 1.11907 3092271
0.560583 0.186034 1.30321 6974058
0.559491 0.186977 1.30301 2829099
0.561777 0.186826 1.30295 7303023
0.5584 0.18792 1.3028 1579032
0.560686 0.187769 1.30274 3618615
0.562971 0.187619 1.30269 7434609
0.559594 0.188712 1.30253 1250067
0.560789 0.189504 1.30227 1381653
-0.130841 0.389502 1.16658 5000268
-0.131713 0.390435 1.16652 5263440
-0.129788 0.390042 1.16609 4539717
-0.132585 0.391367 1.16646 5197647
-0.130661 0.390975 1.16603 5000268
-0.128736 0.390583 1.16561 3881787
-0.131533 0.391907 1.16598 5263440
-0.130481 0.392448 1.16549 4737096
0.611578 0.167864 1.26026 10329501
0.61053 0.168769 1.26006 9474192
0.612725 0.168624 1.26 9803157
0.609483 0.169674 1.25986 8816262
0.611677 0.16953 1.2598 9145227
0.613871 0.169385 1.25975 10526880
0.610629 0.170435 1.2596 9013641
0.611776 0.171196 1.25935 10658466
-0.177213 0.396178 1.16794 4144959
-0.178077 0.397102 1.16788 3881787
-0.17617 0.396713 1.16746 5197647
-0.178941 0.398026 1.16782 4013373
-0.177035 0.397637 1.1674 4802889
-0.175128 0.397249 1.16698 5658198
-0.177899 0.398561 1.16734 4408131
-0.176856 0.399097 1.16686 4737096
-0.0718301 0.386786 1.16416 3552822
-0.0727137 0.387731 1.1641 4276545
-0.0707641 0.387333 1.16367 2960685
-0.0735973 0.388675 1.16404 4737096
-0.0716477 0.388278 1.16361 3421236
-0.0696982 0.387881 1.16318 2631720
-0.0725314 0.389223 1.16355 4408131
-0.0714654 0.38977 1.16306 3487029
0.794 0.262087 1.05301 4934475
0.793037 0.263117 1.05295 4342338
0.795163 0.262684 1.05248 4934475
0.792073 0.264147 1.05288 3487029
0.794199 0.263714 1.05241 4079166
