# .PCD v0.7 - Point Cloud Data file format
VERSION 0.7
FIELDS x y z rgb
SIZE 4 4 4 4
TYPE F F F U
COUNT 1 1 1 1
WIDTH 1071
HEIGHT 1
VIEWPOINT 0 0 0 1 0 0 0
POINTS 1071
DATA ascii
-0.46022874 -0.27541804 1.5524729 4283907637
0.093015805 -0.14231372 0.87860608 4290355082
0.22102486 -0.23677367 1.4818976 4282792242
0.13090779 -0.13913979 0.87114775 4287919454
-0.64727265 -0.26145384 1.4906064 4281472274
0.084519602 -0.13975324 0.91032612 4286604628
-0.0083793327 -0.36730549 2.4372835 4290156410
-0.080334142 -0.39836681 2.6411004 4290551169
-0.30255133 -0.34726343 2.2714491 4287921767
-0.69604975 -0.21803081 1.3430828 4282065187
-0.54197603 -0.21771829 1.4059306 4282786590
-0.49049187 -0.22002973 1.4420196 4280814346
0.040517464 -0.31328508 2.2896781 4291996818
-0.0010447726 -0.30941817 2.2759173 4289038456
-0.53459334 -0.19531389 1.3583548 4282591527
0.61155409 -0.21042463 1.8076034 4280293136
0.4881354 -0.17707223 1.5218819 4278715137
-0.34527165 -0.27400246 2.0922852 4281017632
-0.14714023 -0.292806 2.2928529 4289695606
0.24159449 -0.18534373 1.5338948 4279242767
0.2835758 -0.17880392 1.5278429 4278453253
-0.61056232 -0.18188119 1.3296723 4280748807
0.13739124 -0.10731054 0.91659129 4287652940
0.040735111 -0.28122771 2.3442833 4290220661
-0.039270759 -0.2755926 2.2903936 4289697148
0.28986096 -0.19821948 1.7292764 4281350972
-0.082797244 -0.27475256 2.2859693 4290025602
-0.56584114 -0.17412926 1.3272853 4281999646
-0.31968865 -0.27507415 2.2829614 4283979603
0.35180432 -0.20108284 1.8599613 4278321153
-0.070208073 0.18991455 1.4789419 4284442208
0.56845576 -0.23389557 2.2364841 4278190592
-0.14800014 -0.24999467 2.2563334 4289632130
-0.60996938 -0.15382995 1.3031576 4282524705
-0.62603933 -0.15106896 1.3004888 4282327069
-0.19617811 -0.10261835 0.95003891 4284364849
0.070801236 -0.10317128 1.0427741 4284771431
-0.075499237 -0.095331952 0.99446714 4284506463
0.4090879 -0.16224833 1.8813269 4278387714
0.43505958 -0.17107399 1.9850967 4278190336
0.50669414 -0.16076706 1.9114524 4280689953
0.59860861 -0.16039364 1.9678227 4280492575
-0.28696334 -0.090497024 0.99632084 4284364846
-0.071547717 -0.075461902 0.90556788 4289437556
0.30936643 -0.14280808 1.9266486 4278847749
-0.30222571 -0.081526317 0.98103118 4284036657
0.14976045 -0.063531138 0.9484517 4283389525
-0.68255913 -0.10737748 1.2761303 4288570451
-0.57153273 -0.1046703 1.3255059 4283049760
-0.05499839 -0.064081796 0.94433969 4286152832
0.34632939 -0.11045963 1.8742534 4278190080
0.11562407 -0.056620058 0.94506526 4281936668
0.36017638 -0.11056664 1.90342 4279900698
0.66936594 -0.099114321 1.9000636 4280689179
0.40338433 -0.099863797 1.8153794 4278716676
-0.59570807 -0.09851703 1.3625218 4281404421
-0.52490741 -0.093520939 1.3630433 4281341975
-0.67538071 -0.082399733 1.2681794 4285808690
-0.095694825 -0.042865481 0.84536034 4285758042
-0.57616729 -0.080080807 1.376996 4281932567
0.63484931 -0.073702559 1.9482819 4278979851
-0.083353147 -0.039142229 0.83990204 4287136623
-0.19667679 -0.040263213 0.84101355 4286749049
-0.69155544 -0.059656944 1.2710114 4285282344
0.43573141 -0.039975841 1.7264279 4281149990
0.44825226 -0.025557317 1.7074941 4278452992
-0.68047589 -0.036347527 1.2878186 4287190081
-0.69153047 -0.035663661 1.3575209 4285084967
-0.16697523 -0.013523342 0.78772569 4287599742
-0.70262051 -0.030657597 1.2600302 4286335806
0.51030189 -0.0067860484 1.7023808 4280556565
0.1919606 -0.00070324377 0.84273541 4283911751
-0.65403742 -0.019154148 1.3230989 4285744183
-0.06891571 3.208057e-05 0.83495724 4286936169
-0.65376538 -0.01206779 1.3459407 4285086249
-0.71711618 -0.0076908488 1.2901294 4286467646
0.83802068 0.038410973 1.6981525 4280687885
0.4578644 0.035098162 1.7194266 4281738781
0.19439335 0.018446993 0.80782056 4283054899
0.45821801 0.045557555 1.6855881 4281740582
-0.64659673 0.014592578 1.2477748 4285217836
0.66166186 0.062282126 1.4369264 4284567106
0.45818928 0.069038913 1.6983695 4279438600
0.50055861 0.073828056 1.7052968 4279306498
0.62248158 0.077720091 1.4817872 4282199584
0.57856023 0.087379389 1.439993 4281080336
-0.73391253 0.069922455 1.2463562 4286335031
-0.026541837 0.051727999 0.74235451 4287006333
-0.047103092 0.051890545 0.74217504 4286479737
-0.057018653 0.052205209 0.74135435 4286149740
0.78506929 0.1286463 1.5773619 4280688661
-0.18368506 0.053904597 0.73525387 4286213216
-0.67643833 0.098319598 1.3766327 4283774246
-0.16726494 0.057230238 0.73862708 4280620304
0.59669131 0.13601357 1.571249 4281937698
-0.75467288 0.095007777 1.3012946 4285153074
0.48505586 0.14098844 1.5733997 4282857517
0.011171315 0.065921552 0.75255609 4280755229
0.43271104 0.14260398 1.5631353 4282989876
0.38928136 0.14400008 1.5618522 4283778875
0.48762807 0.14584577 1.550936 4284113750
-0.066408321 0.067602448 0.74861562 4280492058
-0.029701099 0.14120474 1.5721298 4285888365
0.5339995 0.15020894 1.5536828 4283455566
-0.092519835 0.068077952 0.74637634 4280360216
-0.083788142 0.068360612 0.74788582 4280754461
0.057804495 0.14450765 1.5668589 4284901730
0.24681345 0.14998507 1.5548767 4283977027
-0.14613746 0.068929635 0.74111766 4280492315
0.072385132 0.14640558 1.5353901 4286871149
0.68412179 0.14893918 1.4534475 4279379490
0.11190852 0.10112844 1.0332412 4284042824
-0.70664316 0.12016238 1.3697912 4282655770
0.005712457 0.1506512 1.5442688 4286153077
-0.21236026 0.070650116 0.74132717 4280754976
0.28174472 0.15880828 1.5357859 4284375388
0.57240224 0.15830439 1.4830503 4282796606
-0.68003321 0.14166103 1.5082793 4280947726
0.11252736 0.15767734 1.540696 4284438349
-0.61700904 0.14936125 1.5519497 4280031507
0.14977093 0.09215486 0.86353052 4281349939
0.26906851 0.16607818 1.5328165 4284376668
-0.615623 0.1523155 1.5241158 4280689952
0.11244901 0.11260869 1.0346016 4282137397
-0.35771641 0.15641467 1.4719306 4282992706
-0.22474346 0.1654603 1.525999 4284442204
-0.71899825 0.15477921 1.4675374 4280817424
-0.25459376 0.09060923 0.82599676 4281412904
-0.24601647 0.094247997 0.85178614 4283979341
-0.65615588 0.16463177 1.5065895 4279637517
-0.15404904 0.17352541 1.5082386 4284375639
0.33989441 0.18197323 1.4981517 4282469446
-0.29603344 0.17564076 1.5063158 4283716169
-0.75453967 0.16577917 1.4709426 4280751633
0.56785321 0.18652984 1.4630928 4280359445
0.13445444 0.11614731 0.92330223 4285034603
-0.68201911 0.1741403 1.4943227 4280295189
-0.26564574 0.1811098 1.5016215 4285559656
-0.69159126 0.17714508 1.4923302 4280293910
0.046008609 0.1911978 1.4845905 4284113245
-0.35242766 0.19243123 1.4783028 4284967006
0.25028232 0.20514192 1.4551485 4281812545
0.14426675 0.13606139 0.94945323 4280363558
-0.84952664 0.18758363 1.4042251 4280488462
-0.82632434 0.18406832 1.3767878 4280488719
-0.35215619 0.20260544 1.4565963 4285429352
0.052284136 0.20995983 1.4406593 4281417275
-0.62920099 0.20426449 1.4479173 4284439628
0.011859443 0.21239255 1.4178048 4282273870
0.498063 0.21870725 1.4116325 4282864202
0.29297656 0.21824741 1.4192369 4282405454
0.11319157 0.16067085 1.0425763 4281415477
-0.65840393 0.20492247 1.3965656 4284899410
-0.17630771 0.21743828 1.425474 4283981400
0.29530242 0.22025557 1.385476 4281682244
-0.63895005 0.21119303 1.3945618 4284241483
-0.14858538 0.22172457 1.4169805 4282469962
-0.8525967 0.21583727 1.4205239 4279898641
-0.87132102 0.21872351 1.4196322 4279439370
0.19201475 0.23222513 1.3989512 4281352510
0.17606324 0.23460147 1.3898473 4281680705
-0.75358826 0.22366929 1.3635559 4284241477
-0.54312348 0.23181748 1.3978921 4285953127
0.027433872 0.2407652 1.3883656 4282667600
-0.82075447 0.23516448 1.3333591 4284899658
-0.46313149 0.24821042 1.3849838 4285822571
0.50778139 0.24706465 1.2963123 4289470007
-0.26275584 0.19397727 1.0374906 4280955176
-0.62453443 0.25534394 1.3490214 4280823332
-0.4197264 0.25839475 1.3545589 4285428070
-0.60359502 0.2535626 1.3281019 4284637270
-0.26146662 0.26131961 1.3512992 4285362533
-0.14184083 0.26683551 1.3430685 4283456600
0.11398491 0.2129699 1.0531073 4281153843
0.2174578 0.27083442 1.3414167 4283129948
0.15202434 0.27854344 1.3344201 4282470989
0.11595624 0.27982503 1.3280542 4281747528
0.54919749 0.27739823 1.2938111 4282786334
-0.28372669 0.27634272 1.3137035 4283848780
0.038693547 0.28135285 1.3154131 4282864981
-0.38437292 0.28694847 1.2944394 4284244053
-0.63613927 0.28892413 1.3076478 4281218352
0.28452218 0.29855925 1.2901163 4281285947
-0.32675022 0.29418015 1.2861115 4283585866
-0.17931102 0.29627725 1.2864836 4284836962
0.29808846 0.30106971 1.2844157 4282273612
0.23762986 0.30165133 1.2847595 4282602833
0.092895202 0.30274394 1.2817292 4282668626
-0.43542579 0.29950315 1.2792126 4286151792
0.59948403 0.28552377 1.1782469 4293314738
-0.51371729 0.30184484 1.2750642 4286216813
-0.54629546 0.30617598 1.262041 4285689956
0.076591298 0.31091863 1.2657286 4281748038
-0.1699249 0.3100397 1.2645316 4283850327
0.24250095 0.3132166 1.2634354 4281681475
-0.34402853 0.31067625 1.2560904 4283256900
-0.079039127 0.3163045 1.2501333 4281351740
-0.22691387 0.31669793 1.2513262 4284442205
-0.31257069 0.31602386 1.2431375 4283848781
0.080518693 0.32065681 1.242201 4281024314
-0.53127235 0.31810302 1.2339689 4284177997
-0.81432772 0.20802538 1.4302658 4279242757
0.10334761 0.31978026 1.2242219 4281878856
0.44059891 0.323641 1.2291163 4289961621
-0.42520633 0.32290658 1.2289916 4284441944
-0.53027099 0.31924626 1.2098811 4284572757
-0.54026163 0.31785345 1.1808776 4285558884
-0.072129816 0.33167037 1.2249211 4280563250
-0.059242934 0.33121413 1.2229984 4281614911
0.2325162 0.33403093 1.2287329 4280628014
-0.51156014 -0.35877341 1.4544129 4283774772
-0.4644897 -0.38908961 1.5936029 4285486925
0.48902419 0.31556487 1.22735 4291014052
-0.46018797 -0.39120352 1.7269135 4289301879
-0.4972133 -0.33983755 1.4866756 4279305480
0.14776255 -0.31347963 1.5254003 4284240726
-0.42468572 -0.44947523 2.0913112 4288776827
-0.51586038 -0.45887655 2.1357746 4282265388
-0.76929045 0.22494605 1.3537842 4284702027
-0.38663906 -0.41448817 2.0869412 4282265390
0.45682383 0.30973059 1.2547832 4290095780
-0.23452389 0.25357223 1.03947 4282664510
-0.25170982 0.10408337 1.0153128 4282071344
-0.34177482 -0.39160261 2.0641298 4287264624
-0.43303466 -0.34354272 1.790755 4280884249
0.27364755 -0.2602042 1.4724572 4283386691
-0.43598324 -0.31247813 1.6263438 4285681992
0.15422624 -0.15787736 0.90543616 4282267440
-0.40400618 -0.37986547 2.0634198 4286212709
0.24541819 -0.2507858 1.4865904 4282730051
0.64690781 -0.24151418 1.5466974 4280157440
-0.4362734 -0.33703834 2.0578432 4283120952
-0.23872367 0.097558156 1.0164434 4281939247
-0.66513956 -0.22565147 1.3529449 4282394661
-0.44806439 -0.24383427 1.5390216 4286337864
-0.32296866 -0.34206378 2.3008926 4283519049
-0.65386063 0.29702702 1.2708111 4280097044
-0.46663785 -0.22496566 1.5404204 4284364843
-0.37124392 -0.27713534 2.0380514 4280422672
-0.41634229 -0.20654739 1.5830265 4285944907
0.51345128 0.29406434 1.2629237 4284834645
0.79675007 -0.2426402 2.2619877 4278452996
0.2978453 -0.18735431 1.7354435 4278519813
0.56334853 -0.17204827 1.7745528 4283908411
-0.1320686 -0.10286313 0.95052493 4280421126
-0.15709043 -0.10315762 0.95292914 4282528557
0.10770571 -0.087748446 0.92054915 4280551427
-0.2016356 0.070311829 0.74180603 4280689433
-0.76832962 -0.14122322 1.3438761 4280946187
0.32894599 -0.15462896 1.8763468 4279900697
-0.69131178 -0.13289657 1.3207624 4281272579
-0.12788114 0.06903144 0.74495935 4280229400
-0.61408651 -0.11312784 1.357159 4281340426
0.6753059 -0.11561511 1.9048609 4278255616
-0.14829478 -0.062564313 0.88233298 4292458653
0.58176023 0.28156227 1.2818471 4282124816
0.46011195 0.28385741 1.297344 4282732618
-0.074395359 -0.052909929 0.86489218 4286151011
0.31652832 -0.099234194 1.8541646 4278321921
-0.58091003 -0.082935393 1.368903 4283969317
0.39350134 -0.084686384 1.9276731 4278650885
-0.18135206 -0.044541709 0.84628874 4287014010
0.42132485 -0.071174428 1.7730771 4279045642
-0.14916529 -0.041561965 0.84131265 4287794532
0.28150171 0.28317767 1.3189555 4282339661
-0.18518849 -0.015808241 0.79205698 4287605138
-0.16284704 -0.01402167 0.78808838 4287730555
0.53344023 0.27451646 1.3120848 4282647558
-0.10554844 -0.0048807468 0.76670945 4294169522
-0.63482314 -0.013676701 1.358597 4284561192
-0.087401286 0.0034421866 0.74482 4291145867
0.19142544 0.034644615 0.77092332 4286084977
0.64496553 0.077057958 1.4557977 4282262294
-0.080239147 0.036485463 0.76923132 4289626737
0.028076366 0.051743113 0.74400455 4286739560
-0.63735634 0.085132964 1.4028672 4283971885
-0.022177227 0.051851775 0.74299937 4286742647
-0.028399542 0.054527644 0.74341261 4282133797
-0.10060486 0.055789288 0.74060225 4281739559
-0.21284533 0.057856966 0.73558646 4281145875
-0.2584151 0.058142379 0.73515308 4281082907
0.13735178 0.075376987 0.83178371 4281872942
0.40528727 0.14492595 1.5694048 4283055152
0.57974529 0.1489034 1.4946336 4281215008
-0.2291694 0.33300683 1.218971 4284835675
-0.3872093 0.31811243 1.241984 4285231974
0.28163493 -0.3690877 1.6036261 4280821540
0.26061416 -0.33120751 1.5705687 4283585619
0.10755724 -0.40534911 1.89352 4287197022
-0.23695466 0.15817054 1.0246985 4283387717
-0.47187358 -0.34596166 1.5983489 4282132522
-0.26718572 0.30968612 1.2616649 4279770648
-0.38388008 -0.44099844 2.1508307 4288052847
-0.43406057 -0.42344791 2.1083283 4279767056
0.5354746 -0.24989328 1.4791044 4279110150
-0.44524729 -0.39001676 2.0862069 4281806121
-0.80894941 0.20877406 1.4421016 4280755997
-0.48162967 -0.3856464 2.1164489 4280621596
-0.36646086 -0.37863034 2.099411 4282199080
0.08378198 -0.15067716 0.89157224 4283713080
-0.30786628 0.21212071 1.4292673 4284243795
0.55195904 -0.2335768 1.4866478 4283847240
-0.51625496 -0.25299174 1.4384687 4282722344
-0.66731352 0.2027522 1.3969467 4284110148
-0.2711314 0.29380029 1.2380638 4280690978
-0.46765149 -0.25565952 1.5590527 4284167470
0.0045128539 -0.34206471 2.2831342 4290024568
-0.10453431 -0.36954263 2.4547307 4290616962
-0.16918065 -0.36341688 2.4108894 4290287999
-0.15028696 -0.36396253 2.4188569 4290354303
-0.5904091 -0.2136299 1.3583744 4282787621
-0.2342332 -0.32697853 2.2510881 4291011980
-0.30951977 -0.3250688 2.2797761 4287202941
0.13782856 -0.12108433 0.90922314 4288440401
-0.79061526 0.20275491 1.4519774 4279965968
-0.24023017 0.30050236 1.2778096 4284639066
-0.2161406 0.29867712 1.2733202 4284572760
-0.047826573 -0.27622411 2.293426 4289894526
-0.5524841 -0.17744631 1.3504144 4281473046
0.78921556 -0.23129335 2.1637962 4278848266
0.55223966 -0.23987313 2.2562807 4279245080
-0.56440836 -0.16558394 1.3416157 4282393892
0.34504652 -0.18740594 1.8436776 4280891191
0.49711984 0.29098657 1.2739179 4284439376
-0.26491731 0.28830171 1.3008096 4285625962
-0.1771515 -0.091526262 0.92876941 4294166950
-0.15124455 -0.087754682 0.92628735 4293574560
0.6137864 -0.15199645 1.9101391 4280293914
-0.69197667 -0.1327748 1.3073759 4281733131
-0.64802212 -0.1244909 1.3194952 4281864972
-0.63005871 -0.11808401 1.3347099 4281208327
0.44686934 -0.127368 1.9215583 4278190336
0.46982598 0.28659165 1.2967618 4282796870
-0.28406575 0.19525819 1.4677027 4283915344
-0.11141983 -0.062823556 0.88179809 4293905588
-0.085093707 -0.059937868 0.87906349 4290365627
0.66595405 -0.10748906 1.9226102 4279637266
-0.24831796 0.11713541 0.89952773 4284571992
-0.12969457 0.19256824 1.4723053 4283915863
-0.13271952 -0.043196633 0.84502476 4287804548
0.18875748 -0.036531921 0.9118728 4283124808
-0.0527457 -0.037218746 0.90562546 4286480511
-0.095621586 -0.026226174 0.81675589 4289512340
-0.7065438 -0.049118351 1.2621024 4287387206
-0.1217481 -0.014830187 0.78972226 4287858049
-0.19589335 -0.013025706 0.78736502 4289510539
-0.065331817 -0.0061688321 0.75864905 4291279770
0.19297059 0.0054634307 0.83054572 4283253561
-0.43063828 0.27018857 1.3381521 4286020206
0.5092864 0.27103841 1.323948 4282780179
0.48806769 0.075090416 1.7132239 4279240962
0.17618056 0.044230882 0.75569189 4286215795
0.63479656 0.093397364 1.4363208 4283184425
-0.66018915 0.068044275 1.3902574 4283509276
0.17127301 0.061470691 0.76654851 4281083678
-0.2501069 0.058231756 0.73448491 4280819734
0.50827664 0.14026353 1.5734085 4282594601
-0.67638963 0.17146635 1.4996312 4279834641
0.57170027 0.13685361 1.4674237 4281544230
-0.18957418 0.070100792 0.74338692 4280952348
0.13767901 0.19808094 1.0801713 4280363300
0.12527147 0.1065926 1.0328406 4282530358
0.11359114 0.18921801 1.0491096 4282140997
-0.58827215 0.24016052 1.3942792 4285624165
-0.27119076 0.070345879 0.74561685 4282465582
-0.30756623 -0.058386065 0.94952005 4284960840
-0.43665814 -0.33894151 1.7911516 4281344285
0.14202896 -0.26621473 1.5489032 4285556839
0.14491484 -0.26006103 1.5345165 4281872683
0.15257396 -0.15864336 0.90609753 4281872424
0.13721152 -0.11674004 0.90853769 4286533177
-0.50764495 -0.089054018 1.4698876 4283576872
-0.30837673 0.32239723 1.2465421 4284440405
-0.54640406 -0.016767807 1.4524099 4283377689
0.55052209 0.18554503 1.4313346 4280229139
-0.281865 0.053034261 0.74750388 4283912515
-0.38886324 0.23532474 1.4459976 4283914061
-0.36592406 0.23304752 1.3993992 4284638294
-0.36195043 0.25478211 1.383411 4285294430
-0.31007335 0.32595488 1.2428608 4285362276
-0.070985489 -0.067691006 0.89514083 4288715904
-0.1548389 0.069904298 0.74441195 4280820254
-0.2533558 0.058640197 0.73685658 4281277714
-0.18084186 0.054169714 0.7367329 4286806126
-0.19867001 0.057662547 0.73764628 4280227339
-0.49410179 -0.37401393 2.1282978 4281937454
0.60974896 -0.21404195 1.4704932 4278845696
0.52591884 -0.11333825 1.4268883 4280626735
0.56030941 0.10419562 1.3519576 4283513907
0.030121757 0.055180542 0.75253236 4281477660
0.12853083 0.26803264 1.2182108 4279377946
0.1876464 -0.051284797 0.93939972 4279242507
-0.6001761 0.25454774 1.2797529 4281348907
-0.073074758 -0.091398306 0.93471569 4287860596
-0.13175657 0.06960398 0.74616337 4280952092
-0.34291711 -0.38878211 2.2051988 4290222203
-0.59460038 -0.23546338 1.3068012 4282129180
0.14617123 -0.14301528 0.88106668 4289962387
-0.56293595 -0.2204106 1.2924242 4281998099
-0.55794513 -0.19398344 1.3296552 4283577137
0.57445043 -0.16575886 1.5282487 4279176975
0.1215799 -0.16790713 2.0267389 4279898122
-0.084065579 -0.023800168 0.79765761 4286409825
0.53288877 0.20010692 1.3295542 4284960587
-0.27370992 0.26759332 1.2824098 4285493093
-0.57032448 0.32697719 1.3096946 4285229404
0.13731755 -0.081681132 0.93542117 4285678635
-0.63150454 0.29295897 1.2822647 4280756512
0.12620884 0.20011801 1.048782 4281020973
-0.24569103 0.055241495 0.73376244 4288452750
0.017030342 0.065466084 0.74703729 4280623390
-0.17736778 -0.017331589 0.79584861 4288787836
0.13853973 -0.12373531 0.90313625 4288833358
-0.58410794 -0.1604889 1.3209234 4282986797
-0.50090569 -0.10765655 1.4754831 4283511592
-0.074197911 -0.051713724 0.86542296 4285424210
-0.1009914 -0.023906067 0.81298149 4288985983
0.19482361 0.010698184 0.83107275 4282267174
-0.28207785 -0.088052019 0.98674214 4284168491
-0.61426032 0.25076988 1.340233 4280821281
0.12736474 0.20499337 1.0519204 4281679417
0.1401177 -0.25400734 2.2894764 4288705111
-0.42453849 -0.18180571 2.0121162 4282662716
0.53621805 0.28731355 1.3435001 4282713869
0.12653299 -0.25984603 2.329124 4289165146
-0.2347686 -0.093134657 0.93624097 4292822353
0.51207495 0.30894968 1.3147088 4283650631
-0.19015792 -0.012598708 0.78698486 4286613874
0.19446853 0.014653422 0.81966674 4282332199
-0.25918749 0.05849576 0.73685473 4281146897
-0.48825496 -0.10714323 1.4720778 4285548348
-0.53614146 -0.25667375 1.3233817 4283051046
0.17284004 -0.090369783 1.0060874 4278387714
-0.36520892 -0.20569596 2.0806282 4280163350
-0.0012872163 -0.30825728 2.291034 4290025597
-0.32223731 -0.21596263 2.242265 4281677874
-0.2372214 -0.091394238 0.93094748 4292429131
-0.13147838 -0.020765953 0.80472291 4285886549
-0.63480669 0.037235685 1.2719281 4286073659
0.53793538 0.20390511 1.3231778 4284501831
-0.2359775 0.2243554 1.0381608 4282729273
0.1401861 -0.12976699 0.8992852 4289162063
0.0019666161 -0.31927633 2.2852521 4290484863
-0.15498626 -0.031867765 0.82521266 4290297471
-0.14037575 -0.015857853 0.79482865 4288524419
0.13584703 0.10747312 0.90290624 4281943617
-0.41005561 -0.3628099 2.0676699 4287067502
-0.24704723 0.11151972 0.88477975 4284966237
-0.27327961 0.31922457 1.2802291 4280427292
-0.45105192 -0.23657249 1.5432043 4288046939
-0.34847701 -0.28973609 2.1856818 4286017641
-0.36006129 -0.39275283 2.1151285 4282724911
-0.47206438 -0.39705843 2.1235998 4279700494
-0.43063208 -0.29997092 1.6006414 4287655010
-0.45434847 -0.29933146 1.5973257 4283907638
-0.43135548 -0.2772187 1.6022208 4287259222
-0.56424683 -0.24583662 1.4003352 4283051043
-0.43429282 -0.25685674 1.6225854 4285745724
-0.43709746 -0.24806477 1.5614209 4287258450
-0.41592148 -0.27836317 1.802793 4282528050
-0.4677527 -0.27981678 1.5970402 4286141257
-0.16703625 -0.039227966 0.8394872 4291283857
-0.07814499 -0.1038639 0.95251209 4284505939
-0.49524018 -0.20471066 1.4203711 4283444779
-0.22108983 0.0013439879 0.76049453 4294230688
0.11509675 0.051657736 0.74448782 4283847754
-0.37944579 0.31681496 1.2603573 4283848267
-0.16392486 -0.013423517 0.78916436 4287202670
-0.15917331 -0.32725608 2.3138742 4292853152
-0.32336318 -0.3290087 2.3040223 4284571221
-0.4460091 -0.32937363 2.0566001 4288119165
-0.46655905 -0.17347595 1.4985336 4286403144
0.17873773 -0.086402692 0.99978751 4278519045
-0.23368125 0.071365684 0.74255323 4281083164
-0.22894238 0.070719838 0.74114472 4281083164
-0.57430607 -0.077740155 1.353583 4283314215
0.56204933 0.10158493 1.3721005 4282791727
-0.22833185 0.058659807 0.73793674 4281146646
-0.48872983 -0.34212959 2.0888009 4286807669
-0.24784155 0.020022847 0.74424517 4288710008
-0.51819873 -0.24815613 1.4418217 4283247657
0.5010106 0.27129558 1.3079298 4284293416
-0.052865013 -0.26263294 2.3234384 4291603089
-0.43649796 -0.21697131 2.0375357 4279570962
-0.40558466 -0.19720225 1.8161243 4281082400
-0.21825814 -0.04953428 0.85748255 4291207822
-0.13526064 -0.045562912 0.85243243 4287870605
-0.15410297 -0.0049706399 0.77223074 4294493606
-0.13591781 -0.0032339804 0.76692545 4292322693
-0.19736046 -0.28957129 2.3146303 4293182119
0.59535372 0.14828235 1.5479553 4282796605
-0.3099463 0.2694093 1.3349656 4283519046
-0.1705898 -0.0021592267 0.7662493 4291796347
-0.47529593 -0.25309479 1.5592909 4283380266
-0.20411766 -0.29494229 2.3063593 4292721571
-0.3732422 -0.26655573 2.0158303 4281737504
-0.32170281 -0.25102299 2.2906759 4284832852
-0.32209399 -0.23141642 2.2155478 4279110665
0.11832252 -0.091496333 0.90953594 4279963913
-0.1662996 -0.0278109 0.82005274 4288984978
-0.2054027 -0.048232257 0.85354292 4286211671
-0.36263368 -0.37595519 2.0944884 4282857522
-0.21703495 -0.0994827 0.94579458 4283639843
0.18230942 -0.080043048 0.98732352 4279045898
-0.20802255 -0.060396582 0.87550914 4292127379
-0.21875679 -0.060233265 0.87759423 4292061841
-0.073011249 -0.055082567 0.87182212 4289703298
-0.22895169 0.0028438009 0.75691026 4287601288
-0.095639914 -0.035207491 0.83681494 4288920467
-0.39000526 -0.39153767 2.0696199 4286410341
-0.013409527 -0.095072493 1.0091112 4285227610
-0.021398144 -0.23865245 2.270071 4290485379
0.18379858 0.041954458 0.76468134 4285821801
0.1474461 -0.16589582 0.92233503 4283450161
-0.5181933 -0.16352835 1.3921046 4282393629
-0.066544287 0.02661863 0.78858638 4288312935
-0.16170156 -0.021026079 0.80777943 4289443695
-0.46040964 0.27047992 1.3410454 4284045646
-0.5394026 0.30175996 1.2698921 4284571732
-0.22330573 0.31634599 1.2642863 4285164125
-0.19871181 -0.046640992 0.85012764 4285360465
-0.43723777 -0.29438522 2.0224566 4283715662
-0.1167618 -0.047739092 0.86068362 4286750850
-0.10679011 -0.0014255643 0.75953549 4293641886
-0.44228318 0.28945804 1.3464689 4286019434
0.51601106 -0.11397563 1.9077607 4278190336
-0.17310306 -0.044902325 0.8487969 4287663477
-0.62863052 0.26620486 1.3453631 4280755745
-0.44213334 -0.38491887 2.081778 4282069030
-0.24828371 0.12992284 0.92062193 4283650375
0.14810583 0.052152961 0.7537089 4280293384
-0.626966 0.24643219 1.381963 4279965458
-0.47500825 -0.20096546 1.5168458 4282986019
-0.59695739 -0.093935877 1.3595489 4281797900
-0.24356636 -0.099710628 0.94322085 4284623651
0.51921433 -0.15220791 1.7516656 4283449657
0.12905893 0.17635396 1.0423586 4282600263
0.14443314 -0.1655525 0.92267537 4290816663
-0.2665962 0.053817317 0.73537266 4286873466
-0.25073719 0.022599638 0.75354832 4290154104
-0.14911267 0.056899846 0.74000585 4281279007
0.12707105 -0.15728876 0.91420811 4291728748
-0.098368339 0.036771558 0.76853436 4290151279
-0.3759979 -0.34373453 2.0915675 4282593580
0.36992213 0.24959639 1.3990862 4280431406
0.072971411 0.31198418 1.2800807 4282799185
0.54588658 -0.15755035 1.7616881 4283776055
-0.06891796 0.036727786 0.77144098 4289234288
0.12111673 -0.054524146 0.943483 4282528292
0.57301408 -0.16204737 1.7606552 4283842871
-0.12425759 0.057108335 0.74200773 4281674011
-0.24978378 0.18402354 1.0268033 4286478190
-0.13196094 0.056742936 0.74118531 4281082130
0.59769821 -0.21763948 2.2621698 4278190336
-0.06708204 0.036096841 0.76991713 4289363050
-0.29895383 -0.0064251497 0.8480466 4286673001
-0.2949146 -0.084476478 0.98917329 4284298800
-0.12687755 -0.29832792 2.3211999 4290747010
0.10394911 -0.1320335 0.91244197 4290810224
0.48357859 -0.16868605 1.5251734 4278780160
-0.047967903 -0.094859391 1.0174841 4284903015
-0.74361086 0.19933119 1.4665018 4280030738
-0.032212667 0.27679792 1.3420981 4282864719
-0.10010457 0.068845958 0.74686038 4281017632
-0.1729842 0.038228333 0.76573664 4289887847
-0.096762642 0.068514749 0.7469008 4280885277
0.12092668 -0.11655232 0.88949823 4283976253
-0.14406265 0.053747997 0.73825014 4286542953
0.088062957 -0.23350951 2.1750324 4284508257
-0.58327562 -0.1672336 1.3135375 4281868315
-0.083073512 0.05592636 0.74339867 4281936934
-0.42269132 0.31335533 1.2868207 4283979854
0.78369313 -0.18325835 2.1494296 4281085740
0.12609333 0.14509639 1.0379337 4281614907
0.54020005 0.16622016 1.5451485 4282927939
0.48723361 -0.18993101 2.1378026 4279637268
-0.11188276 0.32692963 1.2438039 4280891186
-0.027599959 -0.095303893 1.0163162 4284968549
-0.10689907 -0.080090404 0.91286558 4291409281
0.51986039 -0.15324844 1.7661378 4283317817
0.080094196 -0.26189643 2.3177922 4290352766
-0.099224538 -0.044443812 0.85174859 4289709452
-0.3041448 -0.077601977 0.97706723 4284036658
-0.44858584 -0.15889843 1.5303986 4283772708
0.099506617 0.056189746 0.74862784 4281017372
-0.12289213 0.037768088 0.76801109 4290151536
-0.024322486 0.30464727 1.2842834 4282208075
-0.46222737 -0.14593431 1.5154533 4284299052
-0.54614586 -0.13784328 1.3357409 4282984229
-0.56641793 -0.13002837 1.3322185 4282130457
-0.13570169 -0.090035997 0.92851371 4294363558
-0.22795346 0.038213223 0.76148707 4290282609
-0.16062142 -0.088199221 0.92837203 4293574042
0.11020128 -0.078340761 0.9355526 4286996550
0.13073543 -0.076750129 0.92484874 4284365872
0.42663777 -0.095471114 1.7783366 4279965716
-0.1686009 -0.085120291 0.92405325 4293441429
-0.21497957 -0.084461465 0.92159045 4293179025
-0.076668382 0.0024501272 0.74453157 4290488440
-0.29174197 -0.085616365 0.9923467 4283972145
-0.19013025 -0.078544766 0.90804273 4294429351
-0.1046421 -0.075130537 0.90471983 4291013752
-0.20406476 -0.077974685 0.90865678 4294231972
-0.16216496 -0.074426331 0.90427047 4293179025
0.1553762 -0.063260578 0.95135343 4283586901
0.046066545 0.058262564 0.74295151 4286279009
0.13670295 -0.059446119 0.94557476 4286405958
0.46850252 -0.056604311 1.7648396 4279834645
0.13820434 -0.057790451 0.94755125 4281410068
0.47497371 -0.053073108 1.7711287 4280163609
-0.18479568 -0.056683533 0.87059617 4288656517
-0.1372636 -0.10102439 0.95387155 4284239430
-0.16853462 -0.054192226 0.86908376 4287136351
-0.19459206 -0.051220108 0.85818321 4286749053
0.043264657 0.058246471 0.74322003 4286147680
-0.024969913 0.066548936 0.74716091 4280952098
-0.55268162 -0.048445225 1.4145321 4282393879
0.50943816 -0.0076636672 1.7252262 4280491030
-0.30116859 -0.02329034 0.87805551 4283775279
-0.5478369 -0.04527206 1.4287637 4281605139
-0.25364405 -0.048715539 0.85627198 4287925120
-0.59055245 -0.038200542 1.3744276 4285809462
-0.58809733 -0.027875133 1.3905807 4284363043
0.46718204 0.015763588 1.6798986 4288777863
-0.3040747 -0.036026277 0.90541047 4283118379
0.51167583 0.020949438 1.6946901 4279240962
-0.069056809 0.055477485 0.74355465 4282068004
-0.55776149 -0.012523226 1.4315375 4284101671
0.55649334 0.042703331 1.7753482 4281475092
-0.23892429 -0.02916139 0.8186987 4294033828
-0.21494585 -0.23341689 2.2500558 4290156161
-0.52687067 -0.093133107 1.3471224 4282524445
-0.12733842 0.056369826 0.74084181 4281607703
0.53785354 0.058185399 1.7394942 4280095235
-0.21590194 0.038353816 0.76296151 4290151791
-0.58261895 0.0081846192 1.3946767 4283443482
-0.57804883 0.015536815 1.407691 4283114776
0.50753117 0.082631275 1.7063986 4280226829
-0.15173328 -0.009596996 0.78300381 4294362532
0.072734177 0.33391768 1.2352867 4281088569
-0.63497359 -0.0050221533 1.3500819 4285481267
-0.092316903 -0.23375645 2.2356045 4290419589
-0.25261003 -0.035086494 0.83077013 4286872946
0.58460361 0.085059345 1.4411807 4281935904
-0.048956107 0.0068404227 0.8300308 4285164906
-0.26365671 0.20865256 1.0614513 4282400052
-0.61277813 0.051375583 1.4036373 4282654738
-0.24183236 -0.003207244 0.76760978 4290553716
-0.10887448 0.0019454062 0.75218743 4293904805
-0.24910349 0.001385767 0.76418418 4288974209
-0.13102861 0.037918665 0.76760668 4290020207
-0.23627926 0.0048825555 0.75437778 4288261281
0.064293139 0.057060733 0.74290198 4286411884
0.57588351 0.11583361 1.4572144 4282134052
-0.13954462 0.0096317828 0.74697542 4290407251
-0.11270404 0.23255834 1.418301 4281745725
0.55942154 0.1524317 1.5633554 4282994498
-0.072539143 0.0080174431 0.75250536 4290544490
-0.41977653 -0.25059018 2.0491571 4279899412
-0.23456517 0.32723939 1.2423174 4282139456
-0.098561063 0.004376553 0.74525559 4290486898
-0.057064325 0.035344899 0.77719748 4283520853
-0.22936296 0.01082702 0.74339175 4294361502
-0.22940126 0.25189555 1.3781204 4285689957
-0.065897398 0.0013622306 0.74299014 4290817142
-0.62501186 0.25865114 1.362896 4282005811
0.16642945 0.046607658 0.75263965 4285953645
0.12665048 0.26067588 1.0585016 4280692008
-0.022205362 0.055000596 0.74564695 4281673246
-0.0057821684 0.054584593 0.7456488 4281673499
0.13385476 0.055860057 0.75098127 4282002978
-0.0012394302 0.054396361 0.74621886 4281674012
-0.18515381 0.038098745 0.76432174 4289888877
0.13869095 0.088440537 0.86004758 4281611570
0.10716574 -0.12034108 0.91391391 4290018397
-0.33803287 -0.28462458 2.1556416 4286743161
0.5364334 0.21575913 1.3020762 4281532416
0.13515936 0.12313688 0.93552566 4281878086
0.10874154 0.23723787 1.4154948 4282667343
0.3568705 0.27262342 1.4631971 4281879110
-0.24929777 -0.0011559501 0.76861548 4288907636
0.0053961929 0.23661694 1.4078746 4282469707
-0.038937889 0.24001282 1.4072857 4282470220
0.055309139 0.053126164 0.74723947 4281213980
-0.25963423 0.23926097 1.4105954 4285032029
0.053043276 0.24524423 1.3972887 4281812288
-0.28459379 0.2421785 1.4060384 4284966749
0.48282525 0.23443604 1.2992446 4283916114
0.12565053 0.16500075 1.0435306 4280296221
-0.17869514 0.24866012 1.3962579 4285034342
-0.24822521 0.1233989 0.90831441 4283321925
-0.095344603 0.25077134 1.386196 4282601547
-0.1729793 0.25290304 1.3838809 4284508514
0.4331587 0.25223598 1.3241606 4281812288
0.073893771 0.26095593 1.3755476 4282009410
0.27585277 0.26383328 1.3687726 4282537038
0.035837717 0.051711574 0.74463516 4285688676
-0.28246966 0.25532943 1.3785838 4285360990
0.013073975 0.25950032 1.3686342 4280496174
-0.24831712 0.14087982 0.94263846 4284110673
-0.012386778 0.26100528 1.3664371 4282140999
-0.24120797 0.25903454 1.3719715 4285493093
0.070137545 0.052849993 0.74815249 4281149472
0.39703149 0.27873123 1.3741462 4281417531
0.47504815 -0.16778143 1.5223675 4278452224
0.3204025 0.27427587 1.3484116 4281549889
0.017892862 0.27154624 1.3474821 4281877827
-0.18627512 0.26822823 1.3489213 4285033569
0.11539267 0.27524576 1.3465722 4283063384
-0.48070136 0.26393101 1.3446051 4284176716
-0.081030056 0.27257943 1.3403952 4281285687
-0.043240339 0.27295068 1.3356873 4282338378
-0.45032293 0.28766978 1.32684 4285493605
-0.38892713 0.30174029 1.283196 4284308819
0.25812009 0.28576413 1.3297895 4281549887
-0.10122081 0.28041387 1.3268558 4281021748
-0.036663398 0.28108603 1.3243266 4282075458
-0.55082923 0.27355927 1.3312114 4284768855
-0.46772096 -0.31015059 2.0982659 4282464828
-0.41366693 0.27600569 1.3205261 4283848780
0.08140289 0.05514738 0.74354738 4285030745
-0.18728146 0.28228185 1.3248762 4285297767
-0.56854075 0.32774633 1.2638284 4284834644
-0.19638988 0.28119612 1.3105035 4284441687
-0.40620989 0.2845751 1.3337538 4284967000
0.22506577 0.29554799 1.3134197 4282602831
0.38506064 0.29788041 1.3042557 4281351737
0.40360239 0.29840291 1.3019342 4282009667
-0.12556262 0.25610363 1.3814982 4282732364
-0.5390622 -0.040882304 1.4114227 4282195734
0.18390715 0.29654276 1.3057771 4281023799
-0.25087616 -0.015900016 0.79607648 4287793008
-0.40933695 0.29013896 1.3178678 4284900955
-0.2444122 0.20330775 1.0241076 4280952606
0.011473408 0.050813287 0.74537867 4286479734
-0.12733307 0.010526493 0.74808323 4292908412
-0.35033023 0.32362872 1.2431635 4284900955
-0.20400119 0.29807729 1.2938811 4284506198
-0.36390007 0.29721484 1.2990017 4285098335
-0.10852748 -0.014797959 0.79028618 4289247348
-0.43871656 0.29697505 1.2873718 4283191105
-0.22316504 0.30155495 1.287553 4284506197
-0.42812049 0.29754424 1.2858385 4284441685
0.044018909 0.30883914 1.2824883 4281615680
-0.37527305 -0.28312665 2.0234678 4287789939
-0.15824255 0.30950671 1.2745229 4283060811
-0.047289476 0.055414602 0.74464387 4282067747
0.68432313 -0.069485173 1.9131672 4279636751
-0.10465427 0.31158572 1.2651719 4281022518
-0.13519463 0.31451112 1.2706499 4281350970
0.2460123 0.32164848 1.2639884 4281681731
0.10773034 0.31910384 1.2624091 4280890675
0.11479211 0.18282452 1.0436426 4281612084
0.57753778 -0.1092875 1.9035174 4278255616
0.11388384 0.30327353 1.2943726 4279377947
-0.15966424 0.0093594864 0.74597025 4290276434
-0.18861175 0.31837854 1.2539524 4283519813
0.27616087 0.32759696 1.2535963 4281944647
0.087850526 0.052662358 0.74914604 4280623898
-0.16131096 0.0093068779 0.74591738 4290014034
-0.41019371 0.32120886 1.2557049 4285229921
0.28334528 0.25074026 1.3973988 4282339659
0.25767711 0.3341493 1.2347991 4281023542
-0.24184702 0.038722351 0.7615357 4290021491
0.67193943 -0.092396468 1.9280468 4280754974
-0.083962388 -0.06040813 0.88048726 4289704081
0.016801236 0.054055572 0.74638462 4280754197
-0.10415619 0.01078742 0.74831283 4293502598
-0.13527501 0.0065942854 0.74485332 4294689700
-0.27475986 -0.30198228 2.1680174 4292261530
-0.11700138 0.010436974 0.74838424 4293633416
0.09822166 0.32163745 1.2631452 4280628016
-0.20510356 0.038215876 0.76302487 4290085483
-0.40399578 -0.27270496 2.0501904 4281936168
-0.094071999 0.31672284 1.2602471 4282337864
-0.2377108 0.20603967 1.0385002 4281544746
-0.14003447 -0.28930455 2.3313601 4290287743
-0.25162265 -0.022320811 0.80825019 4287530612
0.51096326 -0.11306852 1.9110111 4278255872
0.1208351 -0.11286885 0.88690537 4281278484
-0.70591974 0.18814388 1.4789261 4279835665
-0.56238741 -0.058854863 1.3986518 4281341714
-0.34642902 0.30554396 1.2767736 4283650889
-0.19465367 0.038270198 0.76425505 4290019692
-0.48449215 -0.16617492 1.4933367 4283511080
-0.49097866 -0.13891691 1.4905351 4283971119
-0.11218712 -0.089310244 0.93008405 4291669891
-0.20067854 -0.08953923 0.92837316 4294429353
-0.18317981 -0.085077628 0.92415971 4293179025
0.47053686 -0.062446445 1.7856195 4280361502
0.11018994 -0.060918018 0.95119077 4291137132
-0.13469218 -0.061039403 0.87852859 4293837986
-0.26820105 0.25422737 1.3698422 4284505681
-0.64618731 0.3005529 1.2879413 4279703822
-0.24501278 0.09811151 0.85524911 4282992451
-0.60603142 -0.078750521 1.349039 4284952349
-0.24684939 0.29063088 1.3110706 4285624421
-0.15549971 -0.047136534 0.85401887 4287141226
-0.30401081 -0.039028209 0.90998715 4282593572
-0.20716843 -0.035513245 0.83236521 4288791179
-0.66720724 0.20243728 1.3705933 4284109126
-0.30203205 -0.026006013 0.88471115 4283578413
-0.24356294 -0.019865919 0.8006053 4291012471
-0.1791113 0.05415079 0.73643452 4287200884
0.0057214405 0.051004536 0.74497938 4286348916
-0.05016594 0.055333167 0.74460107 4281674273
-0.17126527 0.27849895 1.3434514 4284113240
-0.2566976 0.12005524 0.88366228 4281413414
-0.25215209 -0.029017061 0.82019395 4287398513
0.09618488 -0.05971422 0.94903237 4282727986
-0.092093885 0.055995956 0.74281251 4281739811
0.18699639 0.039984949 0.76776117 4286018921
0.098244756 0.27559939 1.3460875 4282864723
-0.22151312 0.26824194 1.3455216 4283782987
-0.05875238 0.035935916 0.77568388 4283191888
-0.25092733 0.038230166 0.76504153 4289432954
-0.23691025 0.17318648 1.028442 4283518275
0.571594 0.19358227 1.417918 4280026368
0.56361055 0.18757923 1.373843 4279894272
0.047449619 0.26418027 1.3502353 4281549886
-0.27953497 0.053837746 0.74496442 4284042818
-0.25683609 0.11606979 0.87649965 4281610283
0.12596306 0.13784088 1.0367819 4281878079
-0.57225382 -0.068977974 1.3900228 4281144081
-0.70588559 0.20686471 1.3740833 4284043583
0.5356108 -0.11350453 1.9120492 4278190336
-0.39116538 0.29906148 1.2855117 4283979601
0.26667741 0.25589111 1.3801228 4281878852
-0.5261215 -0.14516607 1.3578058 4282853667
-0.066042349 0.25492662 1.3855698 4283127894
0.096482962 -0.1595104 0.91468358 4289953630
0.12457772 0.051223688 0.74971962 4281216035
0.1270604 -0.15088847 0.91923124 4291466093
-0.1406388 0.038190231 0.76815259 4290151280
-0.44929329 -0.268094 2.0168827 4282860350
-0.35396066 -0.26900613 2.0571494 4284502347
-0.23738092 0.14551023 1.0230266 4282860858
-0.32224032 -0.2781359 2.2918177 4285097822
-0.11308327 0.037721798 0.76877671 4289955184
-0.25551632 -0.070118695 0.89535499 4288449664
0.017676329 -0.26179832 2.3250291 4289695866
-0.098708242 0.056248337 0.74281979 4281541661
-0.57219058 -0.1712804 1.3275883 4282985766
-0.16510989 0.0078120753 0.74474752 4294623907
-0.50963801 -0.15977985 1.4170811 4281471241
-0.15590537 0.037979156 0.76672196 4289954671
-0.23940817 -0.027032584 0.81553096 4294033058
-0.1049441 -0.0055140778 0.76954967 4294232744
-0.15732838 -0.075354874 0.9067806 4293376663
0.15237233 -0.16047972 0.91090536 4281675563
0.35296339 -0.55404216 1.8632632 4281806376
-0.81844139 0.20858037 1.4307309 4280162837
0.14147189 0.17091796 1.0214578 4281153078
0.09609285 -0.54922056 1.8228315 4288843645
0.74499017 -0.59789675 2.0827379 4284038440
0.09716098 -0.53620964 1.8334233 4285685073
0.7373625 -0.57506937 2.0645916 4283248675
0.45738369 -0.50344443 1.8524389 4282464298
-0.58671856 0.22355297 1.4062593 4283980107
-0.56588209 -0.46993467 1.5909234 4289237634
-0.63474262 -0.46793833 1.5822574 4289698442
0.25668651 -0.49453875 1.8251755 4283253821
-0.59776419 -0.46208164 1.5765547 4282592301
0.45627171 -0.48243597 1.8343686 4282399026
0.42333716 -0.47025946 1.8003311 4278977792
-0.66996688 -0.4455578 1.5378773 4289567111
0.91738033 -0.52996165 2.1231391 4281929474
0.100035 -0.48270378 1.8479186 4286804059
0.94839579 -0.52277303 2.1569884 4280681984
0.94427848 -0.52181262 2.1589818 4282259206
-0.48044765 -0.43060181 1.6011139 4289434498
-0.55643046 -0.40818882 1.526347 4280092425
0.97955978 -0.49821314 2.1702783 4280944643
-0.46869707 -0.40756893 1.6008354 4289303169
-0.62522197 -0.36716127 1.4341927 4283316024
0.63344878 -0.34932184 1.5783757 4281740328
-0.59127492 -0.3689276 1.452379 4283708979
0.63944012 -0.31607676 1.5374941 4283714115
-0.59576821 -0.33248389 1.4137388 4280355080
0.13437834 -0.33168036 1.5706658 4280361249
-0.46399242 -0.35837546 1.5879134 4283449147
0.27081439 -0.3236942 1.5708709 4281545782
-0.69997239 -0.30458722 1.315428 4281669143
0.95251358 -0.44816628 2.2877336 4281797888
-0.61646044 -0.31224999 1.3820428 4280355593
0.10932089 -0.39040896 1.8794101 4285158727
-0.66457546 -0.30211729 1.3313392 4284039231
0.55609453 -0.29692581 1.5459261 4283650899
-0.46315622 -0.3586027 1.6764181 4285357399
-0.50026935 -0.31581444 1.4711963 4282064412
-0.52065194 -0.3037639 1.4210199 4283446063
1.0163115 -0.3682031 2.0242302 4288252818
-0.5483495 -0.313829 1.4701496 4282788390
-0.66216022 -0.29077086 1.342399 4281802008
0.25905427 -0.28282535 1.4916742 4283257165
-0.58910251 -0.30434555 1.4397831 4279239429
0.56699693 -0.27465418 1.5286386 4282532418
1.0057259 -0.36869106 2.0941567 4280231207
-0.70370013 -0.27170259 1.2843864 4284695100
-0.69973648 -0.27422503 1.2977636 4283510060
-0.74885267 -0.27433953 1.2942784 4281736475
-0.35411429 -0.42726889 2.1384132 4288842358
0.11389399 0.16252962 1.0431743 4281084714
-0.43612897 -0.41451937 2.0920699 4280950814
0.088808618 -0.16408169 0.92064738 4289630843
0.25966278 -0.26498309 1.480128 4281544492
0.99539304 -0.36892396 2.1591094 4283642147
-0.35908949 -0.40661246 2.109895 4281606176
-0.46683812 -0.3099182 1.6282408 4283710520
-0.3399899 -0.40541282 2.161057 4288316270
0.15182069 -0.14824343 0.89513564 4289042836
0.12716544 -0.14870255 0.92167199 4292389510
0.26128876 -0.23633149 1.459807 4285159761
-0.68557578 -0.24069604 1.2920505 4279108356
-0.72102153 -0.23333976 1.2554438 4280551945
-0.41639948 -0.29509011 1.6835641 4284630591
0.55387628 -0.22467178 1.4889081 4280424722
-0.68243772 -0.24355584 1.3403777 4279304195
-0.41758853 -0.35311443 2.0507433 4286015330
1.0071542 -0.28419277 2.0112691 4286072630
-0.70276684 -0.22702342 1.3048121 4279304448
1.0017918 -0.27756515 1.9888257 4286007092
0.23035564 -0.22010472 1.4822146 4279569422
0.25171477 -0.21274534 1.4638387 4282659878
-0.7440924 -0.22753155 1.3463119 4279239942
-0.31369478 -0.36848673 2.3098893 4288447083
0.25771821 -0.21238485 1.4774102 4282463532
0.10676489 -0.12377848 0.90319824 4290284911
0.085436843 -0.12632838 0.91899717 4288052071
0.24319707 -0.20866495 1.4730706 4285489243
-0.65152347 -0.20809069 1.3086429 4280684045
1.0083389 -0.24638778 1.9367672 4284559641
0.94639552 -0.27128994 2.1671019 4283111174
0.13738272 -0.11148429 0.91561365 4284890156
-0.51572073 -0.20314178 1.3898704 4282853672
0.53181326 -0.18282288 1.5111125 4278386944
-0.20373346 -0.3133885 2.2958331 4292195485
-0.30983931 -0.30929568 2.2789443 4286217076
0.62030238 -0.20330104 1.8051925 4279962374
-0.185021 -0.29557988 2.3024533 4292328354
0.003778778 -0.2757068 2.2965832 4289105532
-0.45527101 -0.18685691 1.5129086 4284561711
0.58165216 -0.18050024 1.7698481 4282594093
0.78033167 -0.23018214 2.2156904 4281217071
-0.74703306 -0.16250956 1.2804021 4283839276
0.47809583 -0.22009945 2.1332915 4281484098
-0.22772162 -0.097546414 0.94243407 4291380820
-0.65543938 -0.15305397 1.3087559 4282261016
-0.54390424 -0.15266283 1.3461373 4283246888
0.34840679 -0.18289679 1.8771635 4280429093
0.31257617 -0.18489325 1.9626087 4281678133
-0.25713187 -0.08418718 0.92298305 4286263599
-0.52006948 -0.14255759 1.3840433 4282393629
0.79273015 -0.18014312 2.1183963 4280627505
0.18266077 -0.07318455 0.97600758 4282995024
-0.68196136 -0.13105088 1.3113919 4281338628
0.6500411 -0.15477961 1.9545509 4280228117
0.997271 -0.15065387 2.0228844 4280495658
-0.5090065 -0.13038984 1.4036621 4280355593
-0.71723837 -0.12500708 1.294872 4286596919
-0.49712795 -0.12868881 1.4622345 4282592038
0.10720507 -0.058657046 0.94387829 4289101929
1.0387849 -0.13573226 2.0907881 4281613111
-0.21927418 -0.060511652 0.87890506 4292195744
0.67768276 -0.12825817 1.905902 4279964431
0.093975201 -0.058631744 0.97333598 4285755757
1.0427803 -0.13011211 2.0827982 4281547317
-0.77702594 -0.11035144 1.2574698 4285872686
-0.30682373 -0.059657585 0.94482839 4284499781
-0.16366737 -0.039582934 0.837852 4291482261
0.44510514 -0.094564408 1.778547 4280097046
-0.21738048 -0.040766817 0.84141529 4292129955
-0.75393236 -0.089731455 1.2762332 4286202164
0.40260297 -0.093543172 1.8028268 4282992200
-0.66816151 -0.08644259 1.3104012 4286729787
0.44813442 -0.082440197 1.7466486 4280162839
0.63712817 -0.090783238 1.9594547 4280624160
-0.76372099 -0.079268828 1.2463276 4287781964
-0.67177415 -0.077717826 1.326092 4285940274
0.47717994 -0.056855846 1.7428355 4280295709
-0.72193551 -0.058195975 1.2884371 4285808690
0.43411469 -0.047237273 1.7426064 4281281836
-0.73623574 -0.040195461 1.2645776 4288243028
0.44561881 -0.022964556 1.6899588 4278387200
-0.29972988 -0.0035079569 0.8434062 4283184172
-0.064505354 0.0091385618 0.75198138 4290154108
0.51404518 0.0010128543 1.6989936 4281148959
-0.29829448 0.0081732012 0.82223487 4283118380
-0.24871857 0.012890026 0.74675214 4288253825
0.55200058 0.014559701 1.7884369 4281541656
0.19488652 0.028447205 0.7887044 4282859061
-0.72773081 -0.0052051209 1.286213 4288045906
0.46530867 0.02436858 1.7249172 4281936420
-0.59926671 0.013239719 1.404928 4283904292
0.86119902 0.048930373 1.765029 4281873699
0.54800051 0.042333584 1.7541497 4280096267
0.19203889 0.045875937 0.76947773 4285292115
0.83356833 0.060513828 1.6740425 4281807909
-0.72561073 0.027239382 1.2841022 4287124291
0.66473675 0.070331976 1.4733142 4279962625
0.69684625 0.071202636 1.4847593 4280949517
0.46404928 0.070890844 1.6951021 4278912000
0.6968171 0.075838387 1.4881735 4280357637
0.63371944 0.076272413 1.45846 4284106041
-0.66316646 0.044435851 1.3342044 4285415217
0.17765459 0.060609091 0.76726162 4281740326
0.6580022 0.084657788 1.4501684 4285750869
-0.75024265 0.053091779 1.3151904 4284625188
0.66000682 0.096462265 1.4242365 4282002213
-0.70470309 0.077335626 1.351528 4283771165
0.81472421 0.12573935 1.5811369 4281278739
-0.23794629 0.084161662 1.0124593 4283321413
-0.73693377 0.087201446 1.3360287 4283772189
0.12559566 0.098148018 1.031971 4283648067
-0.54505956 0.11504269 1.5958145 4280163607
0.58540273 0.13120715 1.3988937 4281868828
0.72961652 0.14315431 1.5076431 4282337858
-0.24555244 0.088530973 0.83711183 4283781704
-0.11246766 0.1301765 1.5839902 4285362537
-0.7304219 0.10526395 1.3386574 4285087794
-0.62229568 0.11972913 1.5454751 4280685328
0.50609267 0.14855012 1.5648369 4283651921
-0.28855056 0.13607466 1.5760719 4285823085
-0.22414349 0.13767017 1.5801734 4283323724
0.066406444 0.14243995 1.5566072 4287070841
0.72814262 0.1502101 1.4493395 4280889640
-0.74629569 0.11501247 1.35892 4283839528
0.66680968 0.14913976 1.4339664 4280098330
-0.24783368 0.1064093 1.0032307 4281742379
0.73363984 0.1530782 1.43926 4281480493
-0.71406615 0.12647365 1.3866047 4280946181
0.72882217 0.15982608 1.3757479 4282795840
-0.35747141 0.14980137 1.5388833 4284572761
0.5258044 0.16958772 1.5300248 4282403653
-0.73503697 0.13825913 1.3812261 4282458906
0.74283177 0.16881442 1.363883 4282924603
0.099417932 0.17253357 1.5082535 4285362537
0.55583781 0.18173167 1.5106739 4283588182
-0.65213156 0.16193989 1.5152848 4279505680
-0.17570417 0.17204541 1.5098048 4283849038
-0.096815273 0.17488399 1.5109799 4286086515
-0.6505754 0.16491234 1.5059806 4281149988
-0.53241271 0.16699192 1.5033097 4284308300
-0.042680398 0.17964607 1.4979306 4284705379
-0.019931138 0.18351379 1.4963212 4284179292
-0.69843072 0.17817478 1.4864079 4279965971
-0.18968345 0.18730915 1.4817238 4286415221
-0.020522058 0.19406208 1.4821975 4284311396
-0.54306334 0.18456206 1.4719419 4285295965
0.1005458 0.19710034 1.4656924 4281681731
-0.82928449 0.16614197 1.3090129 4281144842
-0.80132592 0.17740488 1.4096195 4280291595
-0.72473013 0.18614629 1.4734262 4280163347
0.54258597 0.19911847 1.3555979 4283713861
0.22753237 0.20429005 1.4562532 4281812293
0.55759996 0.20890281 1.3455473 4283253570
0.028747555 0.21394381 1.4402245 4282799699
0.56315517 0.21376581 1.3411449 4283056448
-0.12110142 0.21325204 1.4370223 4281680705
0.086988837 0.21818207 1.4280076 4282142282
0.24247099 0.22103351 1.419155 4282471504
-0.23404546 0.22008681 1.4234772 4285823084
0.57408595 0.22301257 1.3202373 4282991163
-0.46583217 0.21507061 1.3661051 4284440402
0.37726378 0.2391472 1.4396585 4282471247
0.6159848 0.23015767 1.331094 4281610023
-0.40011919 0.22474751 1.4188299 4285889134
-0.63201123 0.22138315 1.4040583 4284965721
0.58743453 0.23200352 1.3162858 4283450430
-0.88404512 0.22163072 1.4212478 4280227603
0.49103373 0.2438255 1.3904406 4282404678
