# .PCD v0.7 - Point Cloud Data file format
VERSION 0.7
FIELDS x y z rgb
SIZE 4 4 4 4
TYPE F F F U
COUNT 1 1 1 1
WIDTH 1157
HEIGHT 1
VIEWPOINT 0 0 0 1 0 0 0
POINTS 1157
DATA ascii
-0.050168499 0.29686201 1.5244499 1247369561
-0.048634101 0.29808399 1.52451 1246645838
0.319004 0.29149801 1.52026 1246382666
0.31747499 0.292687 1.52019 1246185287
0.320519 0.292705 1.5203201 1246843217
0.315947 0.29387501 1.52013 1246316873
0.31898999 0.29389301 1.52025 1246843217
0.322034 0.29391101 1.52037 1247303768
0.317462 0.295082 1.52018 1246777424
0.31897601 0.29628801 1.5202399 1247106389
-0.24904101 0.29511401 1.52548 1249277558
-0.25059801 0.296325 1.5254101 1249343351
-0.24749701 0.296343 1.52554 1248882800
-0.25215501 0.29753599 1.52534 1248356456
-0.249055 0.29755399 1.52547 1248619628
-0.24595401 0.29757199 1.5255899 1247895905
-0.25061199 0.298765 1.5254 1247830112
-0.24906801 0.29999399 1.52545 1247961698
-0.19481599 0.29326999 1.51721 1249080179
-0.196362 0.29447299 1.51715 1248817007
-0.19328301 0.29449099 1.51727 1248093284
-0.197909 0.29567501 1.5170799 1248553835
-0.194829 0.29569301 1.5172 1247764319
-0.19175 0.29571101 1.51732 1247237975
-0.196376 0.29689601 1.51713 1247566940
-0.19484299 0.298116 1.51719 1246843217
0.51667899 0.27124801 1.41919 1246053701
0.51526397 0.272349 1.41912 1245987908
0.51808202 0.272365 1.41924 1246711631
0.51384801 0.273449 1.41906 1245856322
0.516666 0.27346599 1.41917 1246580045
0.51948398 0.27348199 1.4192899 1247566940
0.51525098 0.27456599 1.4191099 1246514252
0.51665401 0.27568299 1.41916 1247369561
-0.65683502 0.27702701 1.42819 1226315800
-0.65830803 0.278173 1.42813 1226052628
-0.655375 0.27818999 1.4282399 1245527357
-0.65978098 0.279318 1.4280601 1225789456
-0.65684801 0.27933499 1.42818 1244737841
-0.65391499 0.27935299 1.42829 1247106389
-0.65832102 0.28048101 1.42811 1244145704
-0.65686101 0.281643 1.42817 1246316873
-0.33868399 0.29555199 1.5207 1247830112
-0.34024099 0.29676101 1.52063 1248422249
-0.33714199 0.29677999 1.52075 1247237975
-0.34179699 0.29797101 1.52056 1249343351
-0.338698 0.29798999 1.52068 1248224870
-0.33559999 0.29800799 1.52081 1248159077
-0.34025499 0.2992 1.52062 1248948593
-0.33871201 0.300428 1.5206701 1248948593
0.61648798 0.26866901 1.3974 1225263112
0.61510003 0.269748 1.3973401 1225789456
0.61786401 0.26976499 1.39745 1225263112
0.613711 0.27082801 1.39728 1226776351
0.616476 0.27084401 1.39739 1226118421
0.61923999 0.270861 1.3975 1225328905
0.61508697 0.27192399 1.39733 1243750946
0.61646301 0.27302 1.39738 1243816739
-0.87740999 0.25243399 1.29755 1226250007
-0.878757 0.253481 1.29749 1226447386
-0.87607598 0.253497 1.2976 1243619360
-0.88010299 0.25452799 1.29743 1226710558
-0.87742198 0.25454399 1.2975399 1244145704
-0.87474197 0.25455999 1.29765 1245264185
-0.87876898 0.25559101 1.29748 1244935220
-0.87743402 0.25665301 1.2975301 1246119494
0.429804 0.29465899 1.4969701 1245527357
0.42830399 0.295825 1.49691 1245724736
0.43129 0.29584301 1.49703 1246053701
0.42680499 0.29699099 1.49684 1245724736
0.429791 0.29700899 1.49696 1245527357
0.43277699 0.29702601 1.49708 1245922115
0.42829099 0.29817501 1.4968899 1245461564
0.429777 0.29935899 1.49695 1245198392
-0.25541899 0.215332 1.11133 1246316873
-0.256547 0.216208 1.11128 1244079911
-0.254302 0.216221 1.11137 1248751214
-0.25767401 0.21708401 1.11123 1244211497
-0.255429 0.217098 1.11132 1247106389
-0.253185 0.21711101 1.11141 1248817007
-0.25655699 0.21797401 1.11127 1244672048
-0.25544 0.21886399 1.11131 1248093284
-0.070556998 0.29859099 1.50385 1247237975
-0.072084598 0.29977801 1.50379 1246448459
-0.069043003 0.29979599 1.5039099 1247303768
-0.073612198 0.30096599 1.50372 1246316873
-0.070570603 0.300984 1.50384 1246053701
-0.067529 0.301002 1.50396 1246909010
-0.072098203 0.30217201 1.50377 1245132599
-0.0705842 0.30337799 1.50383 1245527357
-0.82157302 0.27431601 1.3653899 1247698526
-0.82298797 0.27541599 1.36533 1247566940
-0.820171 0.27543199 1.36544 1246514252
-0.82440299 0.27651501 1.36527 1246382666
-0.82158601 0.27653199 1.36538 1244211497
-0.81876898 0.27654901 1.36549 1226184214
-0.82300103 0.277632 1.36532 1226118421
-0.82159799 0.27874899 1.36537 1225855249
-0.85145998 0.28418201 1.40545 1247632733
-0.85291803 0.28531501 1.40539 1246777424
-0.850016 0.28533199 1.4055001 1246382666
-0.85437602 0.28644899 1.40532 1245922115
-0.85147297 0.286466 1.40544 1243816739
-0.848571 0.28648299 1.40556 1226118421
-0.85293102 0.287599 1.40538 1226513179
-0.85148603 0.28874901 1.40543 1225921042
-0.65226501 0.28130499 1.39466 1226250007
-0.65370399 0.28242299 1.39459 1225723663
-0.65083998 0.28244001 1.3947099 1244672048
-0.65514201 0.28354201 1.3945301 1225460491
-0.65227801 0.28355801 1.39464 1226710558
-0.64941502 0.283575 1.39476 1246843217
-0.65371603 0.284677 1.39458 1225789456
-0.652291 0.28581199 1.39463 1244803634
-0.27044901 0.218211 1.10811 1249343351
-0.27157301 0.21908499 1.10806 1246711631
-0.26933399 0.219098 1.10815 1245329978
-0.27269799 0.21995901 1.1080101 1243685153
-0.270459 0.219973 1.1081001 1246382666
-0.26822001 0.21998601 1.1081899 1244014118
-0.27158299 0.220847 1.10805 1226184214
-0.27046901 0.221734 1.10809 1226513179
-0.83321899 0.240615 1.19112 1226250007
-0.834454 0.241575 1.19107 1226513179
-0.83199602 0.24158899 1.19116 1243948325
-0.83568799 0.242534 1.19101 1243619360
-0.83323002 0.242548 1.19111 1244540462
-0.830773 0.24256299 1.19121 1245395771
-0.83446503 0.243508 1.1910599 1245132599
-0.83324099 0.244482 1.1911 1245987908
-0.86707801 0.25128901 1.2124 1226381593
-0.86833501 0.252267 1.21235 1226776351
-0.86583102 0.25228199 1.21245 1244145704
-0.86959302 0.253245 1.21229 1243948325
-0.86708897 0.25325999 1.2123899 1244672048
-0.86458498 0.25327399 1.21249 1245395771
-0.86834598 0.254237 1.21234 1245066806
-0.8671 0.25523001 1.2123801 1246185287
-0.86868501 0.28972799 1.38404 1247435354
-0.870121 0.29084501 1.38398 1246711631
-0.86726201 0.29086199 1.3840899 1245461564
-0.871557 0.29196101 1.38392 1246251080
-0.868698 0.291978 1.38403 1244606255
-0.865839 0.29199499 1.38414 1226644765
-0.870134 0.29309499 1.38397 1243882532
-0.86871099 0.29422799 1.38402 1226447386
0.61711901 0.27408701 1.33406 1225394698
0.61579603 0.275116 1.33401 1226513179
0.61843002 0.27513099 1.33411 1225526284
0.614474 0.276144 1.33395 1244079911
0.61710697 0.27616 1.3340501 1226578972
0.61974102 0.27617499 1.33416 1225657870
0.615785 0.277188 1.334 1244079911
0.61709601 0.27823201 1.33404 1244211497
-0.27427801 0.31294301 1.47979 1266778497
-0.27578899 0.314118 1.47972 1249474937
-0.27278 0.314136 1.47984 1249869695
-0.2773 0.31529301 1.47965 1248422249
-0.27429101 0.31531101 1.4797699 1248685421
-0.271283 0.315328 1.47989 1249014386
-0.27580199 0.316486 1.47971 1248356456
-0.27430499 0.317678 1.4797601 1247501147
-0.209791 0.31361201 1.48362 1247961698
-0.211303 0.31478801 1.48356 1248817007
-0.20829201 0.31480601 1.48368 1247764319
-0.212816 0.31596401 1.48349 1248948593
-0.209804 0.31598201 1.48361 1248488042
-0.206793 0.315999 1.48373 1247698526
-0.211317 0.317157 1.4835401 1266778497
-0.20981801 0.318351 1.4836 1249145972
-0.86076599 0.25026199 1.1906 1243948325
-0.86199999 0.25122201 1.19055 1244145704
-0.85954201 0.25123599 1.19064 1244803634
-0.863235 0.25218201 1.19049 1244474669
-0.86077702 0.25219601 1.19059 1245198392
-0.85831797 0.252211 1.19069 1246053701
-0.86201102 0.25315601 1.19054 1245461564
-0.86078799 0.25413001 1.19058 1246382666
-0.146579 0.31225899 1.47331 1246974803
-0.14807899 0.31342399 1.47325 1246974803
-0.14509401 0.31344199 1.47337 1246580045
-0.14957801 0.31459001 1.4731801 1247040596
-0.146593 0.31460699 1.4733 1246382666
-0.143608 0.31462499 1.47342 1246119494
-0.148092 0.31577301 1.47324 1246974803
-0.146606 0.31695601 1.47329 1246119494
0.143507 0.247483 1.16401 1244408876
0.142341 0.24838901 1.16396 1244343083
0.14466199 0.248403 1.16406 1246185287
0.141176 0.249295 1.16391 1244672048
0.14349701 0.249309 1.164 1246053701
0.145817 0.249323 1.1641001 1246645838
0.142331 0.25021499 1.16395 1245527357
0.14348599 0.25113499 1.16399 1247172182
0.66742301 0.34276399 1.58067 1245066806
0.66584599 0.34399 1.5806 1245658943
0.66898698 0.34400901 1.58073 1245132599
0.66426897 0.34521699 1.58053 1246316873
0.667409 0.34523499 1.58066 1245724736
0.67054999 0.345254 1.58078 1245329978
0.66583198 0.346461 1.58059 1246382666
0.667395 0.34770599 1.58064 1246382666
-0.281495 0.242173 1.13123 1245132599
-0.282644 0.243066 1.13118 1247830112
-0.28035599 0.24308001 1.1312701 1244803634
-0.283793 0.24395999 1.13113 1248093284
-0.28150499 0.243973 1.13122 1246974803
-0.27921799 0.24398699 1.13131 1244540462
-0.28265399 0.244867 1.13117 1248224870
-0.28151599 0.245774 1.13121 1248422249
-0.40600601 0.32104501 1.46188 1247303768
-0.40750399 0.32221001 1.46181 1248093284
-0.40452099 0.32222801 1.46193 1247172182
-0.40900201 0.32337499 1.46175 1248356456
-0.406019 0.323392 1.46187 1248224870
-0.40303701 0.32341 1.46198 1248027491
-0.40751699 0.32455701 1.4618 1249343351
-0.40603301 0.325739 1.46185 1248488042
-0.17633501 0.324714 1.47085 1246909010
-0.17783301 0.32587799 1.47078 1247632733
-0.174851 0.32589599 1.4709001 1247040596
-0.179331 0.327043 1.4707201 1247698526
-0.176349 0.327061 1.47083 1246382666
-0.173366 0.32707801 1.47095 1246974803
-0.177847 0.32822499 1.47077 1245790529
-0.17636199 0.32940701 1.47082 1245593150
0.505427 0.30828899 1.41134 1245790529
0.50401998 0.309383 1.41128 1245461564
0.506823 0.30939999 1.4113899 1246448459
0.50261199 0.310478 1.41122 1245658943
0.50541502 0.31049401 1.41133 1246382666
0.50821799 0.31051099 1.41144 1246580045
0.50400698 0.311589 1.41127 1245593150
0.50540203 0.3127 1.41132 1245987908
0.107057 0.32325 1.45903 1246382666
0.105583 0.32439601 1.45897 1246974803
0.108517 0.324413 1.45909 1247501147
0.104109 0.325542 1.4589 1247172182
0.107043 0.32555899 1.45902 1247106389
0.109978 0.32557601 1.4591399 1246185287
0.10557 0.32670501 1.4589601 1245922115
0.10703 0.32786801 1.45901 1245198392
-0.0134396 0.325407 1.4614201 1245987908
-0.0149209 0.32655799 1.46136 1246251080
-0.0119714 0.32657599 1.46147 1246711631
-0.0164022 0.32771 1.46129 1245724736
-0.0134528 0.32772699 1.46141 1246777424
-0.0105033 0.32774499 1.46153 1247303768
-0.0149341 0.328879 1.46134 1245856322
-0.013466 0.33004799 1.4614 1245790529
0.132202 0.278712 1.25547 1245724736
0.13094001 0.27969301 1.25541 1246448459
0.133452 0.27970701 1.25551 1244474669
0.12967899 0.280673 1.25536 1246185287
0.13219 0.28068799 1.25546 1244803634
0.134701 0.28070301 1.25556 1244145704
0.13092899 0.28166801 1.2553999 1245329978
0.13217901 0.282664 1.25545 1244343083
0.23258901 0.325266 1.45013 1247895905
0.23113 0.326401 1.45007 1246909010
0.234036 0.32641801 1.4501801 1247303768
0.22967 0.32753599 1.45 1246909010
0.232576 0.327553 1.45012 1246316873
0.23548201 0.32756999 1.45023 1246185287
0.231117 0.328688 1.45005 1245922115
0.232563 0.32983899 1.4500999 1245922115
-0.85377699 0.28538799 1.26386 1247566940
-0.855088 0.28640699 1.26381 1247435354
-0.85247803 0.28642201 1.2639101 1245856322
-0.85639799 0.28742599 1.26375 1246777424
-0.85378897 0.28744099 1.26385 1244606255
-0.851179 0.28745699 1.26396 1226381593
-0.85509902 0.28845999 1.2638 1243619360
-0.8538 0.28949499 1.26384 1226315800
-0.0086668804 0.327833 1.44283 1244869427
-0.0101287 0.32896999 1.44277 1245264185
-0.0072180601 0.328987 1.44288 1245329978
-0.0115906 0.330107 1.4427 1245790529
-0.0086799096 0.33012399 1.44282 1245856322
-0.00576925 0.33014101 1.44293 1246843217
-0.0101418 0.33126 1.44275 1245856322
-0.0086929398 0.332414 1.4428101 1246909010
-0.276566 0.27357399 1.21188 1247369561
-0.277798 0.274533 1.21182 1246053701
-0.27534401 0.27454701 1.21192 1247369561
-0.27903101 0.275491 1.2117701 1244803634
-0.276577 0.27550599 1.21187 1246382666
-0.274122 0.27552 1.21196 1248093284
-0.27780899 0.27646399 1.21181 1245198392
-0.27658799 0.277437 1.2118599 1245527357
-0.53521401 0.307818 1.3348 1247435354
-0.53658599 0.30888399 1.33474 1247764319
-0.53385502 0.3089 1.33485 1246909010
-0.53795701 0.30994999 1.33468 1248093284
-0.535227 0.309966 1.33479 1247698526
-0.53249598 0.309982 1.3349 1247040596
-0.53659803 0.311032 1.33473 1248027491
-0.53523898 0.31211501 1.33478 1247566940
0.13845301 0.25872299 1.13925 1245264185
0.13731299 0.25961 1.1392 1244408876
0.13958301 0.25962299 1.13929 1246316873
0.13617299 0.26049599 1.13915 1244079911
0.13844299 0.26051 1.13924 1245922115
0.14071301 0.26052299 1.13933 1246909010
0.13730299 0.26139599 1.13919 1244672048
0.13843299 0.26229599 1.13923 1245724736
0.20836499 0.34176701 1.44258 1246448459
0.206912 0.34289601 1.44252 1246448459
0.209804 0.342913 1.4426301 1245856322
0.205459 0.344026 1.44245 1246382666
0.208352 0.34404299 1.44257 1246514252
0.211244 0.34406 1.44268 1245856322
0.206899 0.34517199 1.4425 1247237975
0.20833901 0.34631899 1.44256 1247172182
-0.170021 0.34239 1.43428 1246185287
-0.171481 0.34352499 1.43422 1246053701
-0.16857401 0.34354201 1.43433 1246777424
-0.172941 0.34466001 1.43415 1246119494
-0.17003401 0.344677 1.43427 1246645838
-0.167128 0.34469399 1.4343801 1246580045
-0.17149401 0.34581199 1.4342 1245856322
-0.170047 0.346964 1.43426 1247040596
0.12829199 0.32070601 1.34582 1246382666
0.126937 0.32175899 1.34576 1246316873
0.12963501 0.32177499 1.34587 1245066806
0.125581 0.322813 1.3457 1246251080
0.12828 0.32282901 1.3458101 1245527357
0.130979 0.32284501 1.34592 1244211497
0.12692501 0.323883 1.34575 1246053701
0.128268 0.32495299 1.3458 1244672048
-0.473138 0.34154901 1.40817 1248882800
-0.474583 0.34267199 1.4081 1249869695
-0.471706 0.34268901 1.4082201 1248882800
-0.476028 0.34379601 1.40804 1266975876
-0.473151 0.343813 1.40816 1248685421
-0.470274 0.34382999 1.40827 1248356456
-0.47459599 0.34493601 1.40809 1249540730
-0.47316399 0.346077 1.4081399 1248751214
0.30728301 0.34164599 1.42171 1246843217
0.30585599 0.342756 1.4216501 1247172182
0.30869699 0.34277299 1.42176 1246777424
0.30442899 0.34386501 1.42159 1247106389
0.30726999 0.34388199 1.4217 1247040596
0.31011099 0.34389901 1.42181 1246316873
0.305843 0.34499201 1.42164 1247040596
0.30725801 0.346118 1.42169 1246843217
-0.57795799 0.342199 1.40016 1249606523
-0.57939899 0.343319 1.4001 1249409144
-0.57652903 0.34333599 1.40021 1249277558
-0.58083999 0.344439 1.40003 1249277558
-0.57797003 0.34445599 1.4001499 1249211765
-0.57510102 0.344473 1.40026 1247961698
-0.57941097 0.345577 1.40008 1248159077
-0.57798302 0.34671399 1.40013 1247764319
0.678877 0.38782299 1.59715 1226381593
0.67728299 0.389063 1.59708 1243750946
0.680457 0.389081 1.59721 1226315800
0.67568898 0.390302 1.59701 1245329978
0.67886299 0.39032099 1.59714 1226381593
0.682037 0.39033899 1.59726 1226118421
0.67726898 0.39155999 1.59707 1246119494
0.67884803 0.392818 1.5971299 1246645838
-0.56799102 0.35016501 1.41778 1249409144
-0.56945002 0.3513 1.4177099 1248882800
-0.56654501 0.35131699 1.41783 1248422249
-0.57090902 0.35243401 1.41765 1248685421
-0.56800401 0.352451 1.41776 1248224870
-0.565099 0.352469 1.4178801 1247830112
-0.56946301 0.35358599 1.4177001 1248027491
-0.56801701 0.35473701 1.41775 1247566940
-0.388668 0.346766 1.40791 1248685421
-0.39010999 0.34788701 1.40784 1249672316
-0.38723999 0.347904 1.4079601 1248027491
-0.39155099 0.34900799 1.4077801 1248882800
-0.38868099 0.34902501 1.40789 1248093284
-0.385811 0.349042 1.40801 1246711631
-0.390122 0.35014501 1.40783 1248422249
-0.38869399 0.35128301 1.4078799 1247566940
-0.28683701 0.34854901 1.41214 1249145972
-0.288279 0.34966999 1.41208 1248948593
-0.28540799 0.349686 1.41219 1248027491
-0.28972 0.35078999 1.41202 1248685421
-0.28685001 0.35080701 1.41213 1247501147
-0.28398001 0.350824 1.41225 1247895905
-0.28829199 0.351928 1.41207 1247501147
-0.286863 0.353066 1.41212 1246382666
-0.18943 0.34944299 1.41723 1248751214
-0.190873 0.35056499 1.41717 1249474937
-0.18799999 0.350582 1.41728 1249080179
-0.192316 0.35168701 1.4171 1248290663
-0.18944301 0.351704 1.41722 1248356456
-0.186571 0.35172099 1.41733 1247764319
-0.19088601 0.352826 1.41715 1247435354
-0.189456 0.353964 1.4172 1246711631
-0.0140634 0.349161 1.41919 1246119494
-0.0155011 0.350279 1.41913 1246185287
-0.0126386 0.35029599 1.41924 1246316873
-0.016938699 0.35139701 1.41906 1246316873
-0.0140763 0.351414 1.41918 1246448459
-0.0112138 0.35143101 1.4192899 1246580045
-0.0155139 0.35253099 1.41912 1246316873
-0.0140891 0.35366601 1.41917 1246382666
0.28383699 0.34841201 1.41725 1246514252
0.28241399 0.349518 1.41719 1246316873
0.28524801 0.34953499 1.4173 1246711631
0.28099099 0.35062501 1.41713 1245987908
0.28382501 0.350642 1.41724 1246448459
0.286659 0.350658 1.4173501 1245329978
0.282401 0.35174799 1.4171799 1245198392
0.28381199 0.35287201 1.41723 1245329978
0.53152001 0.238794 1.00616 1225526284
0.53053498 0.23956101 1.00612 1226250007
0.53249699 0.239572 1.0062 1225592077
0.529549 0.240327 1.00608 1244014118
0.53151101 0.240338 1.00615 1226447386
0.53347403 0.24034999 1.00623 1225657870
0.53052598 0.24110501 1.00611 1244211497
0.53150302 0.24188299 1.00614 1244211497
0.138172 0.33283699 1.35166 1226184214
0.136811 0.33389601 1.3516001 1226250007
0.139521 0.33391199 1.3516999 1244277290
0.13545001 0.33495399 1.35154 1226184214
0.13816001 0.33497 1.35164 1244211497
0.14087 0.334986 1.35175 1245922115
0.13679899 0.33602801 1.35158 1243816739
0.13814799 0.337102 1.35163 1245593150
-0.27331099 0.35458601 1.40959 1247698526
-0.27474901 0.35570499 1.40953 1246711631
-0.27188501 0.355721 1.40964 1248093284
-0.27618799 0.356823 1.40947 1247106389
-0.27332401 0.35684001 1.40958 1248224870
-0.27046001 0.356857 1.40969 1248685421
-0.274762 0.35795799 1.40952 1247961698
-0.27333599 0.35909301 1.40957 1249277558
-0.35628501 0.35737699 1.40591 1247237975
-0.357723 0.35849601 1.4058501 1246711631
-0.35486001 0.35851201 1.40596 1246514252
-0.35916099 0.35961401 1.40578 1246711631
-0.356298 0.35962999 1.4059 1247172182
-0.35343501 0.35964701 1.40601 1248093284
-0.35773599 0.36074901 1.40583 1247632733
-0.35631099 0.36188301 1.40589 1248356456
-0.145207 0.35720199 1.40904 1246053701
-0.146639 0.358316 1.40898 1246185287
-0.143787 0.35833299 1.40909 1245922115
-0.148072 0.35942999 1.40892 1246514252
-0.145219 0.359447 1.40903 1246316873
-0.14236701 0.35946301 1.40914 1245790529
-0.146652 0.36056 1.40897 1246909010
-0.14523201 0.361691 1.4090199 1246777424
0.74136502 0.41104299 1.6146801 1226315800
0.73975497 0.412294 1.61461 1243619360
0.74295998 0.41231301 1.61474 1226118421
0.73814499 0.413546 1.61454 1245658943
0.74135101 0.41356501 1.61467 1244343083
0.74455601 0.41358399 1.61479 1243619360
0.73974103 0.41481599 1.6145999 1246382666
0.74133599 0.416087 1.61465 1246448459
-0.026175 0.35799 1.39361 1245922115
-0.0275867 0.359088 1.39355 1245724736
-0.024776001 0.35910401 1.3936599 1245987908
-0.0289983 0.360185 1.39349 1245790529
-0.026187601 0.36020201 1.3936 1246382666
-0.023376999 0.36021799 1.39371 1246251080
-0.027599201 0.36129901 1.39354 1247040596
-0.026200199 0.36241299 1.39359 1247698526
0.57950699 0.384664 1.49331 1246843217
0.578017 0.38582301 1.49324 1248553835
0.580984 0.38584 1.49336 1246645838
0.576527 0.38698101 1.49318 1271318214
0.579494 0.38699901 1.4933 1267962771
0.582461 0.387016 1.49341 1247501147
0.578004 0.38815799 1.49323 1271515593
0.57948101 0.38933399 1.4932801 1271449800
-0.229376 0.36250299 1.3822 1249080179
-0.230784 0.36359799 1.38214 1266778497
-0.22798 0.36361501 1.38225 1248093284
-0.23219199 0.36469299 1.38208 1249540730
-0.229388 0.36471 1.38219 1248751214
-0.226585 0.36472601 1.3823 1247237975
-0.23079699 0.365805 1.38213 1249343351
-0.22940101 0.366916 1.38218 1248027491
-0.25806999 0.36735499 1.39107 1249080179
-0.25948799 0.368458 1.391 1247566940
-0.25666401 0.36847499 1.39112 1249474937
-0.26090699 0.36956099 1.39094 1247106389
-0.25808299 0.369578 1.39105 1248488042
-0.25525799 0.36959401 1.39117 1249869695
-0.25950101 0.37068099 1.39099 1247106389
-0.258095 0.37180001 1.39104 1247566940
-0.25276801 0.29111099 1.11669 1245987908
-0.253901 0.29199201 1.11664 1243619360
-0.251645 0.292005 1.11673 1248224870
-0.255034 0.292873 1.11659 1244079911
-0.25277799 0.29288599 1.11668 1245132599
-0.25052199 0.29289901 1.11677 1247895905
-0.25391099 0.29376701 1.11663 1243816739
-0.25278801 0.29466099 1.11667 1244672048
0.064633898 0.364364 1.38257 1246711631
0.063237503 0.36544999 1.3825099 1247566940
0.066017903 0.365466 1.38262 1245987908
0.0618411 0.36653599 1.38245 1247237975
0.064621501 0.366552 1.38256 1246580045
0.067401901 0.366568 1.38267 1246185287
0.063225098 0.36763799 1.3825001 1246448459
0.064609103 0.36873999 1.38255 1245527357
-0.223087 0.37883899 1.37025 1247501147
-0.224482 0.379924 1.37019 1248619628
-0.22170401 0.37994 1.3703001 1247961698
-0.225878 0.38100901 1.37012 1249343351
-0.22309899 0.38102499 1.37023 1249014386
-0.22032 0.381042 1.37035 1247830112
-0.22449499 0.38211 1.37017 1266778497
-0.223112 0.383212 1.3702199 1266844290
0.26253599 0.377269 1.37079 1245922115
0.26115999 0.37833899 1.37073 1245593150
0.26390001 0.378355 1.37084 1246645838
0.25978401 0.37940899 1.37067 1245790529
0.26252401 0.37942499 1.37078 1247106389
0.265264 0.37944099 1.37089 1246251080
0.26114801 0.38049501 1.37072 1245856322
0.262512 0.38158101 1.37076 1246580045
0.56339997 0.33196801 1.2230999 1247172182
0.56219 0.33290899 1.22305 1248224870
0.56459898 0.332923 1.22315 1247237975
0.56098002 0.33385 1.223 1248817007
0.563389 0.333864 1.2230901 1248224870
0.565799 0.33387801 1.2231899 1247237975
0.56217903 0.33480501 1.22304 1248817007
0.56337899 0.33576 1.22308 1248685421
-0.36983201 0.37268901 1.3391401 1248553835
-0.37120101 0.37375399 1.33908 1247895905
-0.36847499 0.37377 1.33919 1249343351
-0.37257001 0.374818 1.33902 1247698526
-0.36984399 0.37483501 1.33913 1248817007
-0.36711699 0.37485099 1.33924 1249014386
-0.37121299 0.37589899 1.33907 1247895905
-0.369856 0.37698001 1.33912 1247895905
-0.043793902 0.065408103 0.80251598 1244474669
-0.044571701 0.065997101 0.80246103 1243948325
-0.043037999 0.066026703 0.80254698 1243948325
-0.045349602 0.0665861 0.802405 1245198392
-0.043815799 0.066615701 0.80249202 1246251080
-0.042282101 0.066645302 0.80257899 1246909010
-0.044593699 0.067204803 0.80243701 1249343351
-0.043837801 0.067823403 0.802468 1266975876
-0.270078 0.13608401 1.09563 1246448459
-0.27117801 0.136916 1.09556 1248224870
-0.26901001 0.136958 1.09568 1244737841
-0.272277 0.137749 1.09548 1248224870
-0.270109 0.13779099 1.0956 1246580045
-0.267941 0.137833 1.0957201 1244211497
-0.271209 0.138623 1.09552 1248488042
-0.27013999 0.139498 1.09557 1246843217
0.13969199 0.207754 1.12451 1245593150
0.138586 0.208592 1.1244299 1247172182
0.14076801 0.208634 1.12455 1226710558
0.13747901 0.20942999 1.12435 1226250007
0.139661 0.209472 1.12447 1245461564
0.14184301 0.20951401 1.1246001 1226315800
0.13855401 0.21031 1.12439 1244737841
0.13963 0.21119 1.12444 1226578972
-0.073942304 0.066122197 0.801588 1244606255
-0.074721001 0.066711903 0.80153298 1243750946
-0.0731856 0.066741496 0.80161899 1244145704
-0.075499602 0.067301497 0.80147702 1246711631
-0.073964298 0.067331202 0.80156398 1247566940
-0.072428897 0.067360803 0.801651 1248027491
-0.074742898 0.067920797 0.80150801 1249672316
-0.073986202 0.068540096 0.80154002 1267041669
0.26294199 -0.40526301 1.73821 1243750946
0.261213 -0.40395299 1.73808 1226184214
0.26462299 -0.403887 1.7382801 1244737841
0.25948301 -0.402643 1.73796 1225723663
0.26289299 -0.402578 1.73815 1244343083
0.26630399 -0.40251201 1.73835 1245329978
0.26116401 -0.40126801 1.73803 1226118421
0.26284501 -0.39989299 1.7381001 1244145704
0.12581301 -0.48597899 2.0846601 1246448459
0.123715 -0.48438999 2.0845101 1267831185
0.12785301 -0.48431 2.0847499 1245922115
0.121616 -0.48280001 2.0843599 1269147045
0.125754 -0.482721 2.0846 1245856322
0.12989201 -0.48264101 2.08483 1246580045
0.123655 -0.48113099 2.08445 1268291736
0.12569501 -0.479462 2.0845301 1245922115
-0.50739503 -0.44204399 1.87988 1249343351
-0.50931799 -0.440588 1.87975 1248488042
-0.50552702 -0.44051501 1.8799599 1249606523
-0.51124102 -0.439132 1.8796099 1247830112
-0.50744998 -0.43905899 1.87982 1248422249
-0.503658 -0.438986 1.88004 1249014386
-0.50937301 -0.437603 1.8796901 1247369561
-0.50750399 -0.43607399 1.87976 1247566940
0.56200302 -0.0148367 1.87014 1226710558
0.56014502 -0.01343 1.87001 1208420103
0.56380802 -0.0133593 1.8702101 1243685153
0.55828702 -0.0120234 1.86988 1208156931
0.56195003 -0.0119527 1.87008 1226052628
0.56561297 -0.011882 1.87029 1243619360
0.56009299 -0.010546 1.8699501 1208288517
0.56189799 -0.0090686902 1.87002 1208222724
0.148261 -0.074530602 1.02267 1267962771
0.147267 -0.073777899 1.0226001 1249277558
0.14922699 -0.073740102 1.02271 1249672316
0.146273 -0.073025197 1.02253 1247501147
0.148233 -0.072987303 1.02264 1248224870
0.15019301 -0.072949499 1.02275 1243685153
0.147239 -0.072234601 1.02257 1246119494
0.148205 -0.071444102 1.0226099 1243816739
-0.20288099 -0.0160561 0.84894502 1268160150
-0.203715 -0.0154243 0.84888601 1268225943
-0.20207 -0.0153926 0.848979 1267765392
-0.20455 -0.0147926 0.84882599 1269344424
-0.202905 -0.0147608 0.84891897 1268949666
-0.20126 -0.0147291 0.84901202 1268883873
-0.203739 -0.0141291 0.84886003 1272107730
-0.20292801 -0.0134656 0.84889299 1272370902
-0.264366 0.38196999 1.34711 1245264185
-0.26573899 0.38303801 1.34705 1246119494
-0.26300499 0.38305399 1.34716 1245658943
-0.26711199 0.384105 1.34699 1247369561
-0.26437801 0.38412201 1.3471 1247961698
-0.26164401 0.38413799 1.34721 1246448459
-0.265751 0.385189 1.3470401 1248488042
-0.26438999 0.386273 1.34708 1248422249
0.209995 0.030136099 0.846668 1247237975
0.209186 0.030748099 0.84661001 1249474937
0.21077999 0.0307789 0.84670001 1245856322
0.208378 0.031360202 0.84655303 1249606523
0.20997199 0.031390902 0.84664297 1248027491
0.211565 0.031421699 0.84673297 1245790529
0.20916399 0.0320029 0.84658498 1249869695
0.209949 0.032645699 0.84661698 1249145972
-0.108684 -0.0149015 0.84473199 1272370902
-0.109508 -0.0142773 0.84467298 1272568281
-0.107883 -0.014246 0.84476501 1271252421
-0.110332 -0.0136531 0.84461403 1272436695
-0.108707 -0.0136218 0.844706 1271515593
-0.107082 -0.0135904 0.84479803 1269673389
-0.109531 -0.0129976 0.84464699 1271844558
-0.10873 -0.012342 0.84468001 1269607596
0.155939 -0.172323 0.95304197 1269673389
0.15502 -0.171627 0.952977 1271120835
0.15683199 -0.171592 0.95307899 1267370634
0.154102 -0.170931 0.95291102 1271515593
0.155913 -0.17089599 0.95301402 1267765392
0.15772501 -0.17086101 0.953116 1245922115
0.15499499 -0.170201 0.95294797 1266910083
0.15588699 -0.16947 0.95298499 1246843217
-0.44937301 -0.31909901 1.81323 1246514252
-0.45122501 -0.31769699 1.8131 1247501147
-0.44757301 -0.317626 1.8133 1245527357
-0.45307699 -0.31629401 1.81296 1247501147
-0.44942501 -0.31622401 1.81317 1246777424
-0.44577301 -0.31615299 1.81338 1245395771
-0.45127699 -0.314821 1.81304 1247369561
-0.44947699 -0.313348 1.81311 1247106389
-0.69476998 0.086033203 1.39249 1246251080
-0.69620597 0.087150201 1.3924201 1246316873
-0.69334602 0.087167099 1.39254 1245987908
-0.69764298 0.088267103 1.39236 1246316873
-0.69478297 0.088284001 1.39247 1245527357
-0.69192201 0.088300899 1.39259 1245790529
-0.69621903 0.089400999 1.39241 1245724736
-0.69479501 0.090534799 1.39246 1245066806
0.632303 0.118967 1.49875 1245132599
0.63081098 0.120127 1.49869 1244211497
0.63378203 0.120145 1.4988 1245329978
0.62931901 0.121288 1.49862 1226644765
0.63229001 0.121305 1.49874 1244211497
0.635261 0.121323 1.49886 1245658943
0.63079798 0.122466 1.49867 1226644765
0.63227701 0.123643 1.4987299 1243619360
-0.370038 -0.37902299 2.3415401 1246843217
-0.372437 -0.377206 2.3413701 1247237975
-0.367706 -0.37711501 2.34164 1245132599
-0.374836 -0.37538901 2.3412001 1247369561
-0.370105 -0.37529799 2.34147 1245329978
-0.36537501 -0.37520701 2.3417301 1244145704
-0.37250501 -0.37348101 2.3413 1246645838
-0.37017301 -0.371573 2.3413899 1244803634
-0.318151 0.253463 1.5779999 1246711631
-0.31976101 0.254682 1.57789 1246777424
-0.316587 0.25474301 1.57807 1248224870
-0.32137001 0.25590101 1.57777 1246711631
-0.31819701 0.25596201 1.57795 1248159077
-0.31502301 0.25602299 1.57813 1248093284
-0.31980601 0.25718099 1.57784 1247501147
-0.31824201 0.258461 1.5779001 1248159077
-0.14871199 -0.36545101 2.5251701 1268883873
-0.15129 -0.36349899 2.5249901 1269147045
-0.14620601 -0.363401 2.52528 1270594491
-0.153869 -0.36154601 2.5248001 1268752287
-0.148784 -0.36144799 2.52509 1269936561
-0.1437 -0.36135 2.5253799 1271581386
-0.151363 -0.359496 2.52491 1269673389
-0.148857 -0.357445 2.5250101 1271647179
0.112037 -0.14012501 0.98382998 1247501147
0.111083 -0.139402 0.98376101 1248093284
0.112964 -0.139366 0.983868 1267502220
0.110128 -0.138679 0.983693 1249014386
0.11201 -0.138643 0.98379999 1249672316
0.113891 -0.138607 0.98390597 1268489115
0.111056 -0.13792001 0.98373199 1248948593
0.111983 -0.137162 0.98377001 1267107462
0.146769 0.062426701 0.80270499 1244540462
0.14598 0.063040301 0.80267 1244540462
0.147551 0.063049503 0.802733 1248027491
0.145191 0.063653901 0.80263603 1244935220
0.146762 0.063663103 0.80269802 1246909010
0.148334 0.063672401 0.80276102 1249474937
0.145973 0.0642768 0.80266398 1245724736
0.14675499 0.064899601 0.802692 1249080179
-0.33986101 -0.32541499 2.56581 1271252421
-0.34249401 -0.323421 2.5656199 1269870768
-0.337302 -0.32332101 2.5659201 1272634074
-0.34512699 -0.32142699 2.5654399 1249540730
-0.339935 -0.321327 2.5657301 1269410217
-0.33474299 -0.321226 2.56602 1270726077
-0.34256801 -0.31933299 2.5655401 1248488042
-0.340009 -0.317238 2.56565 1248027491
0.61161298 0.0233946 1.9602799 1244145704
0.60966301 0.024870999 1.96014 1226381593
0.61350697 0.024945199 1.9603601 1244408876
0.60771298 0.026347499 1.96 1226250007
0.61155802 0.026421599 1.96022 1226776351
0.61540198 0.026495799 1.96044 1244343083
0.60960799 0.027898099 1.96008 1226118421
0.61150301 0.029448699 1.96016 1226184214
0.207874 -0.00065647898 0.90276599 1247435354
0.20700701 -3.4831501e-07 0.902704 1249211765
0.20871601 3.2614898e-05 0.90280098 1246185287
0.206141 0.00065578101 0.90264201 1249409144
0.207849 0.00068874599 0.90273899 1248159077
0.209558 0.000721708 0.90283602 1245593150
0.206983 0.00134488 0.902677 1249738109
0.20782501 0.0020339701 0.90271199 1248488042
0.204795 0.042075198 0.82082403 1248948593
0.204014 0.042667199 0.820768 1249672316
0.20555501 0.042696901 0.82085502 1246382666
0.20323201 0.043259099 0.82071298 1249738109
0.20477299 0.043288901 0.82080001 1247566940
0.206315 0.043318599 0.82088703 1245658943
0.20399199 0.043880899 0.82074398 1248488042
0.204751 0.044502601 0.82077497 1245395771
-0.0203749 0.198396 1.6853 1248224870
-0.022077899 0.19968601 1.6851799 1248027491
-0.0187199 0.199751 1.68537 1248948593
-0.023781 0.200975 1.68506 1248290663
-0.0204229 0.20104 1.68525 1249409144
-0.017064899 0.201105 1.6854399 1249474937
-0.022126 0.20232999 1.68513 1248882800
-0.020470999 0.203684 1.6852 1249343351
-0.099779502 -0.0347641 0.88206702 1266910083
-0.100642 -0.034111001 0.88200498 1268686494
-0.098941401 -0.034078199 0.88210201 1266778497
-0.101504 -0.033457998 0.881944 1269936561
-0.099803798 -0.0334251 0.88204002 1268028564
-0.098103203 -0.033392299 0.88213599 1266844290
-0.100666 -0.032772101 0.88197899 1269870768
-0.099828102 -0.032086201 0.88201302 1269410217
-0.23963501 -0.119765 1.0154901 1248817007
-0.24064399 -0.119001 1.0154099 1248882800
-0.238655 -0.118963 1.01553 1267239048
-0.241653 -0.118237 1.01534 1249014386
-0.239664 -0.118199 1.01545 1267831185
-0.237675 -0.118161 1.01557 1270791870
-0.24067201 -0.117435 1.01538 1270068147
-0.239692 -0.116633 1.01542 1272173523
-0.32539701 -0.079700902 1.0193501 1246185287
-0.32641599 -0.078929499 1.01928 1243882532
-0.32440701 -0.078890704 1.01939 1267896978
-0.327434 -0.078158103 1.0192 1225921042
-0.32542601 -0.078119397 1.01932 1267699599
-0.32341701 -0.078080602 1.01943 1267765392
-0.326444 -0.077348001 1.01924 1266975876
-0.325454 -0.076537803 1.01929 1267831185
-0.17129999 0.083601303 0.80025899 1244014118
-0.172084 0.084194504 0.80020303 1244277290
-0.17053901 0.084224299 0.800291 1244277290
-0.172867 0.084787801 0.800147 1246185287
-0.171323 0.084817603 0.80023497 1246645838
-0.169778 0.084847398 0.800322 1247106389
-0.172106 0.085410804 0.800179 1247830112
-0.171345 0.086033903 0.80021 1247698526
-0.25422001 0.205689 1.108 1248751214
-0.25533301 0.206532 1.1079201 1245264185
-0.25313899 0.20657399 1.10805 1249145972
-0.256446 0.20737401 1.1078399 1244014118
-0.25425199 0.207417 1.10797 1247632733
-0.25205699 0.207459 1.10809 1248882800
-0.25536501 0.208259 1.10789 1244474669
-0.25428301 0.20914499 1.1079299 1246843217
0.122275 0.121746 1.1162601 1245790529
0.121159 0.122614 1.11621 1266910083
0.123381 0.122627 1.1163 1244343083
0.120043 0.123482 1.11616 1249080179
0.122265 0.123495 1.11625 1246382666
0.124487 0.123508 1.11633 1243816739
0.121149 0.124363 1.1162 1266778497
0.122255 0.12524401 1.11624 1247303768
-0.248568 0.045957301 0.82274598 1268094357
-0.249368 0.046592802 0.82271898 1268357529
-0.247761 0.046585701 0.82276499 1268423322
-0.25016901 0.047228299 0.82269102 1249409144
-0.24856199 0.047221199 0.82273698 1249080179
-0.24695501 0.047214199 0.82278299 1248882800
-0.24936201 0.0478567 0.82270902 1244606255
-0.248556 0.048485201 0.82272702 1246974803
-0.149783 0.044614799 0.82209599 1267765392
-0.15058 0.045247499 0.82206798 1268094357
-0.14898001 0.045240398 0.82211399 1268028564
-0.15137701 0.045880102 0.82204002 1249738109
-0.149777 0.045873102 0.82208598 1249409144
-0.148177 0.045866098 0.82213199 1249145972
-0.150574 0.046505801 0.82205802 1247237975
-0.149771 0.047131401 0.82207602 1247764319
-0.18210299 0.0448558 0.82241797 1267699599
-0.18290199 0.045489501 0.82239002 1267896978
-0.181299 0.045482401 0.82243598 1268028564
-0.1837 0.046123199 0.82236302 1267568013
-0.182097 0.046116099 0.82240802 1267041669
-0.18049499 0.046109099 0.82245398 1267041669
-0.182896 0.0467498 0.82238102 1247435354
-0.182092 0.047376499 0.82239902 1247764319
0.13413 -0.362616 2.59636 1267107462
0.13147999 -0.36055499 2.59624 1267173255
0.136757 -0.360524 2.5964501 1247106389
0.12883 -0.358495 2.5961299 1268423322
0.13410699 -0.358464 2.5963399 1248093284
0.139383 -0.35843301 2.59655 1245987908
0.131456 -0.35640299 2.59622 1267173255
0.134083 -0.35431099 2.5963199 1249738109
-0.064445399 0.042453401 0.83414 1246711631
-0.065252297 0.043094002 0.83411199 1246448459
-0.063632697 0.043086801 0.834158 1247106389
-0.066059202 0.043734498 0.83408397 1246711631
-0.064439498 0.043727402 0.83412999 1247830112
-0.062819898 0.043720201 0.83417702 1248751214
-0.065246403 0.044367898 0.83410299 1248488042
-0.064433701 0.045001298 0.83412099 1249145972
-0.188241 0.36024001 1.40113 1246185287
-0.189638 0.36134899 1.40108 1246777424
-0.18683299 0.36133701 1.40116 1246645838
-0.191036 0.36245799 1.4010299 1247830112
-0.18822999 0.36244601 1.4011101 1248093284
-0.185425 0.362434 1.40119 1246843217
-0.18962801 0.363556 1.40106 1248619628
-0.18821999 0.36465299 1.4011 1248356456
0.16674399 0.0576027 0.78203899 1243619360
0.165998 0.0581953 0.782013 1243816739
0.167496 0.058188699 0.78205597 1243948325
0.165251 0.058787901 0.78198802 1245790529
0.166749 0.0587813 0.78202999 1246185287
0.168248 0.058774699 0.78207302 1246645838
0.166003 0.0593739 0.78200501 1248882800
0.16675501 0.0599599 0.78202099 1249145972
-0.50641203 -0.3752 1.78057 1247040596
-0.508205 -0.373777 1.7805001 1246909010
-0.50460702 -0.37379301 1.78061 1247764319
-0.50999701 -0.372354 1.78044 1246909010
-0.50639898 -0.37237 1.78054 1247961698
-0.50280201 -0.37238601 1.78065 1248751214
-0.508192 -0.370947 1.78048 1247830112
-0.50638598 -0.36954099 1.78052 1248553835
-0.37926599 -0.50336301 2.44857 1268554908
-0.381742 -0.50139701 2.4484799 1248093284
-0.37677199 -0.50141901 2.4486201 1268686494
-0.38421801 -0.499432 2.44839 1248685421
-0.37924799 -0.49945301 2.44854 1249672316
-0.374277 -0.499475 2.4486799 1268554908
-0.381724 -0.49748799 2.4484501 1248488042
-0.37922999 -0.49554399 2.4485099 1247961698
-0.50583601 -0.351015 1.74386 1247698526
-0.50759 -0.34962299 1.7438 1247237975
-0.50406802 -0.34963799 1.7438999 1248553835
-0.509345 -0.34823 1.74374 1247698526
-0.50582302 -0.34824499 1.74384 1248356456
-0.50230098 -0.348261 1.74394 1249409144
-0.507577 -0.346852 1.74378 1248948593
-0.50581002 -0.34547499 1.74382 1249803902
0.53633898 -0.0515467 1.88933 1226184214
0.53446299 -0.050057199 1.8892601 1225394698
0.53822899 -0.050073799 1.88937 1226184214
0.53258598 -0.048567701 1.8892 1208420103
0.53635299 -0.048584301 1.8893 1225657870
0.54011899 -0.048600901 1.88941 1225986835
0.53447598 -0.0470948 1.88924 1208420103
0.53636599 -0.045621902 1.88928 1208288517
0.093600601 -0.176045 0.95165598 1271186628
0.092679001 -0.17531399 0.95162398 1268094357
0.094529003 -0.175322 0.95167702 1271844558
0.091757298 -0.174582 0.95159203 1245922115
0.093607299 -0.17459001 0.95164502 1267239048
0.095457301 -0.17459799 0.95169801 1273094625
0.092685699 -0.173859 0.95161301 1245724736
0.093613997 -0.173135 0.95163399 1245264185
-0.114434 0.0120749 0.79942697 1270594491
-0.115207 0.012688 0.79939997 1270265526
-0.113656 0.0126812 0.79944497 1270265526
-0.115979 0.0133011 0.79937398 1268686494
-0.114429 0.0132943 0.79941797 1268686494
-0.112879 0.0132874 0.79946202 1268752287
-0.115201 0.0139074 0.79939097 1268291736
-0.114423 0.0145136 0.79940897 1268160150
-0.50958002 -0.48149499 1.7483799 1249343351
-0.511379 -0.480115 1.74827 1245724736
-0.50781602 -0.48006999 1.7484601 1269410217
-0.51317799 -0.478735 1.74816 1245856322
-0.50961399 -0.47868899 1.74835 1249211765
-0.506051 -0.47864401 1.74853 1269410217
-0.51141298 -0.47730899 1.74824 1245987908
-0.50964803 -0.47588399 1.74831 1248224870
-0.53109503 -0.25521201 1.5348001 1245461564
-0.53263599 -0.25398901 1.53474 1245395771
-0.52954298 -0.254002 1.53483 1244606255
-0.53417599 -0.25276601 1.53469 1244935220
-0.531084 -0.25277901 1.53478 1243882532
-0.52799201 -0.25279301 1.53486 1226052628
-0.53262401 -0.25155601 1.5347199 1243685153
-0.53107297 -0.25034699 1.53476 1225986835
-0.44546601 -0.364995 2.31078 1226052628
-0.447804 -0.36313999 2.3106999 1243685153
-0.44311199 -0.363161 2.3108301 1243685153
-0.45014101 -0.361285 2.3106201 1226447386
-0.44544899 -0.361305 2.31075 1246119494
-0.44075799 -0.36132601 2.31089 1245198392
-0.447786 -0.35945001 2.3106699 1246382666
-0.44543201 -0.35761499 2.31072 1248027491
-0.55862302 -0.528795 1.9874001 1270068147
-0.560673 -0.52722198 1.98727 1269410217
-0.55661201 -0.52717 1.98748 1270068147
-0.56272298 -0.52564901 1.98715 1268028564
-0.558662 -0.52559698 1.98736 1269015459
-0.5546 -0.52554601 1.98757 1269936561
-0.56071103 -0.52402401 1.98724 1267699599
-0.55870003 -0.52240002 1.9873199 1267436427
-0.22603901 -0.390266 2.5957999 1270857663
-0.228663 -0.38818201 2.5957 1268291736
-0.223395 -0.38820601 2.59585 1271778765
-0.231287 -0.38609901 2.5956099 1268028564
-0.226019 -0.38612199 2.5957601 1268357529
-0.220752 -0.386145 2.5959101 1271976144
-0.228644 -0.38403901 2.59567 1267962771
-0.226 -0.38197899 2.5957301 1268818080
0.15156201 -0.145227 0.97558397 1267699599
0.150617 -0.14447699 0.97555101 1267962771
0.152513 -0.144485 0.97560501 1248290663
0.149672 -0.143727 0.97551799 1247830112
0.15156899 -0.14373501 0.975573 1249277558
0.153465 -0.14374299 0.97562701 1246185287
0.15062401 -0.142985 0.97553998 1247961698
0.151575 -0.142243 0.97556102 1246711631
-0.226666 0.0699163 0.79610097 1226250007
-0.227439 0.070529602 0.79607397 1225789456
-0.225888 0.0705228 0.79611802 1226184214
-0.228211 0.071143001 0.79604799 1247172182
-0.226661 0.071136199 0.79609197 1247369561
-0.22510999 0.0711293 0.79613602 1248224870
-0.227433 0.071749501 0.79606497 1267370634
-0.22665501 0.072356001 0.79608297 1268291736
0.61005801 -0.244317 1.85663 1208091138
0.60821903 -0.24285699 1.85657 1208156931
0.61190999 -0.242873 1.85667 1225263112
0.60637999 -0.24139699 1.8565 1225394698
0.610071 -0.241413 1.8566099 1226250007
0.61376202 -0.24143 1.85671 1243619360
0.60823202 -0.23995399 1.85654 1245001013
0.61008501 -0.23851 1.85659 1245790529
0.143702 -0.50198799 2.0225599 1243882532
0.141653 -0.50041598 2.0224299 1208156931
0.145712 -0.50036401 2.02264 1246711631
0.139604 -0.498844 2.02231 1226052628
0.143663 -0.49879199 2.0225201 1244869427
0.14772201 -0.498741 2.0227301 1246316873
0.141614 -0.49722099 2.0223999 1226644765
0.14362399 -0.495597 2.02248 1246645838
-0.081382297 -0.33233601 2.68115 1268949666
-0.084090799 -0.33018601 2.6810601 1268686494
-0.078653999 -0.33021 2.6812201 1268752287
-0.086799398 -0.32803601 2.68097 1267765392
-0.081362598 -0.32806 2.6811199 1267502220
-0.0759257 -0.32808399 2.6812799 1267173255
-0.0840711 -0.32591 2.68103 1249145972
-0.081342801 -0.32378301 2.6810901 1248817007
-0.525042 -0.49526 1.99742 1269607596
-0.52710098 -0.49368 1.99729 1267896978
-0.523022 -0.493628 1.9974999 1269673389
-0.52916002 -0.4921 1.99717 1249343351
-0.52508098 -0.492048 1.99738 1268489115
-0.52100098 -0.49199599 1.9975899 1269607596
-0.52713901 -0.490468 1.99726 1266712704
-0.52511901 -0.488837 1.99734 1267041669
-0.211523 0.069374099 0.79771203 1226710558
-0.21229701 0.0699884 0.79768503 1225986835
-0.210743 0.069981597 0.79772902 1226052628
-0.21307001 0.070602797 0.79765803 1244145704
-0.21151701 0.070595898 0.79770201 1245132599
-0.20996401 0.070589103 0.79774702 1246053701
-0.212291 0.071210198 0.79767603 1249145972
-0.211512 0.071817704 0.79769301 1267370634
0.159963 0.117341 0.93540102 1244803634
0.159058 0.118059 0.93536901 1244211497
0.16087499 0.118051 0.93542099 1247632733
0.158152 0.118778 0.93533802 1243685153
0.15997 0.11877 0.93539 1246382666
0.161787 0.118762 0.93544197 1248093284
0.15906399 0.119489 0.93535799 1245001013
0.15997601 0.120199 0.93537903 1247566940
-0.194033 0.326233 1.4564101 1247237975
-0.19548699 0.32738799 1.45636 1247830112
-0.192568 0.32737499 1.45645 1249738109
-0.196942 0.32854199 1.45631 1248751214
-0.194022 0.32853001 1.4564 1248948593
-0.191103 0.32851699 1.45648 1248948593
-0.19547699 0.32968399 1.45634 1247698526
-0.194012 0.33082601 1.45638 1248619628
-0.47840899 0.31444901 1.4515899 1247961698
-0.47986701 0.315606 1.45154 1248356456
-0.47694099 0.315593 1.45162 1247632733
-0.481325 0.31676301 1.45149 1249014386
-0.47839901 0.31674999 1.45157 1249014386
-0.475472 0.316737 1.45166 1248356456
-0.47985601 0.31790701 1.45152 1249738109
-0.47838801 0.31905201 1.45155 1248948593
-0.160179 -0.074775897 0.94759101 1272107730
-0.16110501 -0.074041001 0.947559 1272173523
-0.159247 -0.074049197 0.94761199 1272107730
-0.16203 -0.073306203 0.94752699 1270002354
-0.160172 -0.073314399 0.94757998 1268949666
-0.158314 -0.073322497 0.94763303 1268686494
-0.161098 -0.072579503 0.94754797 1267173255
-0.160166 -0.071852803 0.94756901 1267831185
0.208699 0.0138973 0.87528002 1244737841
0.207858 0.014565 0.875251 1248422249
0.209546 0.0145576 0.87529898 1244803634
0.207017 0.0152326 0.87522203 1249672316
0.20870499 0.0152252 0.87527001 1246711631
0.210393 0.0152178 0.87531799 1244803634
0.207864 0.015892901 0.87524098 1249869695
0.208711 0.0165531 0.87526 1248882800
-0.26289701 -0.065255903 0.92611402 1270002354
-0.26380399 -0.064536102 0.92608303 1269673389
-0.26198399 -0.064544097 0.926135 1271976144
-0.26471001 -0.063816398 0.92605102 1269541803
-0.26289099 -0.0638244 0.926103 1271318214
-0.261071 -0.063832402 0.92615497 1270923456
-0.26379699 -0.0631046 0.926072 1269936561
-0.26288399 -0.062392902 0.92609203 1272305109
0.75222802 -0.13565899 2.1392601 1226118421
0.75010097 -0.13397101 2.13919 1208091138
0.75437099 -0.13398901 2.1393099 1243948325
0.74797398 -0.132282 2.1391101 0
0.752244 -0.132301 2.13924 1225855249
0.756513 -0.13232 2.13936 1243619360
0.750117 -0.130612 2.1391599 0
0.75225902 -0.128943 2.13921 1208091138
-0.219781 -0.059336901 0.91951799 1248817007
-0.22068 -0.0586235 0.919487 1248685421
-0.218876 -0.058631498 0.91953897 1248751214
-0.221579 -0.0579101 0.91945601 1268291736
-0.21977501 -0.057918102 0.91950798 1267370634
-0.217971 -0.057925999 0.919559 1249343351
-0.22067399 -0.057204701 0.91947699 1269673389
-0.219768 -0.056499202 0.91949701 1269015459
0.76953799 -0.094808303 2.1220801 1226052628
0.76742899 -0.093134001 2.12201 1208222724
0.77166301 -0.093152702 2.1221299 1243619360
0.76532 -0.091459699 2.1219399 1208091138
0.76955402 -0.0914784 2.1220601 1226184214
0.77378702 -0.091496997 2.12218 1243619360
0.76744503 -0.089804098 2.12198 1225263112
0.76956898 -0.0881484 2.12203 1226184214
-0.27305099 0.070615202 0.795605 1244079911
-0.273812 0.071229398 0.79559398 1244474669
-0.27227399 0.0712099 0.79559302 1226710558
-0.274573 0.071843497 0.79558301 1249211765
-0.27303499 0.071824104 0.795582 1247764319
-0.27149799 0.071804702 0.79558098 1246382666
-0.27379701 0.0724383 0.79557103 1268686494
-0.27302 0.073032998 0.79555899 1270462905
0.140093 -0.50488597 2.03544 1225986835
0.138072 -0.50325501 2.0354099 1245329978
0.14215501 -0.50330597 2.0353999 1225855249
0.13605 -0.50162399 2.0353799 1247106389
0.14013299 -0.50167602 2.0353799 1244079911
0.144217 -0.50172698 2.0353701 1245264185
0.13811199 -0.500045 2.0353501 1247566940
0.140174 -0.49846601 2.03531 1247237975
0.151236 -0.40642101 1.72772 1225855249
0.149528 -0.40504301 1.72769 1208354310
0.152978 -0.40508601 1.72769 1246053701
0.14782 -0.40366501 1.72767 1208222724
0.15127 -0.40370801 1.72767 1244211497
0.15471999 -0.403752 1.7276599 1248027491
0.149562 -0.40233001 1.72764 1225460491
0.151305 -0.400996 1.72762 1245922115
-0.25495201 0.161891 1.10533 1247764319
-0.256033 0.162763 1.10531 1244737841
-0.25385001 0.162735 1.10531 1248488042
-0.25711301 0.163635 1.1052999 1244277290
-0.254931 0.163607 1.1052999 1248882800
-0.25274801 0.163579 1.1052999 1248948593
-0.25601101 0.164479 1.10528 1244803634
-0.25490901 0.165323 1.10526 1248948593
-0.48004401 -0.388399 1.85386 1248224870
-0.48188099 -0.386917 1.85384 1247764319
-0.47817001 -0.38696399 1.85383 1247830112
-0.48371801 -0.38543499 1.85381 1247895905
-0.48000699 -0.38548201 1.85381 1248751214
-0.47629699 -0.38552901 1.85381 1248027491
-0.48184401 -0.384 1.85378 1249277558
-0.47997001 -0.38256499 1.85375 1266712704
-0.86099201 0.248971 1.63026 1226776351
-0.862611 0.25027701 1.6302299 1243750946
-0.85934001 0.250236 1.6302299 1244474669
-0.86423099 0.25158399 1.63021 1243948325
-0.86095899 0.25154299 1.63021 1244935220
-0.857687 0.25150099 1.63021 1245856322
-0.86257899 0.25284901 1.63019 1245593150
-0.86092699 0.254114 1.63016 1246514252
-0.48199701 -0.50538099 2.3162799 1244211497
-0.484386 -0.50354803 2.3161399 1243948325
-0.479653 -0.503488 2.31638 1245132599
-0.48677501 -0.501715 2.31599 1244145704
-0.48204201 -0.50165498 2.3162401 1244540462
-0.47730899 -0.50159502 2.3164899 1267633806
-0.484431 -0.49982199 2.3160901 1244277290
-0.48208699 -0.49792901 2.3162 1246119494
-0.93795502 0.26958501 1.54741 1243750946
-0.93949002 0.270823 1.54739 1243948325
-0.93638903 0.27078399 1.54739 1244935220
-0.94102502 0.272062 1.54737 1244079911
-0.93792403 0.27202201 1.5473599 1245132599
-0.93482298 0.271983 1.5473599 1245856322
-0.93945903 0.27326101 1.54734 1245461564
-0.93789297 0.27445999 1.54732 1246448459
0.159913 0.112727 0.92670798 1243816739
0.159016 0.11345 0.92669499 1243619360
0.16082799 0.113427 0.92669302 1246974803
0.15811899 0.114174 0.926682 1243750946
0.159931 0.114151 0.92668098 1246053701
0.161743 0.114128 0.92667902 1248422249
0.159034 0.114875 0.92666799 1245066806
0.159949 0.115575 0.92665398 1247369561
0.15275399 -0.156702 0.96631801 1246909010
0.151822 -0.15594999 0.96630502 1247698526
0.153705 -0.155973 0.96630299 1245922115
0.15088999 -0.15519799 0.96629101 1249145972
0.15277299 -0.155221 0.96629 1246448459
0.15465599 -0.15524501 0.96628797 1245724736
0.151841 -0.154469 0.966277 1248817007
0.15279201 -0.153741 0.96626198 1247895905
0.071037702 -0.383109 2.5002 1270462905
0.068537697 -0.38109201 2.50016 1270594491
0.073587902 -0.38115501 2.50016 1270462905
