# .PCD v0.7 - Point Cloud Data file format
VERSION 0.7
FIELDS x y z rgb
SIZE 4 4 4 4
TYPE F F F U
COUNT 1 1 1 1
WIDTH 1075
HEIGHT 1
VIEWPOINT 0 0 0 1 0 0 0
POINTS 1075
DATA ascii
-0.73124444 -0.00039713457 1.6446265 4284888873
-0.16450769 0.0040087439 0.9374792 4287532160
0.42024577 -0.062939256 1.1425654 4280427808
0.42076337 -0.060924541 1.1377274 4280756518
-0.091113418 0.00035803765 0.94153005 4286682743
-0.023473591 -0.0062494874 0.94895941 4286484328
0.5994339 -0.15745078 2.2729936 4278716677
-0.71259367 0.0070749335 1.654442 4285876027
-0.050554246 -0.0011518225 0.94488674 4290823306
0.79940963 0.080044813 2.1141498 4282134823
0.050673842 -0.010501616 0.95895904 4285689180
-1.0257674 0.052814327 1.4485934 4287056957
-0.67926717 0.0012046956 1.7553339 4283575844
0.028430849 -0.0011801608 0.94340044 4286218598
-0.89617741 0.05293892 1.5083747 4287913550
-0.97738719 0.06852302 1.4418299 4286796358
-0.10742852 0.019719699 0.90913826 4291407771
-0.96683693 0.06936042 1.4331973 4286861118
0.42723405 -0.040577952 1.0979196 4282596405
0.69551051 -0.13642733 2.2871485 4280425496
-0.15457204 0.029532906 0.89601374 4286940020
-0.98770154 0.085204832 1.3684838 4289030737
0.048441857 0.011445843 0.91830754 4286610282
-0.23841783 0.037775651 0.98044366 4283844162
-0.9707036 0.085031651 1.4385293 4285414700
-0.69462335 0.043944247 1.728128 4283180832
0.70668757 -0.11369206 2.2628264 4280096269
0.64026344 -0.10417534 2.2309723 4281281318
-0.84280503 0.071815275 1.5660888 4286796355
0.79790747 0.080459334 2.1194141 4282003237
-0.15083766 0.039937902 0.8805663 4287137919
-0.030377597 0.027668366 0.89475125 4294625453
0.43427259 -0.023787189 1.0717207 4281610023
-0.74642169 0.065057121 1.6941655 4284298280
-1.0236378 0.10652195 1.421721 4287649090
0.050567418 0.026759949 0.88797307 4293577385
-0.054084867 0.0390132 0.87493491 4294560172
-0.9046154 0.10668682 1.5269197 4285347883
-0.11333555 0.053038806 0.85270011 4288648840
0.44036177 -0.008576069 1.0484093 4281676585
0.6411314 -0.069498762 2.3320143 4281280029
-0.064658195 0.048756808 0.85712433 4294494637
0.75656867 -0.081242025 2.3908057 4280555538
-0.14169666 0.061231002 0.84575367 4288909439
0.047623605 0.041709244 0.85883486 4294102958
-0.12163344 0.060032055 0.84181637 4287866781
-0.9361937 0.12740427 1.4761684 4286596920
0.3028385 0.086963192 0.90413028 4280886816
-0.96863425 0.14946575 1.4631088 4285281578
-0.74800134 0.12422948 1.7039381 4284232747
-0.80432665 0.13683596 1.6282663 4285022769
-0.76295149 0.1346862 1.6856493 4283707427
-0.73834789 0.13142315 1.7497329 4283248161
-0.98961937 0.16230078 1.4535353 4288702293
0.006041199 0.11614423 0.84552848 4285951333
-0.82141113 0.14978585 1.6444434 4283772706
-0.83395898 0.15970975 1.6107171 4284035362
-0.96247804 0.1763979 1.5226521 4286533439
-0.86928117 0.16770545 1.5791839 4285218095
-0.35163239 0.11248444 0.82964975 4285153326
-0.79995775 0.16310814 1.6733358 4284364586
-0.97808337 0.19005395 1.4792087 4285218093
-0.75896704 0.17047231 1.7264547 4282919973
-0.77250636 0.1734772 1.7331424 4282590495
-0.97944891 0.19558428 1.4873128 4285481269
0.45874026 0.037932269 0.97380894 4282728754
0.1138525 0.077749416 0.91794789 4283126354
-0.90920496 0.21493691 1.5772398 4284496170
0.45088035 0.053769 0.94503158 4285690472
-0.93343878 0.23317622 1.5849013 4283904806
-0.1879507 0.1261504 0.83133191 4286411884
-0.97619259 0.24162361 1.5214188 4284101921
0.43849427 0.061442785 0.92443854 4285493611
-0.8484875 0.24512884 1.7596159 4280817683
-0.16468135 0.1304056 0.82358402 4287533197
-0.17194679 0.1335125 0.82591629 4282925371
-0.90602124 0.26508826 1.7857171 4280817939
-0.81171644 0.26213852 1.8329536 4280163351
-0.94035709 0.28376833 1.7413498 4280948754
-0.83260977 0.27645412 1.8220092 4280755998
-0.85698068 0.2846269 1.8046803 4279834641
-1.0408491 0.29555073 1.5459666 4283247389
-0.87349188 0.29418966 1.8026565 4280755484
-1.006749 0.31456268 1.6948479 4280751894
-0.90204275 0.30791381 1.7702099 4280360473
-0.15239426 0.1690371 0.93547159 4282202933
-0.18329716 0.20014216 1.2099847 4283322694
0.38879606 0.11858015 1.0585392 4279969571
-1.1283158 0.35416645 1.5699794 4280290050
-0.15675011 0.18337746 0.96877533 4281678131
0.39717999 0.19443777 1.9709923 4284049253
-1.1011134 0.35775283 1.60471 4280750851
-1.0007783 0.35143843 1.684732 4280821017
-0.071169734 0.24640915 1.8557422 4282863175
0.83593571 0.14739326 2.0651662 4282996817
-0.1666995 0.2099468 1.2221164 4283716682
0.3914029 0.077241033 0.92238432 4280227602
-0.15960994 0.19200012 0.98871797 4280953636
-0.8336159 0.34103858 1.6952206 4284635987
-1.0553091 0.36841092 1.663591 4280163089
-0.86949003 0.34099048 1.6248472 4284307019
-0.15460464 0.19715081 1.0361152 4284769630
-0.18774357 0.27161083 1.8406863 4285823857
0.36389399 0.13822283 1.120064 4282141255
-0.18261352 0.21823752 1.213526 4284901469
-0.17859116 0.28125781 1.9304709 4285100139
0.21575561 0.23160867 1.8997767 4285102967
0.32591617 0.16507424 1.3139353 4281742904
-0.16494337 0.21014902 1.0313014 4281085222
-0.78218067 0.35936007 1.70038 4284700757
-0.9262445 0.37380552 1.6392848 4284964950
-0.16222718 0.21777387 1.0856956 4285362282
0.12051699 0.26099756 1.8563319 4281813833
-0.50312853 0.33432147 1.7481687 4285296227
-0.54360127 0.34208959 1.7434952 4286085231
-0.16388074 0.2379045 1.2259482 4283057982
-0.085601866 0.28708893 1.8023456 4282601807
-0.93634868 0.38015884 1.5916526 4284701776
0.37400958 0.16032116 1.1611881 4279706912
-0.22115651 0.30549508 1.7651976 4283520333
-0.14138296 0.30218938 1.7953798 4282468421
0.21253181 0.25942758 1.8400781 4282142798
-0.75620496 0.37653339 1.6658146 4281346089
-1.0017208 0.40094852 1.5615493 4284963921
-0.70452654 0.37646028 1.6772739 4285690471
-0.57747698 0.36099678 1.6808079 4284243539
-0.13590488 0.31219169 1.7673564 4283192915
-0.18253866 0.24570729 1.1243821 4281940788
0.47637409 0.24253677 1.8751734 4282142795
-0.16358653 0.25673646 1.2336195 4283518790
0.035250276 0.29459888 1.7933691 4281088570
0.73265779 0.21777597 1.9400432 4281286717
-0.75906324 0.38950366 1.6408794 4279243279
0.36211446 0.1918589 1.2302201 4279903523
-0.16279617 0.26991218 1.2355207 4282728759
0.43463659 0.26461387 1.8549256 4280892986
0.20098135 0.29151201 1.8001369 4280826425
-0.02999419 0.32136726 1.7503858 4282667345
-0.75510311 0.40831682 1.6289301 4281216295
-0.26014081 0.34615573 1.6829082 4284770396
0.33152816 0.22449458 1.3264185 4282074434
-1.0082805 0.43555865 1.4641304 4291661114
0.7783215 0.23990479 1.8831127 4281680955
0.77627963 0.23958424 1.8691556 4282010176
0.31406173 0.23260394 1.3245236 4281483067
0.098994181 0.32736823 1.7425623 4281352766
-0.15915704 0.29922098 1.2404554 4283059525
0.19006068 0.32549432 1.7475663 4282208078
0.33070785 0.24651171 1.3417302 4280230174
-0.19923642 0.37261862 1.668582 4285428330
-0.98851955 0.46855599 1.5284441 4279439111
-0.73713982 0.43841809 1.5613952 4281284146
-0.60863268 0.42420247 1.590737 4284967262
-0.35571882 0.39460158 1.6289897 4284770653
-0.20744547 0.3257696 1.309366 4281743152
-0.99133027 0.4721157 1.5136647 4281611816
-0.73677313 0.44204065 1.5593085 4281349938
-0.94431973 0.46594954 1.5093735 4281082651
-0.47836021 0.41408974 1.6138691 4286810236
-0.35143831 0.39833009 1.6231606 4283257414
0.069830969 0.35233992 1.715057 4282603349
-0.20890495 0.38860503 1.6526701 4285625963
-0.47964659 0.41866013 1.5830439 4284178516
-0.43773028 0.4163231 1.5989311 4285231204
0.33142403 0.26418138 1.3350939 4281351481
-0.91711318 0.47756225 1.4991838 4280688918
0.30378464 0.29920867 1.5132599 4281813833
-0.12497902 0.39086372 1.655073 4284968553
-0.74737418 0.46470028 1.5030706 4281019682
-0.40827325 0.4301511 1.5759113 4284637784
-0.75875568 0.47020671 1.4951124 4280097557
-0.115657 0.39736822 1.6334974 4284508000
0.13410375 0.36839369 1.683246 4281418562
-0.22840652 0.41195926 1.6050195 4285230950
-0.044470459 0.39742923 1.6161678 4281943365
0.080040932 0.38793331 1.6479279 4282800473
0.3006103 0.34802768 1.6070467 4279378465
-0.51512635 0.46120995 1.5233177 4285033055
0.33362389 0.29791042 1.343399 4281481784
0.29714137 0.36270154 1.6579326 4279444769
-0.23023871 0.4321855 1.582386 4285295462
-0.19790277 0.42820308 1.587708 4285296997
0.33392018 0.30108768 1.3447459 4281481784
-0.60346615 0.47966698 1.5086768 4284375125
0.75681746 0.31851974 1.7612349 4282073920
0.16983703 0.38990054 1.6525741 4280760886
0.24958557 0.38227254 1.658015 4281550406
-0.046755433 0.41781369 1.5971321 4280958008
-0.40098646 0.46398669 1.5252651 4286481015
-0.47216371 0.47595292 1.5168508 4285954671
-0.29164973 0.45727864 1.528028 4283980114
-0.091522157 0.43440354 1.5649201 4282207049
0.12289712 0.41079944 1.6094342 4282996823
-0.17734453 0.4495357 1.5606718 4285429360
0.41205814 0.074715272 0.92113692 4279965967
0.43282938 0.064134769 0.92372829 4285362021
-0.28990427 0.46457902 1.5290784 4286217843
0.024593443 0.42917418 1.5817506 4281550145
0.2558476 0.40417382 1.6269283 4281090110
0.26277649 0.4037576 1.6302224 4280958779
-0.12574503 0.13480815 0.81771052 4281344789
-0.51058996 0.48858559 1.493764 4284375895
0.098570645 -0.59290403 2.3725698 4283383088
-0.92349648 -0.30305544 1.4413227 4281999648
0.32932052 -0.50399089 2.0015368 4281152307
-0.63524652 -0.59735066 2.5898333 4288120455
-0.7440393 -0.33521849 1.6263118 4283971640
0.14562729 -0.49903911 2.1503272 4282593315
-0.62865341 -0.39415997 1.9182177 4283644727
-0.61294019 -0.61231852 2.8397126 4288909436
-0.81609035 0.48395526 1.502279 4279831816
-0.82421696 0.4846383 1.4991612 4279765766
-0.6826551 -0.4806155 2.5449541 4283385669
-0.11007425 0.13311714 0.8215636 4281081623
-1.0206718 0.50192267 1.4815167 4283710233
0.32100996 -0.2137865 1.1327776 4289758561
-0.85634279 0.47589299 1.4805357 4278848001
-0.63805687 -0.44921353 2.5701704 4281739812
-0.34499088 -0.52846104 2.8960419 4290749838
0.32989192 -0.18492921 1.0228416 4288183140
-0.090195179 0.13103819 0.8278411 4280753170
0.30756012 0.28836232 1.4905788 4282339404
-0.07715255 -0.51806623 2.888025 4291603091
-0.62413716 -0.25492257 1.8136404 4282985763
-0.95312631 -0.15025331 1.3966007 4279632899
-0.58407223 -0.28061306 1.9905353 4286273356
-0.085136771 -0.48618191 3.0071611 4289630326
-0.023808986 -0.48874247 2.9996243 4289630069
0.34228683 -0.17198572 1.1137241 4288573527
-1.0052092 -0.13886952 1.431118 4279830537
-0.16585752 -0.44095123 2.9335473 4289500032
-0.13579747 -0.4441466 2.94068 4289434498
-0.89815962 -0.14405333 1.4818949 4283904042
-0.22768292 -0.4382796 2.9550819 4289369730
-0.35889986 -0.41943216 2.9083829 4289500802
-1.0178611 -0.11461358 1.4571087 4281669382
0.51526845 -0.35100707 2.2779262 4278453507
0.56746197 -0.435238 2.8711958 4280164894
-0.75898051 0.42169023 1.6113762 4281613106
0.0062386394 -0.12072387 1.1271425 4284571991
0.0081219971 -0.1208428 1.1270517 4284375123
-0.12875816 -0.10848333 1.1152945 4281278490
-0.067797095 -0.11347122 1.1198061 4281540629
0.69523203 -0.3444111 2.3359952 4283120691
0.083618343 -0.34582627 2.6535516 4280950037
-0.90100205 -0.097903669 1.4858212 4289161562
0.11986271 -0.12839632 1.2131222 4283916639
0.35656574 0.20819215 1.273082 4280101417
-0.17383116 -0.086740971 1.0767614 4292825947
0.51724374 -0.33602691 2.4864392 4278190592
0.052017123 -0.12140474 1.2123513 4284245603
-0.95935512 -0.078865096 1.4468815 4285544232
-0.18865731 0.26662996 1.1729794 4281874995
-0.26432684 -0.071029469 1.1357687 4284037428
-0.15362594 -0.048628505 1.0160408 4294364078
0.019216925 -0.05995645 1.0392646 4293708465
-0.053956568 -0.051867526 1.0271382 4293773998
-0.037212461 -0.053513769 1.0298144 4293378219
0.27863634 -0.094147116 1.1836077 4283650122
-0.97338223 0.39004755 1.5726495 4284569677
0.81969738 -0.28376979 2.5900011 4279308816
0.33839807 -0.093640685 1.175235 4286474582
0.29405627 -0.088858113 1.1814148 4287132255
-0.70680559 -0.052677188 1.6397595 4282062609
-0.93253398 0.37880564 1.5969412 4284701777
0.031028301 -0.045724254 1.0225105 4285502864
-0.68691981 -0.03508639 1.6742531 4282853150
-0.85118496 -0.0014895163 1.5041167 4286530870
-0.08141619 -0.019961003 0.9726494 4287408259
-0.7770592 -0.014188346 1.5903261 4285742898
-0.79655766 0.34413877 1.6868308 4284306251
-0.065182239 0.12819672 0.83100301 4280160530
-1.0796992 0.37555343 1.6589029 4279506699
-0.15143988 0.0076316111 0.9270522 4291210877
-0.16195664 0.011007704 0.92646509 4287268727
-0.064997554 0.00914477 0.92846543 4285956972
-0.048349947 0.12649263 0.83749843 4280621332
-0.94424403 0.068768054 1.4516907 4287255102
0.075685933 0.0075128563 0.91576958 4287267190
-0.94232309 0.32475904 1.7229524 4279768590
0.023738831 0.0146826 0.91562122 4286607714
-0.0040139854 0.018255226 0.91214389 4286015834
-0.068164885 0.025689714 0.90103471 4287070579
-0.043167144 0.12587862 0.83762372 4280752914
-0.11504838 0.037244588 0.88055253 4292127891
-0.1118004 0.036934428 0.88047969 4292127891
0.11997892 0.12447651 0.87698793 4281017891
-0.96645141 0.11914296 1.4573011 4286137400
0.047142804 0.13203008 0.85427701 4280754974
0.01135987 0.13615881 0.84965724 4280754975
-0.01375711 0.13926294 0.8496393 4281084192
-0.073031694 0.14584987 0.83803827 4281017886
-0.11743623 0.15092285 0.83151513 4281346337
0.094507173 0.036881529 0.86182541 4290555777
-0.14092097 0.062690035 0.84294999 4288120441
0.040217489 0.045388099 0.85524356 4294757296
0.032727152 0.046897683 0.8536762 4294888371
0.020627141 0.048864767 0.85275072 4294691760
-0.034055144 0.056082889 0.8440032 4294692528
-0.017968357 0.054368526 0.84697497 4294626223
-0.0070954263 0.053235587 0.84776396 4294757039
0.23574826 0.11053438 0.89370161 4280821539
-0.047874123 0.058236759 0.84303445 4294822831
-0.061437219 0.06041972 0.8394292 4294889138
0.094652832 0.043664351 0.87369436 4289952613
-0.091430873 0.064311393 0.83510476 4294625963
-0.088935167 0.064062625 0.83464438 4294757295
-0.87121093 0.29414716 1.7806573 4279834388
-0.73545694 0.13264321 1.7450404 4283576616
0.27300489 0.097582579 0.89260763 4285622882
-0.13941726 0.083030902 0.83537811 4288449921
-1.0362509 0.28783768 1.5412372 4283707681
0.33424747 0.085237309 0.90334082 4283586380
0.34336698 0.082841471 0.90481645 4283124294
0.23674898 0.094798334 0.88808572 4281542432
0.23406522 0.095094308 0.88755935 4281674018
0.20049924 0.099056706 0.88645041 4281608225
0.14385077 0.10519598 0.87307578 4281542947
-0.96403813 0.19834457 1.5302911 4285744439
0.12511855 0.10735355 0.87132871 4281543710
0.1036351 0.10979338 0.86859834 4281739811
-0.13173607 0.104955 0.85583496 4290613622
-0.11406276 0.10376087 0.85877675 4290417273
-0.10356006 0.10263278 0.86165214 4290351479
-0.091030329 0.1012594 0.86347759 4290416760
-0.064111948 0.098353356 0.86998856 4290480504
0.097506627 0.080769837 0.90118968 4289561713
0.094328344 0.11075951 0.86550939 4281805604
-0.027089655 0.095046371 0.87643099 4290284153
-0.0035740435 0.092495427 0.88143808 4289758066
0.037717789 0.088012949 0.89005101 4289823600
0.073210016 0.084160298 0.89746976 4289889908
0.071974933 0.11317502 0.860084 4281477917
0.048715413 0.11572862 0.85528147 4281345054
0.036536932 0.11703974 0.85222346 4281410844
0.020933568 0.11883666 0.85076272 4280950556
-0.0053348839 0.12173985 0.8457433 4280885272
-1.0032989 0.23897521 1.5096447 4282850583
-0.021338612 0.12351792 0.84288144 4280491027
-0.67199016 -0.48039192 1.8393239 4281539866
0.065944314 0.084961891 0.89667183 4289890678
0.010776252 0.090931728 0.8841024 4289758066
-0.078829616 0.099967226 0.86788392 4290481528
-0.61885679 -0.49828923 2.6003768 4282067498
0.15913388 0.10361122 0.87818563 4281739300
-0.74760902 -0.24848624 1.5839157 4281602829
0.36485583 0.080213204 0.90360463 4283518541
-0.5557251 -0.47969645 2.6645739 4283649093
-0.75058496 0.46379381 1.5179884 4279835922
0.12916088 0.053893678 0.93123108 4285231730
-0.67728794 -0.22830378 1.6145229 4282919465
0.2561613 0.099603087 0.89217353 4285557093
-0.56514978 -0.4180989 2.8869078 4282794303
-0.15358162 0.153791 0.82898414 4281544742
0.067873538 0.047196947 0.87065274 4289556312
0.076263189 0.04024145 0.85791159 4290620031
0.11826807 0.028547268 0.96731526 4285297523
-0.91890728 -0.083997265 1.4718482 4287254850
-0.85946465 -0.089982539 1.5223002 4288503373
-0.74885416 -0.088948995 1.5965509 4281798415
0.39172718 -0.1290399 1.2338533 4278980109
-0.73495245 -0.076921299 1.6141297 4281733393
-0.23233899 0.31791776 1.7633678 4285296486
-0.0085898638 -0.057041053 1.0331689 4293905331
-0.068502575 -0.049971033 1.0205829 4293839791
0.32683352 0.18488644 1.317763 4281019943
-0.96515441 0.3881911 1.6048415 4285293914
-0.096340805 0.026968265 0.89858502 4289447338
-0.08367753 0.27754647 1.8212733 4282403401
-0.97474921 0.018269643 1.4162443 4288241747
-0.90580428 0.36517334 1.636734 4284833363
-1.0755709 0.37493435 1.6579758 4279901202
-0.25145385 0.0044946261 1.0309552 4282920491
-0.86957538 0.33843404 1.6610123 4285029715
-0.04249233 -0.0026835836 0.94512326 4287730042
0.4357475 -0.018736362 1.0631589 4282201650
0.37135103 -0.6948691 2.3778687 4278979333
-0.70041347 -0.41782388 2.5335646 4282726199
-1.1045281 0.018728126 1.4657289 4287714113
-0.11663237 0.15078811 0.83544225 4281083941
-1.1007239 0.3878023 1.4989234 4281273856
0.14326772 -0.49997342 2.1562884 4284436284
0.39218301 0.10866607 1.0362391 4282271040
-0.098814458 0.12666339 0.82323182 4286411628
-0.1640524 -0.027087644 0.98034334 4291210369
-0.092202336 0.026340492 0.89606047 4288725397
-0.032273918 0.020894375 0.90472877 4287334248
-0.087474972 0.030765954 0.89083618 4291996559
-0.90986574 -0.037178285 1.5624691 4288307280
0.2896007 -0.089396574 1.1717122 4285818711
0.049608678 0.031371787 0.87782127 4294561200
-0.1706523 -0.047886096 1.0128667 4293578151
-0.12395322 0.068338737 0.83025926 4294625452
-0.13995969 0.10061239 0.85010284 4290154363
-0.63514876 -0.12918419 1.7654423 4283971634
0.081972957 0.42004845 1.6188575 4281944649
0.39466378 -0.68513674 2.3850017 4280822055
-0.77884984 -0.43532377 1.666526 4284039231
-1.0218937 -0.48213577 1.8704768 4281868575
0.12105283 -0.63826412 2.3188956 4280756516
-0.66644394 -0.46719348 1.8131818 4280882714
-0.72308481 -0.57091081 2.2125196 4291078290
0.20559195 -0.53255057 1.9858533 4278782986
0.3412714 -0.56628162 2.0915756 4282006592
-0.67926061 -0.44718581 1.79248 4279568912
-0.63079405 -0.47748613 1.8965019 4284762695
-0.88382137 -0.38744453 1.6106536 4284762954
-0.63160527 -0.47244763 1.8956835 4283447350
0.31676045 -0.56291318 2.1110749 4278586380
0.34949517 -0.54663396 2.0533249 4283519828
-0.69744444 -0.43775514 1.7881438 4279963154
-0.99682653 -0.39020854 1.6558751 4285155912
-0.92143655 -0.37995115 1.6087754 4286669151
-0.72690082 -0.66769642 2.6596997 4290158730
-0.68990457 -0.66006905 2.658772 4290027147
-0.84914494 -0.38477463 1.6550612 4280421130
-0.71478987 -0.4153609 1.7522392 4281541150
0.18219644 -0.5063076 2.0109873 4280032796
0.093743384 -0.59816027 2.3802903 4284436805
0.21549472 -0.48519105 1.93725 4284900451
0.21965143 -0.48701781 1.9436787 4281874230
-0.76892078 -0.39481115 1.7327987 4281080607
-0.82826591 -0.6265949 2.6323388 4288053890
-0.62503779 -0.4287515 1.8674041 4282789677
-0.68993402 -0.61741716 2.6103828 4281215265
0.21959418 -0.47039503 1.9252228 4283979864
-0.70447838 -0.3723439 1.6820159 4283577396
-0.78467238 -0.35843772 1.6505042 4279896330
-0.60833406 -0.63094115 2.701987 4290156931
-0.61594784 -0.45681363 2.0276756 4288380020
-0.79383898 -0.34076977 1.6212997 4279961351
-0.7305373 -0.58189535 2.5846932 4279701520
0.34342355 -0.46191156 1.9369096 4282006592
-0.59953284 -0.5959031 2.6377411 4283382069
-0.85089493 -0.34747463 1.6811298 4279960581
-0.66934276 -0.36139011 1.71451 4282261793
0.14676091 -0.49981433 2.148288 4280687376
-0.60559416 -0.46073359 2.1182501 4282922293
-0.81852984 -0.32275698 1.603716 4280159500
-0.69414723 -0.34548032 1.6890658 4280945933
-0.60142815 -0.57100713 2.6227903 4282857015
-0.7237972 -0.33340013 1.6617023 4283641648
-0.8368659 -0.30873734 1.5834471 4279304960
-0.76583791 -0.31850219 1.6122302 4282919722
-0.65332007 -0.54709274 2.5664628 4286409575
-0.60960519 -0.41658419 2.0130994 4285944651
-0.71289635 -0.54483008 2.5762749 4282858297
-0.60129297 -0.6044631 2.8582761 4288383347
0.28531769 -0.23677811 1.112475 4280951584
-0.90935969 -0.29049429 1.57847 4282394918
-0.7327193 -0.3127799 1.6423533 4283247918
0.27715382 -0.23601094 1.1182735 4281806630
-0.36105981 0.44354519 1.5585682 4284968032
0.21307838 -0.42534137 1.9614812 4282137142
-0.89544904 -0.25344414 1.4257393 4282262047
0.24430481 -0.40853521 1.8947833 4285487444
-0.91370189 -0.25515303 1.4482014 4282657833
-0.56049263 -0.54762059 2.6795943 4284304969
-0.96715379 -0.28374475 1.6036042 4281212442
-0.60125339 -0.36785024 1.9060599 4287455832
0.31466612 -0.22718582 1.1027946 4287589461
0.35335693 -0.23278296 1.1201234 4281675302
-0.67321956 -0.49302375 2.5515432 4286344294
-0.91269016 -0.2310563 1.4096056 4281604890
-0.56690943 -0.37739885 2.0083559 4286077522
0.18438646 -0.46439254 2.2816358 4289302909
0.32115847 -0.21953762 1.1178994 4290547302
-0.62019145 -0.49052227 2.5960541 4281409566
0.23334382 0.094744563 0.88807029 4281674533
-0.69487464 -0.29011577 1.6811631 4281932055
-0.61811173 -0.33174849 1.8597844 4284955960
-0.5708003 -0.55613303 2.9031358 4287264098
-0.81111622 -0.25522378 1.5622679 4283576880
-0.62469232 -0.47846252 2.5795636 4282067756
0.2863529 -0.21156099 1.1085154 4289101923
-0.91111565 -0.22495341 1.4598686 4279503366
-0.72664118 -0.26200613 1.6085622 4282852130
-0.56858802 -0.35770726 2.0419276 4283842102
-0.68864095 -0.45053962 2.5397322 4283256141
-0.29645899 -0.53904253 2.9228058 4291406743
-0.42855427 -0.48749655 2.7105672 4291473048
-0.387018 -0.52291179 2.8762417 4291144595
-0.61655045 -0.44015512 2.5317948 4286804336
-0.67179239 -0.25158286 1.6478667 4283510829
0.10889485 -0.56231606 3.0295608 4291406737
0.0023899376 -0.54251063 2.9676244 4291733907
0.044605196 -0.54988801 2.9943876 4291734163
-0.0550358 -0.53705007 2.9661958 4291668115
0.06185697 0.11347982 0.85723895 4281741094
-0.64037859 -0.42601854 2.5706637 4281608490
-0.55309963 -0.32570204 2.0375233 4285749068
-0.58543026 -0.47320312 2.8469114 4285296744
-0.29422906 -0.50389302 2.9286673 4291868575
-0.55021822 -0.48336065 2.9148643 4287068003
-0.70131981 -0.22114828 1.5770053 4282787879
-0.40816757 -0.48865432 2.9278932 4290222981
-0.57428396 -0.33977246 2.2000663 4281081379
-0.63905299 -0.30810255 2.0575063 4284759093
0.32754722 -0.18068871 1.0940833 4283185968
-0.65328312 -0.39947695 2.565429 4280098330
0.027149409 -0.5305326 3.0915649 4289690725
0.34278339 -0.18148834 1.1032491 4288112465
0.090227455 -0.52717417 3.0675957 4288838755
-0.75912213 -0.17753881 1.4288703 4281340690
0.30469802 -0.17344514 1.098519 4286274889
0.19347468 -0.52531481 3.1033165 4289236085
0.12468401 -0.515333 3.0814354 4289301882
-0.054737508 -0.49426842 3.031234 4289761400
0.0096516907 -0.5005219 3.046577 4289891188
0.29859656 -0.17206979 1.1071308 4290547559
0.002872169 -0.49822724 3.0487735 4289170035
-0.78941321 -0.18462649 1.5289959 4283116586
-0.82242024 -0.17503452 1.4923719 4283511087
0.08300367 -0.49552691 3.0344796 4288771172
-0.5887959 -0.37424096 2.5664525 4280753177
-0.63275206 -0.21210894 1.6764849 4282985515
-0.90402842 -0.15064451 1.4230279 4282128147
-0.68617308 -0.18893152 1.5831951 4282063900
0.68866205 -0.34437987 2.0403354 4278452736
-0.54150367 -0.41398716 2.8700724 4290356373
-1.0016681 -0.14178696 1.4262391 4279305472
-0.17610571 -0.44149682 2.9369855 4289303678
-0.24079248 -0.4419044 2.9749737 4289171582
0.30624804 -0.16091019 1.1100595 4284763709
0.62735736 -0.33064643 2.0144036 4278452736
0.76579273 -0.39572191 2.3558962 4282397995
1.1810677 -0.63008296 3.6141367 4278717449
-0.61024928 -0.22689322 1.8258168 4285087803
-0.37506434 -0.41928375 2.8991706 4289499518
-0.3378776 -0.42844248 2.9413416 4289434750
-0.48808381 -0.41233307 2.9100292 4289368188
-0.43296346 -0.41755792 2.9224424 4289433981
-0.49748263 -0.41275752 2.9297316 4289040252
-0.81174779 -0.14044911 1.4066527 4283706409
-0.88389516 -0.14381608 1.4606966 4283837992
-0.58699536 -0.28911608 2.2459075 4282922803
0.23940882 -0.3466143 2.3042691 4282531132
-0.93861163 0.50674754 1.4806808 4285756262
0.22416127 -0.33089915 2.223639 4282927945
0.71609592 -0.50184733 3.1000681 4278190080
-0.56104815 -0.22957247 1.9005294 4284891963
0.52965617 -0.36044395 2.3169653 4278387714
0.53208601 -0.35534877 2.2948661 4278387712
-0.58333421 -0.21398851 1.8307756 4285219131
-0.58840346 -0.21761265 1.8651034 4284562485
0.6908983 -0.37558052 2.3844228 4281611303
-0.62424624 -0.19911259 1.7807672 4282921254
-0.66093397 -0.16911978 1.612751 4282984228
0.7675662 -0.36755511 2.369468 4282990389
-0.68712139 -0.14441845 1.4982671 4282787364
0.044507727 -0.13025591 1.1317842 4284310622
0.042710006 -0.12925604 1.1319821 4284047443
-0.98499405 -0.1157933 1.4719694 4281275401
0.18221751 -0.35696039 2.6175084 4283715917
0.0013987422 -0.12203389 1.1314569 4283981141
0.26407966 -0.35574949 2.6019301 4281348143
-0.9288131 -0.1159778 1.4858994 4280289030
-0.022760838 -0.11831016 1.1225748 4285031000
-0.01577425 -0.11906699 1.1247911 4285293659
-0.30848584 0.43415895 1.5737587 4284506971
-0.18255505 0.41712371 1.5948665 4283652172
-0.13246104 -0.1057887 1.0959826 4281673760
-0.88392973 -0.11604071 1.4946796 4281470732
-0.18763655 -0.099687435 1.0839097 4284691248
0.34644052 -0.14119229 1.1413776 4279373056
-0.16065148 -0.097684927 1.0903862 4292621899
0.31635401 -0.13132381 1.1160454 4279241216
0.70117092 -0.3972187 2.8533256 4280164633
-0.16783398 -0.092385642 1.0820937 4293481052
0.095873073 -0.1253632 1.206062 4283982430
0.1069649 -0.127597 1.2171372 4284962901
0.061321527 -0.12303629 1.2122241 4284310625
-0.1203948 -0.091540657 1.0804927 4294495149
-0.02093187 -0.10018671 1.0971459 4293114011
-0.63263202 -0.13301599 1.638657 4281736731
-0.084261209 -0.093569838 1.0850323 4294429615
0.38174042 -0.14571673 1.2778689 4278323205
-0.96802759 -0.072580598 1.4177214 4286662967
-0.24302134 -0.085084818 1.1485815 4283381294
-0.93292022 -0.075002067 1.4386305 4287320895
-0.76418161 -0.10279936 1.579163 4281799693
-0.25393912 -0.081079565 1.1458294 4284037942
-0.98225749 -0.078430168 1.5224441 4287320898
0.3016955 -0.11643858 1.156667 4287917142
-0.07033059 -0.079125054 1.0635625 4293969319
-0.12344018 -0.073579364 1.0546242 4294299054
-0.18895704 -0.066891097 1.0431941 4289041806
0.05946508 -0.10333944 1.2036593 4286154117
-0.091066748 -0.074310526 1.0573901 4293245596
-0.80107915 -0.089135624 1.577418 4286333748
0.31398359 -0.11009098 1.1345636 4283581243
-0.26553711 -0.069502316 1.1293428 4283708976
0.62997556 -0.29736391 2.5095425 4278190336
-0.14760992 -0.066104196 1.0431055 4291798150
-0.061182499 -0.073449165 1.0555665 4293574561
0.3390812 -0.11324947 1.1612293 4286208074
0.39343083 -0.12478889 1.226439 4278914316
0.68853271 -0.30932701 2.5909483 4278190336
0.70934224 -0.31458706 2.622895 4278190336
-0.864838 -0.073547386 1.5178521 4288899160
-0.91489315 -0.063799515 1.4758532 4288833624
0.017741203 -0.078301378 1.0660865 4290752126
0.39553189 -0.12128984 1.2271072 4279572500
0.87858975 -0.30803725 2.5484481 4279175428
0.020156682 -0.074298836 1.0603614 4291473283
-0.03768611 -0.06793011 1.0471882 4293903526
0.88590801 -0.31331038 2.6370111 4278387200
-1.028753 -0.041161448 1.4273713 4290608751
-0.73888028 -0.080951713 1.6127845 4281668106
0.065424919 -0.072028384 1.0586383 4287403140
-0.0017074645 -0.064312987 1.0390949 4294298285
-0.94147289 -0.10835844 1.5421745 4286465338
0.81846285 -0.28536406 2.5946825 4279308815
0.01410298 -0.059594311 1.0327067 4293643948
0.028775513 -0.060165249 1.0283527 4293251256
0.88962138 -0.29177576 2.6248493 4280163612
-0.2678766 -0.046185993 1.1024642 4283315758
-0.040145755 -0.054333448 1.0273645 4294167987
-0.031073451 -0.054845758 1.0261394 4293906359
-0.11370891 -0.046546273 1.0111673 4293773486
-0.071587563 -0.050545581 1.0207332 4293643431
-0.090997964 -0.047438696 1.0124385 4293643181
0.76222587 0.32206202 1.7832834 4282272324
-0.98929918 -0.031349614 1.4813387 4286596408
-0.90087819 -0.033645883 1.4680247 4287912267
0.33640966 -0.09201587 1.1733999 4288118123
0.29625282 -0.089760788 1.1883851 4288775278
0.83727109 -0.28426245 2.7152441 4280230174
0.070953324 -0.05611942 1.0335733 4288850839
0.90100241 -0.27477571 2.6319256 4279308048
-0.83428967 -0.042116866 1.5709934 4288043855
0.31588691 -0.085503809 1.1681001 4282990642
-0.049280256 -0.041437484 1.007303 4287471735
-0.12745777 -0.031597219 0.99068725 4290944909
-0.88390243 -0.0225273 1.4896787 4285019174
0.62564635 -0.21846914 2.3880892 4279637524
-0.259523 -0.02804213 1.0741 4286477424
0.90310133 -0.25984636 2.6293514 4279373325
-0.10081315 -0.030754223 0.98771679 4285231706
-0.046187371 -0.034662537 0.99537611 4289508756
-0.1725325 -0.019832708 0.972193 4287992190
-0.82927299 -0.020063266 1.5350286 4287781194
0.63308966 -0.20052272 2.3351851 4279835160
-0.93192005 -0.0024905503 1.4530538 4285873199
-0.018704325 -0.029628806 0.99038994 4289181575
0.034621254 -0.034356497 0.99866974 4288661385
0.083970398 -0.044510089 1.1035515 4285166709
-0.25596645 -0.013690308 1.0540426 4284700239
-0.15418798 -0.10292191 1.098285 4285412918
-0.030177623 -0.023071401 0.98150098 4286545497
-0.78219497 -0.013160523 1.5712258 4286729278
-0.16886371 -0.0096641108 0.95699489 4287794813
-0.054660738 -0.019468866 0.9703325 4289905038
-0.69965649 -0.01192173 1.5612097 4285941561
-0.15583333 -0.0048168078 0.94533205 4291210361
-0.10346451 -0.0077072717 0.95132422 4289643664
-1.0742974 0.032485053 1.447324 4288767569
-0.018559843 -0.01358949 0.96321297 4285360722
-0.8177042 0.0054949448 1.5778066 4285742381
-0.83636558 0.011928551 1.5468873 4285611308
0.23250276 0.40116873 1.6359762 4281944907
-0.81291258 0.0095451884 1.57348 4287979600
-0.88999772 0.022780016 1.4913027 4286531899
0.012131989 -0.009175729 0.95731616 4289183117
-0.042935967 0.0003535226 0.93975985 4286418282
-0.89970601 0.03615585 1.460101 4286925884
-0.9336406 0.044877142 1.4475693 4287123520
0.044980615 -0.0029592179 0.94244897 4289118858
-0.24168268 0.01748668 1.0003678 4283317817
-0.14249632 0.016485073 0.9111073 4294232235
-0.034653425 0.0082766972 0.92796457 4289444734
0.70312792 -0.13172433 2.297991 4280557594
-0.89425325 0.031141311 1.7923658 4285283631
-0.089222163 0.014945574 0.91676271 4289973419
-0.15559548 0.02433487 0.9022615 4287991938
-0.10487446 0.019903516 0.90678144 4287005553
-0.81735945 0.044658236 1.5892822 4287388492
-0.057922333 0.0173172 0.91152203 4289314444
0.074322641 0.0068365522 0.91676807 4286937713
0.054098338 0.010099571 0.91544783 4286410336
0.71104419 0.34821701 1.7296335 4282142795
-0.90548182 0.062446274 1.4903978 4287848013
0.020837739 0.014513992 0.9130764 4286541918
0.10263306 0.0018610582 1.031723 4285232500
-0.0031630099 0.017589519 0.90681267 4286541663
-0.74779916 0.046430044 1.6321675 4284034593
-0.15291464 0.034202632 0.88653898 4287006595
0.10109505 0.01335861 0.90570199 4286744432
-0.90642273 0.074284248 1.4936606 4285743665
-0.1140309 0.40948212 1.6108147 4282534208
-0.11007431 0.036119826 0.8816604 4292258448
-0.68068683 0.052152485 1.7304316 4282918687
-0.72691858 0.06269443 1.6722151 4284956725
-0.83778846 0.080764882 1.4801943 4287058759
-0.94697881 0.095920898 1.4672492 4287189057
-0.038453788 0.03919895 0.87408018 4292061065
0.049672827 0.03291893 0.87478703 4294167468
-0.14493391 0.05199426 0.85888356 4289106309
0.098125726 0.030230857 0.87036622 4290559883
0.049421355 0.035255477 0.87017435 4294168493
-0.14355335 0.055762351 0.85288483 4288908675
-0.073017329 0.049367156 0.85758942 4293836706
-0.11388478 0.054630622 0.85157859 4292534219
-0.10017064 0.054027919 0.85645103 4292323724
-0.7929914 0.099424936 1.62981 4284890157
0.072276548 0.039991885 0.8579191 4290160500
-0.80529261 0.10425268 1.5862558 4285613110
-0.95968258 0.12209255 1.4608054 4287846987
0.038115531 0.045311019 0.85282266 4294625709
-0.85288072 0.11476891 1.5468667 4286598976
0.016398117 0.04876272 0.84967756 4294625709
0.0013263822 0.050863951 0.84859914 4294690988
-0.016253769 0.053226344 0.84574372 4294690988
0.09636499 0.042506751 0.87445903 4290085228
-0.029270202 0.055143483 0.84482598 4294887854
-0.051242322 0.057918977 0.841398 4294560942
0.059022963 0.047492974 0.86530787 4289883994
-0.22483346 0.073291779 0.92365897 4282329123
-0.13784191 0.069594011 0.8321749 4290815635
-0.10698843 0.066760376 0.83172596 4294492326
-0.91529691 0.13409625 1.5408672 4286137139
-1.0428414 0.14819628 1.447984 4286333489
0.7262063 -0.024508163 2.3469014 4280095497
-1.0154063 0.15161616 1.5319401 4286532410
-0.80073237 0.13519341 1.6214417 4285153589
-0.98493791 0.15975465 1.4494941 4288439124
-0.88933241 0.15747699 1.5826161 4286468160
0.10864501 0.060779337 0.88544351 4288576622
0.3175323 0.32772055 1.3589259 4280825650
-0.84254646 0.15737656 1.634611 4283640348
-0.77811372 0.15290809 1.6913143 4283707427
0.45601916 0.030901257 0.98457146 4281873194
0.10873696 0.065128967 0.88734555 4286605921
-0.79325271 0.16704154 1.6662538 4284563249
-0.86629617 0.18315205 1.6037707 4284495912
0.12072416 0.07507354 0.90163022 4283588188
-1.0309305 0.20114487 1.4728678 4286861372
-0.23172113 0.44471055 1.5664095 4280164892
0.096960127 0.08032608 0.89978236 4289496178
-0.81290126 0.18792081 1.6867685 4283051809
0.062480569 0.084359437 0.8936519 4290087804
-0.021407813 0.093124747 0.87883937 4289692788
-0.013271391 0.09233427 0.87973118 4289693044
0.012335092 0.08992634 0.88623327 4289955189
-0.11705181 0.10298433 0.86029756 4290612091
-0.069231093 0.098431461 0.86988664 4290677880
-0.059278637 0.097496629 0.87245142 4290284664
-0.1393927 0.10593416 0.85933417 4289956734
-0.8105104 0.19940457 1.9378637 4281014805
-0.80227888 0.20363322 1.8846869 4280817681
-0.95225477 0.2104395 1.5224359 4285284917
-0.89120412 0.20629683 1.5961065 4284495657
-0.84697556 0.20992133 1.6810873 4283773992
0.45855284 0.059259038 0.95717192 4284437322
0.43867248 0.06165307 0.92640483 4285757810
0.43673986 0.062684402 0.93013895 4285822833
-0.19244787 0.12481672 0.83991134 4285031772
-0.9444716 0.23102313 1.5546221 4285679931
0.42770362 0.065413103 0.92198205 4285559918
-0.89322424 0.23031187 1.637897 4283379238
-0.86436999 0.22882143 1.6764768 4281998867
-0.8391844 0.23127839 1.8073422 4280949012
-0.75341856 0.22541991 1.885076 4280623384
0.85620642 0.077605844 2.205337 4281477920
-0.19672614 0.13111126 0.83860278 4285953127
0.72933316 0.088951789 2.0896044 4282397482
-0.88038468 0.24952531 1.8113669 4280882960
-0.77620709 0.24053031 1.8540133 4280228376
0.32414556 0.084112287 0.91008604 4280164122
0.34736776 0.081511572 0.90664423 4282203706
0.36234289 0.079802692 0.90374088 4282401087
-0.1711559 0.13298014 0.82584703 4282662194
0.28109401 0.088919334 0.90097594 4281412388
0.29067507 0.088002093 0.90291107 4281214756
0.34138197 0.082816578 0.90613437 4283453259
-0.88583076 0.25499961 1.785355 4280686610
0.26676887 0.090942785 0.89696258 4281938475
0.23948497 0.094178826 0.88977098 4281674532
-0.91630924 0.25412458 1.6406559 4283379238
-0.12247893 0.12973815 0.82042724 4287663755
0.15638219 0.1029627 0.87542105 4281806374
0.17145935 0.10154788 0.87906033 4281411616
0.17284459 0.10141023 0.87923926 4281477409
0.20164405 0.098709717 0.88623148 4280951065
0.20927212 0.097922295 0.88662064 4281542945
0.087445632 0.11029764 0.86197478 4282004780
0.11120102 0.10815249 0.8693831 4281806889
0.13952133 0.10544612 0.87523633 4281148959
0.38536274 0.081576921 0.9185313 4282135854
0.04450728 0.11515432 0.85397434 4281740581
0.057664856 0.11389178 0.85659528 4281741095
-0.019013047 0.12204108 0.84289455 4281542180
-0.01194185 0.1213416 0.84389824 4281541666
0.011674672 0.11907838 0.84866709 4281016343
0.01610288 0.11859963 0.84850413 4281147929
-0.80825078 0.2591154 1.8478277 4280623644
-0.060523719 0.12681289 0.83607078 4280753173
-0.045809835 0.12539184 0.83883548 4280752917
0.0090511441 0.13603285 0.85342455 4280886818
-0.14482734 0.13594297 0.82538176 4281673761
-0.075408667 0.12899905 0.83392912 4280554767
0.30180544 0.092210442 0.89823312 4285031006
-0.11931655 0.13390994 0.82481301 4280161033
-0.11407688 0.13335951 0.82497382 4279897605
-0.098834991 0.13191831 0.8284288 4280029194
0.016385749 0.1354197 0.85627031 4280886818
-0.82303727 0.2660929 1.8331882 4280032278
0.2461476 0.099909618 0.89174592 4285754203
-1.0229228 0.27727103 1.5963218 4283708202
-0.92201757 0.27518624 1.7251273 4280817682
-0.83402812 0.27670413 1.8103694 4281609772
-1.0449364 0.51452094 1.493677 4283908648
-0.071253508 -0.0069830865 0.95127165 4286422902
0.26803631 0.10644043 0.89913052 4280757029
-0.67371655 -0.0070485324 1.7349859 4283049500
-1.1282394 0.30413523 1.5950695 4284365355
0.19953395 0.11436988 0.89526093 4280624158
-0.99336851 0.30175769 1.7404109 4281080082
-0.77172971 0.28310889 1.8027152 4283517762
0.050547674 0.13162705 0.86627144 4280755746
0.065196112 0.1302291 0.86939359 4280821020
-0.0069593787 0.13847145 0.8528825 4280755746
-0.88896787 0.30012143 1.7745329 4279966228
-0.07084775 0.14537281 0.84051943 4280755744
-1.0695834 0.30785596 1.5783495 4281735186
-0.89446211 0.30193487 1.7702118 4279899923
-0.13898346 0.15289256 0.83025885 4280887583
-0.11876228 0.15086508 0.83317935 4280952866
0.29709122 0.35543355 1.6274905 4279246107
-0.91950762 0.31634912 1.7644737 4281807915
-0.93731642 0.32177433 1.7313244 4280032781
-0.97536659 0.33655787 1.6970365 4279900174
0.32491109 0.15790838 1.3100642 4281217070
-0.96476793 0.33766198 1.6730416 4280952861
-0.09528774 0.24850103 1.7424986 4283193426
-0.049522579 0.25273609 1.8490669 4282535756
0.30715802 0.1639291 1.3105433 4281351224
-1.0996605 0.35382462 1.60024 4280225544
-1.0131756 0.35217899 1.6759175 4280031509
-0.86101961 0.33656996 1.6810936 4284307786
0.38069212 0.1413615 1.1139814 4279903778
-0.76323795 0.33458918 1.7346537 4284307021
-0.52671623 0.30884475 1.7520573 4284440918
-0.52152479 0.30844575 1.7542077 4284309331
-0.21346045 0.27817443 1.8115875 4285494376
-0.86218452 0.33670449 1.6203982 4283912264
-0.82036495 0.33829165 1.6883959 4284898642
-0.029391497 0.26007691 1.8014058 4282273615
8.8483095e-05 0.26290655 1.8517652 4281747526
-0.14665797 0.28063273 1.8289553 4284310626
-1.0828763 0.37339678 1.6461326 4280360474
-0.53037012 0.31026173 1.6606473 4284374611
-0.48639837 0.31752422 1.7571617 4284704091
-0.88413072 0.3527728 1.6299025 4285227351
-0.89117348 0.35705787 1.6362671 4285096021
-0.18194029 0.23180199 1.2182509 4284571991
0.028527632 0.27383798 1.8391598 4282668628
-0.16360644 0.23424906 1.2240947 4282203703
0.10724872 0.2684322 1.8496274 4282011212
0.3523753 0.17162886 1.2099338 4282338635
-0.31203195 0.31247634 1.769945 4284835677
-0.27197698 0.31094342 1.773783 4285757549
0.36794135 0.17416903 1.1922389 4279705370
-0.23838124 0.31207511 1.7695695 4284178260
0.32817414 0.19490579 1.3185323 4281481781
0.39038754 0.11460825 1.0503892 4279969057
0.31028169 0.19940501 1.3217876 4281284148
-0.71780586 0.36430192 1.6728615 4283979851
-0.56354868 0.35398212 1.7449354 4285098335
-0.17402366 0.23156929 1.0847536 4282203703
-0.19118622 0.31297141 1.778196 4284572764
-0.080689818 0.29956812 1.7772833 4281944903
-0.96711469 0.38517481 1.5809771 4284899410
-0.63706243 0.35842693 1.6941518 4285427298
-0.4739742 0.34125572 1.7157236 4285493863
-0.14680633 0.30898345 1.7778885 4283784274
-1.071903 0.39342728 1.5194627 4283373824
-1.0091121 0.38755199 1.5341532 4287060756
-0.97559738 0.38806158 1.5615472 4284504399
-0.75691867 0.37506884 1.6644216 4280097816
-0.96937943 0.38691902 1.5352334 4284372811
-0.14609733 0.33200189 1.7419091 4283126347
0.46480173 0.27300999 1.8493507 4281287489
0.35206729 0.21904394 1.2995138 4279903521
-0.073707551 0.33369768 1.7508558 4282668628
0.35059646 0.22538364 1.3162009 4280297253
-0.75638151 0.40981543 1.6218364 4280363044
-0.14606044 0.35040665 1.7084391 4283784274
-0.0042920709 0.33875263 1.7339134 4282470221
-0.504812 0.38921282 1.6337129 4284769884
0.34385169 0.24188575 1.3498343 4280035878
0.10818851 0.40319118 1.6268226 4282011211
-0.098346859 0.35228577 1.6989027 4282537553
-0.63579035 0.47804832 1.5017023 4285493606
-0.19373828 0.36415303 1.6787931 4283915088
0.19220313 0.32715333 1.7533958 4282010699
0.46129397 0.30594325 1.7986187 4282077262
-0.83533716 0.48877019 1.5157331 4280162316
-0.13327762 0.36747104 1.6737828 4283652946
0.31466898 0.27760574 1.4659307 4281549891
-0.96959448 0.45360604 1.5225893 4279636233
-0.15756378 0.30486053 1.2399528 4283585356
0.04896754 0.35023648 1.7063495 4282076235
-0.12224388 0.36860195 1.6734111 4284114526
-0.39131173 0.39807102 1.6218297 4284639067
0.2411094 0.33538944 1.7458755 4282734935
-1.0119913 0.47173965 1.5688667 4279637002
0.099557921 0.35329252 1.701624 4280760631
0.055496097 0.3632766 1.6957107 4281418561
-0.05263868 0.37619305 1.6641583 4281220924
-0.60772753 0.43536323 1.5638183 4285690985
0.29705417 0.31628439 1.5662489 4282142795
-1.0191954 0.48436895 1.5157531 4280690718
-0.74190235 0.45251247 1.5446309 4280955691
0.31702781 0.30766848 1.5168263 4279508766
-0.46754768 0.43665731 1.5890399 4285757548
0.30741605 0.3313525 1.5671943 4279640865
-0.75746322 0.46635965 1.5146703 4280099099
-0.86414444 0.47653651 1.4838808 4278847235
0.0017061234 0.39014876 1.653417 4281748037
-0.29330382 0.42081112 1.5953823 4285559400
-0.6056354 0.45480633 1.5356785 4284506711
0.22447592 0.36871064 1.6802973 4281419076
-0.15630287 0.41175911 1.6125969 4285494893
-0.82738638 0.48617804 1.5145967 4280095754
-0.81484723 0.48345515 1.5090052 4279636229
-0.66583025 -0.45970184 1.8028909 4280883227
-0.63986456 -0.6024912 2.6025131 4287265146
0.13905597 -0.5083999 2.1643043 4286212692
-0.1669988 0.20955184 1.22361 4283585097
-0.61150253 -0.6141541 2.8239543 4289367931
-0.62544715 -0.36887237 1.8871939 4284368445
0.35585621 -0.20470184 1.08021 4288581765
-0.553195 -0.51841199 2.8947189 4289503634
-0.62700665 -0.25809157 1.6988757 4281274896
-0.6206919 -0.25192347 1.8066432 4284235067
-0.18214104 0.29907057 1.7887759 4284046677
-0.91402733 0.36770102 1.6183385 4284767313
-0.092280686 -0.49187982 3.0424628 4289629563
-0.6644851 -0.36529773 2.5510864 4280163870
-1.0585244 0.37080798 1.6487334 4281808433
-0.23512968 -0.44111985 2.9683568 4289106046
-0.031812429 -0.0097763054 0.95825052 4290494846
-0.011670232 -0.017111808 0.97068381 4289971083
-0.16460314 0.0029824898 0.9370141 4287005557
-0.10810003 -0.010988206 0.95634818 4285953372
0.35206884 -0.53958464 2.0384662 4283915356
-0.75351596 -0.39329475 1.7134275 4279898386
-0.74864936 0.4270891 1.5882148 4281480495
-0.61870956 -0.31045434 1.8397145 4285418053
-0.62124467 -0.29392427 1.8270786 4282985769
-0.58732855 -0.39414772 2.5621564 4284502349
0.37386954 0.16044638 1.1613187 4279902497
0.34192681 -0.17228967 1.1144073 4288967000
0.12922074 0.051409207 0.92740417 4285166963
-0.92929935 -0.1125657 1.4629294 4281734411
-0.86723232 0.29099897 1.786754 4280886813
0.77009916 -0.32231298 2.6687009 4278256128
-0.264801 -0.070861436 1.1321496 4283840303
0.012139395 -0.009272051 0.95693487 4288855175
-0.76174688 -0.48186672 1.8406159 4283774259
-0.67039812 -0.47909772 1.8331375 4282131750
-1.0277958 -0.41702417 1.6530101 4282985002
-0.72302842 -0.42806184 1.6658988 4281538069
-0.62996459 -0.49035683 1.8870203 4284960331
-0.99779058 -0.46605062 1.8476906 4285486676
-0.83518052 -0.67715567 2.6867058 4289829513
-1.3821893 -0.52339065 2.1980639 4284300603
-1.0532517 -0.43313134 1.8139009 4284168763
-0.83440375 -0.65099227 2.6418695 4283974723
0.21082851 -0.49979541 1.9544345 4282794563
-1.3857851 -0.51535547 2.1954846 4285352518
-0.62711596 -0.44875282 1.8808224 4284236869
0.3297022 -0.49503472 1.9894534 4281152307
0.15434733 -0.51072878 2.0983727 4282267442
-0.7699573 -0.38890892 1.7257594 4281210903
-0.6417495 -0.49563774 2.1484051 4283906880
-0.76982808 -0.37439567 1.6885097 4280554002
-0.5987066 -0.62055361 2.6988726 4290946439
0.33899605 -0.46654126 1.951941 4281414452
0.34004325 -0.46406254 1.9472097 4281611831
-1.2381542 -0.40847057 1.9443778 4284431159
-0.58792257 -0.6034289 2.7035995 4290551428
-0.83589101 -0.36156192 1.707083 4280619542
-0.79562509 -0.34172297 1.621792 4279567367
-0.59669495 -0.57934487 2.618767 4284107333
-0.87425756 -0.32034174 1.5856937 4281407766
-0.62346351 -0.39961943 1.9255158 4285026122
-0.76935649 -0.5511325 2.6269081 4281147936
0.39681938 -0.42818877 1.895836 4281545006
-0.62441051 -0.39779398 1.9242553 4285156679
-0.62689495 -0.39359704 1.9193362 4285025095
-0.60331011 -0.59945345 2.8567767 4288448115
-0.6062578 -0.54143077 2.6120687 4283185723
-0.58636868 -0.58019811 2.8759773 4288185969
-0.61381054 -0.50803167 2.597275 4282397489
0.25037286 -0.39580223 1.9086865 4286737501
-0.67217326 -0.49325505 2.5557494 4285225813
-0.62281621 -0.34853914 1.8678638 4285288520
-0.61778057 -0.49321413 2.5937545 4283054645
-0.68546212 -0.47775471 2.5498779 4284766809
0.14881718 -0.47474939 2.4000988 4289170287
0.046272188 -0.56619948 2.9542251 4290616959
-0.54537284 -0.56896305 3.1031392 4291209097
0.32103062 -0.21896654 1.1199882 4291204460
-0.24012849 -0.55251777 2.9888873 4291933082
-0.11590031 0.42582434 1.6520193 4283390294
-0.62191844 -0.31436589 1.8426049 4284826427
-0.40339699 -0.53451157 2.9529014 4292064669
-0.31891033 -0.53833038 2.9546847 4291604118
-0.35090861 -0.53352773 2.9479601 4291604118
0.36066732 -0.21099578 1.0902807 4286607467
-0.42713013 -0.52643788 2.938833 4291801242
-0.28086272 -0.53542936 2.95433 4290025085
0.16501567 -0.57070696 3.0905879 4292260503
-0.061880946 -0.53394562 2.9794354 4292259994
-0.048570991 -0.54426682 3.0325382 4292194201
0.26428002 -0.20364031 1.1147432 4282860350
-0.72494304 -0.24471886 1.5793213 4283773233
0.32629994 -0.20726407 1.1244466 4291861622
-0.69833457 -0.24639897 1.6181352 4282787623
-0.64153802 -0.41517353 2.5636177 4280819228
0.24298719 -0.35435364 2.0018992 4280097046
-0.57405913 -0.46878135 2.8990946 4285229923
-0.6662842 -0.2469994 1.6583505 4281734421
0.012925714 -0.52266783 3.0715559 4290415987
-0.65045023 -0.4038595 2.5689161 4280425758
-0.55497837 -0.4397558 2.7518108 4281807407
0.25592268 -0.34525383 1.9959084 4279046413
-0.37644538 -0.46190241 2.90943 4292261793
0.20683995 -0.53741115 3.1996367 4289564279
0.16216895 -0.53068304 3.185452 4290024056
0.10451964 -0.50545299 3.064127 4289301627
-0.0024437606 -0.50241256 3.1023662 4290154874
-0.078166634 -0.47860369 2.9930727 4289761147
0.34462935 -0.1843355 1.0963539 4287517758
-0.43380293 -0.4355132 2.8843436 4290025602
-0.38736847 -0.43564433 2.8717356 4290025088
0.34135455 -0.1812633 1.0974928 4286006315
-0.14157525 -0.45680094 2.9854734 4292130464
0.77722204 -0.36955371 2.1642263 4278387972
-0.56700408 -0.30762446 2.1863868 4281343774
-0.19301334 -0.45353475 2.994195 4291802015
0.29834422 -0.17786188 1.1085429 4291137908
-0.24747074 -0.44290009 2.9573312 4291998880
0.68317008 -0.33222899 1.9749784 4278255874
0.31953743 -0.37353086 2.3571877 4280826683
0.2935465 -0.17662138 1.1121774 4290679663
-0.58532763 -0.36031863 2.5612521 4281410847
-0.12717283 -0.44777334 2.9796405 4288251766
-0.19735029 -0.4350968 2.9480586 4289697414
0.65547824 -0.33187062 2.0163071 4278386688
-0.25966534 -0.43115464 2.9562273 4289500801
-0.3139976 -0.4276486 2.9649038 4289696643
0.26695263 -0.17551948 1.1392787 4282335039
-0.40335611 -0.41585129 2.9306922 4289500545
-0.36844561 -0.41808835 2.9341938 4289959811
-0.44584593 -0.40538606 2.8900223 4289565311
-0.51758277 -0.40161064 2.9027009 4289237119
0.34803993 -0.17214324 1.1121107 4283641893
-0.56790555 -0.38505936 2.838192 4279242253
0.69725788 -0.39675844 2.5000834 4278321921
-0.62018836 -0.22512683 1.7985264 4284759608
0.24557778 -0.33057061 2.2287087 4282923835
0.34149039 -0.16697749 1.1059413 4288507223
0.11439076 -0.39357212 2.7780423 4284179035
0.30269203 -0.31832582 2.2124095 4278387714
0.29217982 -0.16030332 1.1096277 4287852884
0.79055846 -0.36938003 2.3964195 4282133800
0.75857162 -0.35999274 2.3880489 4282725934
-0.55414414 -0.34337589 2.7967112 4281479728
0.72827387 -0.35248375 2.3806891 4282923056
-0.68385673 -0.16839959 1.5848424 4282656034
0.16232595 -0.35248342 2.6349425 4284242513
-0.64259553 -0.28301147 2.503839 4282201656
