VERSION .7
FIELDS x y z rgb
SIZE 4 4 4 4
TYPE F F F F
COUNT 1 1 1 1
WIDTH 1334
HEIGHT 1
VIEWPOINT 0 0 0 1 0 0 0
POINTS 1334
DATA ascii
-0.503849 0.372444 1.37005 8553090
-0.79507 0.407618 1.44761 4210752
-0.444398 -0.301093 2.00275 4013373
-0.356894 -0.37557 2.58195 7566195
-0.508753 0.37464 1.34838 7960953
-0.00535103 0.372125 1.37512 6118749
-0.241032 0.375722 1.36525 8487297
-0.221062 0.377464 1.35974 7368816
-0.402763 0.380615 1.34368 7566195
-0.694641 0.364243 1.26969 7368816
-0.252676 0.300397 1.11895 5131854
-0.592262 0.40038 1.36565 7303023
0.15129 0.216612 1.11842 4473924
0.149932 0.223552 1.13164 4013373
0.0373736 0.322355 1.46717 5658198
0.0624508 0.322216 1.46876 5526612
-0.236324 0.32561 1.44824 8092539
-0.218177 0.328988 1.44616 8026746
-0.373319 0.332157 1.44071 7303023
0.378699 0.340381 1.53116 5592405
-0.519163 0.333763 1.41921 7434609
-0.61806 0.324499 1.37181 8158332
-0.0086175 0.33089 1.44324 5197647
-0.279377 0.228375 1.10217 5395026
-0.504044 0.338756 1.41899 8026746
-0.586417 -0.164341 1.2059 2565927
-0.404369 -0.270659 2.32733 2829099
-0.392792 0.345185 1.40962 8487297
-0.253233 0.253031 1.11278 5592405
-0.168729 0.266974 1.56529 5855577
-0.402655 -0.271836 2.31838 2960685
-0.881055 -0.184514 1.60086 4408131
-0.583832 -0.171213 1.41483 3618615
-0.580109 -0.157577 1.33896 3881787
1.13398 -0.396797 3.57185 986895
0.150142 -0.104021 1.00124 8158332
0.24755 -0.207955 1.78253 1842204
-0.529837 -0.181628 1.61369 4934475
-0.537133 -0.14576 1.58056 3881787
0.528245 -0.124034 1.51057 1381653
0.148291 -0.099753 1.00294 6710886
-0.213032 -0.120987 1.01905 8421504
0.447379 -0.120345 1.47601 1710618
-0.113329 -0.12203 1.02588 9868950
0.720871 -0.140941 1.99368 921102
0.211241 -0.226425 2.19784 6447714
0.136621 -0.228557 2.29228 4605510
-0.703944 -0.145688 1.44871 5460819
0.140337 -0.116523 0.982867 2697513
0.151549 -0.221458 2.28755 3421236
0.15738 -0.0932681 1.01499 5263440
-0.545362 -0.152815 1.61407 4210752
-0.272743 0.118071 0.899336 5921370
0.629379 -0.12081 1.88652 1644825
0.160378 -0.149999 0.967347 2434341
-0.203591 0.37978 1.35996 6908265
0.12231 -0.149468 0.966662 5526612
-0.515249 -0.242597 1.62489 4276545
-0.355057 -0.339239 2.56061 4605510
0.102568 -0.0816234 1.04506 8026746
-0.107888 -0.0797232 0.962494 13158600
-0.160597 0.36909 1.3895 4868682
-0.526562 -0.207215 1.63218 5526612
0.669803 -0.223735 2.0623 3947580
-0.158137 -0.0734468 0.947761 11447982
0.0835236 0.358036 1.41209 5460819
0.138392 0.323049 1.32419 3223857
-0.603651 -0.126398 1.32646 4342338
-0.572654 -0.122504 1.33165 4276545
0.117446 -0.089706 1.02159 11382189
-0.18262 -0.0682812 0.939828 9079434
-0.683216 0.34755 1.33219 5263440
-0.324414 -0.07127 1.00908 7500402
-0.130119 -0.0562297 0.923313 10000536
-0.582134 -0.544634 1.97631 12171705
-0.254659 0.312305 1.4883 6974058
0.290996 -0.333547 1.6241 5395026
-0.112187 0.338533 1.44056 5789784
-0.276436 0.281614 1.22164 5263440
-0.417273 -0.36285 2.25207 6842472
0.569949 -0.227782 1.74506 2565927
0.555256 -0.250341 2.41819 2171169
-0.136455 0.298988 1.49919 5789784
-0.543097 -0.161865 1.4545 2368548
-0.193857 0.297576 1.50544 7829367
-0.680155 -0.138929 1.42924 4342338
-0.323832 -0.0449857 0.970304 6447714
0.137631 0.200728 1.12398 4934475
0.202109 -0.0829794 1.04953 6118749
-0.11646 0.00323058 0.808925 12961221
0.451424 -0.112975 1.98108 3421236
0.767052 -0.100788 2.12156 1907997
0.522492 -0.0860722 1.96297 1513239
0.589197 0.238732 1.44256 2894892
-0.408311 0.397522 1.32485 7171437
0.20464 -0.0331217 0.958902 7237230
-0.099297 -0.0307461 0.876439 10987431
-0.489825 -0.511166 2.35796 6513507
-0.4393 -0.505302 2.34698 7039851
0.00549461 0.228171 1.66981 8750469
-0.37733 -0.505114 2.40983 9868950
-0.136202 -0.0280338 0.873289 10066329
-0.00567946 0.192885 1.672 8026746
-0.384955 -0.509523 2.51402 9803157
-0.472676 -0.412256 1.98772 5131854
0.586944 0.0297983 1.8431 2565927
-0.654717 0.0763976 1.40319 5263440
-0.362129 -0.46364 2.34667 8092539
0.132097 -0.193153 0.971332 8816262
-0.476444 -0.351797 1.72236 8092539
-0.47693 -0.501354 2.30896 5329233
-0.607968 -0.262438 1.49085 3815994
-0.108568 -0.0174715 0.852346 12632256
-0.222055 -0.381306 2.5699 11250603
-0.828146 0.242196 1.59995 5066061
-0.226571 -0.0565017 0.912408 11053224
-0.567453 -0.559154 1.76517 7566195
-0.90995 0.26326 1.66933 4408131
-0.801528 0.234771 1.59865 4144959
-0.469587 -0.509731 2.30123 4737096
-0.456752 -0.437327 2.28102 5921370
-0.511494 -0.290763 1.68093 5197647
-0.350799 -0.42191 2.5537 7171437
-0.636668 0.168387 1.70685 4079166
-0.694395 0.156799 1.67569 1710618
-0.434227 -0.392725 2.30549 5197647
-0.363036 -0.360922 2.40195 3684408
0.649434 -0.217221 1.98985 3750201
0.599376 -0.203932 1.93676 3750201
-0.196165 0.0836556 0.753452 4276545
-0.336798 -0.404838 2.54426 10263708
-0.503669 -0.283503 1.6734 7829367
-0.103763 0.0678075 0.799684 5066061
0.648518 -0.155746 2.14991 1118481
-0.32075 0.0510994 0.828591 4144959
-0.68921 -0.141582 1.41665 4210752
-0.261624 0.0152753 0.800366 13290186
-0.239254 0.0141836 0.800464 13882323
-0.271562 -0.0404988 0.895089 12237498
-0.623477 -0.0944213 1.49264 3618615
-0.268158 0.185945 1.04624 5329233
-0.133869 0.0685878 0.798077 6118749
-0.130992 -0.0739119 0.949345 13750737
-0.123488 0.0456706 0.827421 10000536
-0.545267 -0.544871 1.75512 8750469
0.115127 -0.599785 2.04846 8750469
0.120573 -0.595458 2.03519 3552822
0.000209406 0.27027 1.54725 4934475
0.175171 -0.32351 2.56231 6184542
-0.595319 -0.532206 1.74716 2236962
-0.530118 -0.528313 1.75077 6974058
0.11444 -0.582844 2.04587 7763574
0.314548 -0.57597 2.06952 2236962
-0.464231 -0.248829 1.77558 6184542
-0.353834 -0.327082 2.55637 4934475
-0.410773 -0.42972 2.30705 5987163
0.135125 -0.460105 1.70805 2631720
-0.594554 -0.489776 1.68858 3750201
0.157642 -0.52495 1.94496 1644825
-0.00418092 0.0595455 0.790638 7763574
-0.23029 -0.0219955 0.859523 11776947
-0.0495077 0.0625823 0.800461 8026746
-0.108468 -0.0177152 0.851653 11908533
-0.353235 -0.422536 2.56299 7434609
-0.149024 -0.032839 0.882742 10197915
-0.222741 -0.381772 2.55332 11842740
-0.259358 -0.0592359 0.919307 13553358
-0.275482 -0.115398 1.01176 6579300
-0.447084 -0.214792 1.78345 5987163
0.148115 -0.0726728 1.02334 7039851
-0.286654 0.274246 1.55173 7960953
-0.598211 -0.419086 1.57331 3618615
-0.738364 -0.430725 1.59738 3618615
-0.537657 -0.441556 1.6814 2697513
0.120763 -0.516115 2.08729 7237230
0.294392 -0.418859 1.75984 4013373
0.260846 -0.398008 1.7262 2236962
-0.674482 -0.395036 1.55051 3158064
-0.517217 -0.486216 1.9429 8487297
0.292273 -0.374428 1.66208 5329233
-0.743848 -0.388415 1.53404 4079166
-0.530912 -0.174931 1.61935 5723991
-0.515002 -0.480942 1.96472 8618883
0.125419 -0.478018 2.07458 7829367
0.14778 -0.38945 1.7194 3684408
-0.546157 -0.388742 1.60266 3552822
-0.463828 -0.558105 2.37304 6513507
0.107065 -0.205149 1.00189 7303023
0.164517 -0.191967 0.969127 8553090
-0.652234 -0.378705 1.62141 2960685
-0.657307 -0.375411 1.6127 2105376
-0.425216 -0.539175 2.36256 5855577
0.168829 -0.18496 0.959351 5987163
-0.0624407 0.217619 1.65048 7960953
0.0883759 -0.190254 0.97434 6908265
-0.466252 -0.418468 1.87924 4539717
0.168054 -0.179864 0.956599 5987163
0.261472 0.226755 1.61828 7434609
0.138642 -0.18597 0.981644 11645361
-0.664056 -0.340691 1.51699 3223857
-0.550214 -0.346287 1.56455 2631720
-0.512209 -0.377766 1.71195 2829099
-0.474194 -0.507078 2.31215 4868682
0.157803 -0.392479 1.94119 8158332
-0.392005 -0.504848 2.34651 6316128
0.0934314 -0.174935 0.951783 9474192
0.153708 -0.169667 0.948166 9671571
-0.703724 -0.336018 1.53949 2500134
-0.433902 -0.491003 2.30318 5921370
-0.155182 -0.364217 2.56828 12369084
-0.501153 -0.378597 1.78275 5592405
-0.51988 -0.252802 1.66613 5263440
-0.811405 -0.308457 1.44165 3289650
0.117753 -0.144851 0.983396 9408399
-0.734897 -0.302539 1.44236 1842204
-0.727411 -0.319978 1.52678 1513239
-0.281377 0.235322 1.11969 6118749
-0.365256 -0.483015 2.51307 7434609
-0.406178 -0.438341 2.30116 5395026
-0.337391 -0.322966 2.54102 10724259
0.1744 -0.342324 1.96702 6776679
-0.857229 -0.32452 1.66147 2171169
-0.659387 -0.29006 1.52743 3158064
0.116748 -0.147684 0.974084 9342606
0.160046 -0.346545 2.03085 8816262
0.135004 -0.143111 0.963765 5197647
-0.463361 -0.311852 1.72189 6513507
-0.350008 -0.46014 2.52386 8487297
0.151408 -0.143179 0.972454 7237230
0.163642 -0.345255 2.04354 9868950
-0.134673 -0.101754 0.99613 13619151
-0.335763 -0.40938 2.56455 10592673
-0.854739 -0.266191 1.42536 3355443
-0.418331 -0.40814 2.28956 3815994
0.145137 -0.498268 1.64142 4144959
-0.479578 -0.407311 2.28241 4671303
0.145846 0.144358 1.00431 4934475
-0.449817 -0.315494 1.81281 5723991
-0.5104 -0.290099 1.67815 5395026
-0.408741 -0.313074 2.24495 5395026
0.205222 -0.366142 2.65417 8487297
-0.266951 0.295662 1.49712 7631988
-0.350773 -0.4205 2.55043 7434609
-0.275419 0.165293 0.98582 6447714
-0.525849 -0.210717 1.6386 5526612
-0.645584 0.272639 1.40061 5000268
-0.0537106 -0.00271661 0.896353 8289918
-0.110855 -0.397892 2.52665 11645361
0.156637 0.158406 1.00841 5066061
-0.485575 -0.199218 1.64016 5789784
-0.516768 0.291649 1.50488 7960953
-0.258057 -0.00869494 0.83331 12961221
0.177655 -0.238592 2.09075 6184542
-0.238038 -0.00929033 0.839381 13553358
0.666472 -0.220967 1.97283 5066061
-0.265475 0.148798 0.979653 6316128
-0.183297 0.0463175 0.823087 8947848
-0.264596 0.138744 0.959584 5855577
-0.251335 -0.110702 1.00213 11447982
0.131215 -0.461244 1.68629 1447446
-0.745428 -0.206965 1.42889 4013373
-0.196641 -0.014758 0.847715 12566463
-0.265319 0.0476641 0.817512 8224125
-0.383205 -0.298114 1.2165 4144959
-0.150398 -0.0165449 0.850041 10461087
-0.26765 -0.0159728 0.847619 11382189
0.145816 -0.513509 1.93481 3223857
-0.27318 -0.0855559 0.966388 12566463
-0.108882 -0.0800958 0.961308 14869218
-0.0742142 -0.0799212 0.962179 9934743
-0.652188 -0.217409 1.58674 3618615
-0.269899 -0.0438083 0.895173 10724259
-0.223253 -0.0154944 0.847874 12171705
-0.260794 -0.104779 0.989325 11579568
-0.116455 -0.100431 0.992519 14145495
-0.126961 0.0681175 0.798424 5526612
-0.218879 -0.064575 0.93255 10197915
-0.261363 -0.0631803 0.925747 13750737
-0.079539 0.0675613 0.80065 5855577
0.115419 -0.1456 0.976279 10329501
0.136371 0.185504 1.11905 3684408
-0.191259 -0.0603508 0.927962 10461087
-0.16771 0.0462598 0.824841 9145227
-0.504364 -0.419694 1.73126 4473924
-0.832721 -0.171132 1.48337 4276545
0.679547 -0.245339 2.51689 2368548
-0.53694 -0.368234 1.52742 4342338
-0.254588 0.206229 1.10815 6118749
-0.432112 -0.282071 1.94331 3684408
-0.429401 -0.268506 1.92132 4276545
-0.483077 -0.242933 1.69711 5592405
-0.34046 -0.319021 2.4067 5131854
-0.784235 -0.162024 1.32122 4276545
-0.331349 -0.0484114 0.999738 6513507
-0.153278 -0.0159226 0.853895 10790052
-0.151078 0.0846016 0.803529 5131854
-0.425892 -0.538563 2.33461 7303023
-0.328973 -0.0192571 0.955365 6645093
0.0876619 -0.182423 0.96297 8684676
-0.516444 -0.485673 1.94382 10987431
-0.414562 -0.531286 2.33082 7171437
-0.37202 -0.198437 0.936195 3552822
-0.563516 -0.28726 1.6141 3223857
0.117776 -0.204149 0.984803 9145227
0.0185626 -0.272104 1.48925 12303291
-0.385662 -0.215334 2.45904 4737096
0.120436 -0.106228 0.994351 4408131
-0.489657 -0.472986 2.29892 5526612
-0.129109 -0.0480332 0.907349 11382189
-0.541588 -0.446442 2.22203 3092271
-39.0371 5.36361 47.3945 6447714
-0.408038 -0.342464 1.68125 6974058
-0.457708 -0.322252 1.61149 6710886
-0.109152 -0.0284052 0.875004 10461087
-0.380608 -0.498971 2.46892 8487297
-0.480459 -0.409876 1.87858 7829367
-0.714668 -0.31112 1.53741 3289650
0.30972 -0.5371 2.27009 1710618
0.252957 -0.337785 1.6603 2697513
-0.438576 -0.473937 2.28597 6316128
-0.528554 -0.465651 2.31242 5658198
-0.668536 -0.103003 1.5002 6908265
-0.658929 -0.28679 1.50779 3289650
-0.510632 -0.345065 1.7433 7105644
0.648572 -0.216551 1.93284 3947580
-0.199132 -0.015229 0.847071 11842740
-0.107133 -0.406164 2.53391 11447982
-0.231391 -0.403924 2.52993 12171705
-1.24503 -0.375277 1.87667 3289650
-0.328131 -0.405077 2.52192 10329501
0.00540769 -0.384115 2.52035 10658466
-0.57266 -0.291011 1.58475 4079166
-0.44441 -0.310993 1.79042 5921370
0.650911 -0.179357 1.32991 2565927
-0.479185 -0.370083 2.23357 4079166
-0.492035 -0.40527 2.25129 5658198
0.0941059 -0.166243 0.996481 3552822
-0.511155 -0.291459 1.66962 4802889
-0.516566 -0.295283 1.6962 5460819
-0.368007 -0.375311 2.37653 5921370
-0.515112 -0.291417 1.6956 6250335
-0.483818 -0.358418 2.23079 4013373
-0.225301 -0.380367 2.52568 10921638
-0.397661 -0.352842 2.25497 6250335
0.309631 -0.346233 2.57779 7895160
0.117057 -0.15677 0.974956 10724259
0.133916 -0.353957 2.56783 9013641
-0.365326 -0.348188 2.28757 4276545
0.134848 -0.152463 0.959615 4144959
-0.39303 -0.350188 2.2386 6052956
-0.655172 -0.280467 1.60643 3815994
-0.439672 -0.347377 2.25743 3684408
-0.354614 -0.358345 2.38913 5395026
-0.514885 -0.276335 1.67295 5066061
-0.156181 -0.355072 2.52333 11711154
0.180187 -0.325501 2.51258 6381921
0.0240519 -0.336541 2.55716 7039851
-0.549961 -0.251699 1.52397 4144959
0.113814 -0.149086 0.985789 10132122
0.730524 -0.18128 1.60906 3487029
-0.538923 -0.254213 1.57171 2302755
-0.543561 -0.253953 1.57699 2236962
-0.390957 -0.318559 2.23682 3092271
0.0114442 -0.322782 2.51238 7895160
0.664441 -0.220407 1.95462 4144959
0.821585 -0.192397 1.79013 2697513
-0.580796 -0.246438 1.52892 2500134
3.55568 -0.682384 7.92195 2368548
0.283231 -0.198508 2.22646 2829099
0.637225 -0.213071 1.97713 3289650
-0.483645 -0.25145 1.69797 5329233
-0.470524 -0.258761 1.77584 6118749
0.13855 0.0626278 0.800758 4934475
0.196523 -0.227071 1.8918 4737096
-0.696149 -0.182912 1.43987 3552822
0.782972 -0.183566 1.81904 2565927
-0.52247 -0.245989 1.65744 4079166
-0.463156 -0.30258 2.24886 2960685
0.276544 -0.217122 1.85595 2105376
-0.392424 -0.475346 2.3072 5789784
-0.53207 -0.472016 2.34843 5987163
-0.887439 -0.243744 1.45666 2565927
-0.329046 -0.312367 2.51862 8618883
0.195251 -0.256899 2.28049 6250335
0.23866 -0.209902 1.8412 2236962
0.110728 -0.182046 0.984124 9803157
-0.588253 -0.225776 1.50476 2829099
-0.321544 -0.303594 2.51071 7500402
-0.397636 -0.28194 2.2505 3552822
-0.347955 -0.296426 2.4372 2171169
-0.538061 -0.223058 1.55581 2631720
0.612666 -0.204099 2.20162 2302755
-0.524438 -0.222181 1.64647 4342338
-0.394334 -0.264063 2.28008 2302755
0.141252 -0.218196 2.24247 3881787
0.144032 -0.218453 2.24785 3552822
0.150359 -0.118198 0.992276 3618615
1.37599 -0.233819 3.38481 1644825
-0.589572 -0.203432 1.51076 2697513
0.14521 -0.218937 2.27613 4934475
0.14993 -0.217513 2.26171 3355443
0.148377 -0.117365 0.988666 4210752
-0.605562 -0.201289 1.48485 2631720
1.34576 -0.224884 3.31223 1579032
-0.487731 -0.204426 1.68033 4408131
-0.621005 -0.197047 1.4876 2763306
-0.221159 -0.230805 2.36903 4605510
-0.794782 -0.231594 1.4248 3158064
-0.456835 -0.226969 2.13504 3158064
0.110746 -0.120287 1.10272 4144959
-0.282846 -0.223422 2.36218 4473924
-0.693991 -0.14352 1.43602 5592405
-0.225306 -0.217137 2.34651 4210752
-0.0994429 -0.1234 1.02496 8882055
-0.373648 -0.213536 2.23019 4342338
-1.09246 -0.236151 1.63043 2302755
-0.510903 -0.273514 1.66046 4671303
-0.52449 -0.252661 1.54818 2302755
0.197295 -0.105974 1.07902 4342338
0.804536 -0.129007 2.32289 1710618
-0.660355 -0.226963 1.48567 2829099
-0.434964 -0.3679 2.25559 4605510
-0.350034 -0.416989 2.53256 6842472
-0.360905 -0.3803 2.32088 5131854
-0.534521 -0.160061 1.59502 3947580
-0.489536 -0.357995 2.24992 3618615
0.127049 -0.089611 0.997823 4013373
1.06462 -0.101618 2.71012 1052688
-0.60445 -0.149405 1.45867 2302755
-0.58733 -0.224473 1.48799 2434341
-0.326923 -0.40413 2.52397 10724259
0.150039 -0.0821505 1.01784 7697781
-0.435826 -0.349988 2.24984 4079166
-0.367099 -0.371094 2.35372 4934475
0.203758 -0.0750756 1.0281 5263440
-0.523285 -0.134508 1.58548 5329233
0.1662 -0.0766076 1.02768 6250335
-0.075411 -0.0888347 0.975291 9474192
-0.526482 -0.13237 1.58552 5921370
-0.311495 -0.104133 1.06709 6645093
-0.236201 -0.0966804 0.984097 13421772
-0.773491 -0.142911 1.55766 8355711
0.148336 -0.0726095 1.02205 6908265
-0.274001 -0.0954908 0.981317 11250603
0.10588 -0.0738421 1.02647 5921370
0.0911856 -0.181757 0.964175 10132122
-0.666855 -0.12207 1.51387 4342338
-0.0788319 -0.0753672 0.949441 11711154
-0.437849 -0.263167 1.82282 5329233
-0.244039 -0.0847079 0.963297 14671839
-0.57727 -0.109649 1.47674 3618615
-0.156507 -0.432278 2.61373 12303291
-0.157544 -0.400065 2.49502 11908533
0.454552 -0.201653 1.45772 2829099
0.291784 -0.348755 2.62011 8289918
-0.193688 -0.307814 2.53751 9408399
-0.362474 -0.257664 2.3981 3421236
-0.130243 -0.073897 0.950882 10724259
-0.268863 0.0708818 0.79002 6645093
-0.234487 0.0706668 0.792875 5197647
-0.160147 0.0690623 0.797009 5460819
-0.156709 0.068737 0.797165 4539717
-0.218745 -0.0469913 0.898398 9868950
-0.175413 0.046259 0.824299 9079434
-0.166934 0.0463164 0.825192 8553090
-0.150578 0.0462259 0.825987 8882055
-0.133513 0.0462593 0.827288 9013641
-0.0805567 0.0440467 0.830441 10526880
-0.137369 -0.0155189 0.861346 13487565
-0.209504 0.011922 0.800112 13027014
-0.137251 0.0144015 0.804654 10592673
-0.244783 -0.00913047 0.838668 13092807
-0.103381 0.0113238 0.808412 10855845
-0.767628 -0.0862408 1.54913 7631988
-0.511035 -0.453885 1.86055 8224125
-0.608744 -0.0762177 1.51657 4144959
0.153965 -0.411285 1.96796 8421504
-0.564051 -0.547007 2.35715 7500402
-0.263248 -0.060775 0.922417 12632256
-0.545081 -0.55452 2.41131 2368548
-0.681998 -0.453813 1.85564 1907997
-0.705429 -0.147013 1.44487 3487029
-0.506387 -0.413946 1.73404 5263440
0.32115 -0.334464 1.67795 4605510
-0.46416 -0.529582 2.34535 4408131
0.932697 -0.336853 1.95296 1842204
0.171771 -0.333308 1.62128 5066061
0.270801 -0.326453 1.62808 3092271
-0.270823 -0.0551271 0.913985 10724259
-0.393784 -0.527213 2.38048 9803157
-0.493033 -0.429471 1.84472 8158332
-0.271254 -0.0521112 0.911122 9868950
-0.782709 -0.060412 1.55672 7434609
-0.505327 -0.396969 1.7033 4079166
-0.153237 -0.0408789 0.894149 8816262
-2.18245 -0.843085 3.40706 2302755
-0.232147 -0.0441227 0.897609 10658466
0.143813 -0.198159 0.972719 12040119
-0.152507 -0.0390589 0.892921 10395294
-0.527635 -0.506747 2.38822 3092271
-0.165537 -0.0381154 0.890067 10329501
-0.412609 -0.178388 0.6272 1644825
-0.21369 -0.0396149 0.89206 11119017
-0.391555 -0.475489 2.30555 5723991
-0.494689 -0.421639 1.77181 7829367
0.254046 -0.298339 1.6121 2631720
-0.612179 -0.0250045 1.53352 5263440
-0.261615 -0.0356687 0.881215 12303291
0.18144 -0.302374 1.61376 5987163
-0.394376 -0.470931 2.30697 5658198
-0.43898 -0.466245 2.26858 7303023
-0.617823 -0.362468 1.61618 3618615
0.142557 -0.190843 0.989591 11316396
-1.05111 -0.508456 2.31454 2829099
-0.362917 -0.482604 2.51445 8158332
-0.195046 -0.0270337 0.870943 10197915
0.192614 -0.333116 1.92777 3947580
-0.1805 -0.0246569 0.867164 10461087
-1.1862 -0.552289 2.58876 2171169
0.160009 -0.34554 2.01421 8618883
0.162154 -0.174286 0.950046 7237230
0.157141 -0.341709 1.99794 9211020
-0.75962 -0.376912 1.74672 3552822
-0.390682 -0.431078 2.28078 7763574
-0.0530997 -0.00384427 0.903357 8092539
0.176934 -0.275487 1.60866 2434341
0.0947881 -0.179233 0.961637 9671571
-0.349463 -0.461145 2.52638 8947848
-0.230417 -0.0145081 0.846276 13158600
0.641792 -0.227623 1.59535 2368548
-0.517234 -0.0282567 0.830957 7039851
0.140719 -0.406365 2.52196 11382189
-0.534705 -0.322241 1.6222 4079166
-0.415571 -0.409358 2.28903 4868682
-0.0498862 0.0132441 0.869743 7434609
-0.160734 -0.431145 2.60821 12500670
-0.511921 -0.328386 1.71787 6513507
0.555589 -0.221798 1.60034 1513239
-0.223699 -0.432817 2.62348 11974326
-0.0823009 -0.393817 2.43432 12829635
0.00253119 -0.395075 2.49277 12500670
0.186384 -0.387595 2.5483 12632256
0.516459 -0.213801 1.52971 2236962
0.24051 -0.123603 0.739083 1644825
-0.419767 -0.398383 2.28015 5592405
0.178818 -0.262195 1.68631 3487029
-0.252224 0.0143356 0.799617 12829635
-0.123391 -0.401994 2.50607 10592673
-0.106141 -0.404607 2.53489 12040119
-0.516447 -0.305278 1.60212 4605510
-0.484454 -0.318348 1.72396 7566195
0.0716646 -0.383337 2.52999 12040119
-0.669757 0.147471 1.67368 1118481
-0.233438 -0.3986 2.49493 12632256
-0.526706 -0.320853 1.78077 7171437
-0.333172 -0.40341 2.52342 9803157
-0.326575 -0.403903 2.5313 10395294
0.113683 -0.158724 0.977943 11447982
-0.929502 -0.423702 2.33696 3487029
-0.638387 0.171375 1.70579 4539717
0.189234 -0.351587 2.53565 7500402
0.150537 -0.152143 0.966229 7368816
-0.367263 -0.375393 2.37009 6052956
0.11626 -0.155646 0.976014 11250603
0.141396 -0.152002 0.964141 4934475
-0.221991 -0.381159 2.52507 11711154
0.277595 -0.346325 2.5977 9737364
0.255589 -0.344836 2.58652 9671571
-0.403281 -0.356929 2.25415 6447714
0.265348 -0.342054 2.5863 7895160
-0.399702 -0.353651 2.25687 5526612
-0.146029 -0.365546 2.52646 11447982
0.212511 -0.344385 2.60031 9342606
-0.51257 -0.291307 1.6851 6447714
-0.326613 -0.375305 2.52749 9145227
-1.26997 -0.380852 1.94999 3618615
0.236904 -0.245556 1.88427 2894892
0.0747527 -0.336907 2.55347 8618883
0.641111 -0.213719 1.94016 4210752
0.0256774 -0.335739 2.55685 7303023
-0.193513 -0.348486 2.52282 11776947
-0.725201 -0.296209 1.68623 3881787
-0.0372724 -0.333727 2.5259 12040119
0.0968012 -0.149367 1.00951 5460819
0.643182 -0.213211 1.97484 3223857
-0.573544 -0.26676 1.56996 3158064
-0.431112 -0.281584 1.81077 5592405
-0.548642 -0.261924 1.57559 3815994
-0.347157 -0.347084 2.51094 6052956
0.8157 -0.18621 1.94174 2763306
-0.453989 -0.326913 2.25874 2368548
0.191546 -0.229708 1.86777 4802889
-0.645805 0.229748 1.59872 5723991
-0.452086 -0.325124 2.25906 3947580
0.00845675 -0.312834 2.50782 8553090
0.598069 -0.202189 1.94527 3684408
-0.540563 -0.256802 1.56546 2960685
-0.598401 -0.184761 0.850902 2565927
-0.540983 -0.255298 1.56142 2697513
-0.399148 -0.313298 2.22135 3750201
0.194983 -0.225951 1.88671 4605510
-0.0549175 -0.306643 2.50442 9013641
0.252332 -0.212725 1.84583 2302755
0.800764 -0.184295 2.02243 2434341
-0.0717608 -0.306354 2.50587 8684676
0.242817 -0.210555 1.84308 2565927
-0.635893 -0.250835 1.51389 3815994
-0.881186 -0.301262 1.82087 2500134
-0.175815 -0.311166 2.55991 9211020
-0.192867 -0.309396 2.54646 9868950
-0.483836 -0.250758 1.70249 5987163
-0.336069 -0.314554 2.51267 8289918
-0.33327 -0.313798 2.50727 9145227
-0.498166 -0.242012 1.63562 6908265
-0.250039 -0.302588 2.50321 8487297
0.141463 -0.241299 2.27868 5789784
0.113973 -0.125928 0.985121 8684676
0.226415 -0.217696 2.13371 5329233
-0.903793 0.262386 1.57789 3947580
-0.942195 -0.294156 1.95279 2763306
-0.207606 0.283105 1.51008 7763574
-2.51856 -0.666463 4.91061 2631720
-0.39479 -0.255425 2.24093 2829099
0.1491 -0.211234 2.27166 4210752
-0.361819 -0.261746 2.42919 2105376
0.11359 -0.119835 1.08061 4605510
0.103813 -0.119399 1.08345 4605510
0.154306 -0.0724125 1.02627 5921370
-0.445673 -0.214362 1.77025 5592405
0.0940978 -0.119761 1.09763 4802889
-0.12525 0.00710519 0.80081 12632256
-0.119221 0.00673576 0.800653 13224393
-0.146096 0.00887339 0.800788 13027014
-0.231131 0.0133614 0.799669 14079702
-0.0790798 0.0437765 0.828194 10329501
-0.123223 0.068425 0.798454 6908265
-0.0084544 0.0652251 0.800771 5855577
-0.0167478 0.0663424 0.803265 6316128
-0.0264117 0.0662073 0.803051 5263440
-0.0892036 0.0676209 0.800121 5592405
-0.0829782 0.0674481 0.800755 5723991
-0.0418152 0.0668111 0.801974 6118749
-0.046592 0.0661275 0.798914 5987163
-0.219327 -0.220362 2.37044 4144959
-0.0990919 -0.123695 1.02845 8816262
-0.433762 -0.226197 2.22471 4144959
-0.592243 -0.199229 1.59043 2829099
-0.250716 -0.212874 2.34814 3881787
-0.321757 -0.216893 2.34235 4342338
0.13761 0.326606 1.13347 3750201
0.208135 -0.0959349 1.07789 4934475
-0.491058 -0.18788 1.64374 5592405
0.034931 0.415885 1.3459 4210752
-0.453932 -0.186626 1.69899 5066061
-0.361369 -0.207149 2.20252 4671303
0.13854 0.342576 1.1351 3421236
-0.15118 -0.121902 1.02843 10658466
0.0242207 0.0652411 0.802638 5921370
-0.83658 -0.0358819 1.64283 7105644
-0.570782 -0.181864 1.47398 4013373
-0.505909 -0.415046 1.72236 4802889
0.121593 -0.0967749 1.01166 7105644
-0.514443 -0.397728 1.73274 3684408
-0.171633 -0.121197 1.0214 10592673
-0.448775 -0.203374 2.14293 3223857
-0.0768119 -0.111599 1.00753 8882055
-0.204646 -0.121483 1.02546 10658466
-0.210772 -0.12123 1.0237 10724259
-0.610455 -0.176631 1.49007 3947580
-0.49642 -0.17367 1.63429 4802889
-0.392092 -0.508166 2.33739 6447714
-0.119932 -0.109179 1.0075 13027014
-0.496206 -0.416416 1.85648 7631988
0.145702 -0.0849077 1.00885 8224125
0.159547 -0.339223 1.69457 6513507
-0.229768 -0.0232986 0.86476 11908533
0.205554 -0.0750867 1.03238 5723991
0.144517 -0.198821 0.973341 11908533
-0.446732 -0.154331 1.70892 4737096
-0.250113 -0.112128 1.00367 10066329
-0.0761035 -0.094322 0.983139 10329501
-2.6621 -1.17896 5.83003 2236962
-0.866724 -0.17989 1.56158 5000268
-0.113536 -0.094287 0.984571 13290186
-0.604939 -0.149741 1.45771 4013373
0.145372 -0.0721535 1.02026 6645093
-0.289812 -0.109869 1.06911 4408131
0.106007 -0.0735658 1.0238 5329233
0.210586 -0.236061 1.65515 2236962
0.140061 -0.354146 2.55281 6776679
-0.11097 -0.0892097 0.976507 12829635
0.143167 -0.325978 2.49418 6316128
0.188014 -0.230003 2.1804 5000268
0.188241 -0.226547 2.19626 4868682
-0.127961 -0.121885 1.02656 11053224
-0.286949 0.0828798 0.790758 6118749
-0.711641 -0.148264 1.43922 4737096
-0.185883 -0.0917891 0.977539 12895428
-0.109207 -0.0849517 0.968954 13487565
0.218051 -0.324802 1.99079 4802889
0.135687 -0.408463 2.53827 11711154
0.157918 -0.3855 2.53862 12303291
0.0708203 -0.383345 2.52839 12632256
-0.209939 -0.398916 2.49079 11908533
-0.229111 -0.400722 2.50357 12171705
-0.263115 -0.39397 2.45488 12171705
-0.291474 -0.396676 2.46746 12434877
0.266761 -0.341888 2.56515 9605778
0.173358 -0.324438 2.50098 6776679
0.053992 -0.337677 2.55851 9079434
0.279233 -0.217345 1.80515 2631720
-0.237627 -0.330158 2.51185 11184810
-0.0548421 -0.30803 2.51511 9737364
0.217216 -0.242367 2.14439 5789784
-0.290954 -0.331617 2.52755 11513775
-0.100901 -0.306998 2.51384 10066329
-0.127879 -0.30466 2.49996 9539985
-0.207144 -0.305647 2.52276 9079434
-0.274164 -0.304001 2.51125 9013641
-0.305294 -0.303483 2.51126 8487297
0.202516 -0.205448 2.16261 2631720
0.105314 -0.119531 1.08201 3815994
0.0895038 -0.11935 1.08767 4079166
-0.256873 -0.23191 2.40646 4671303
0.0285511 -0.11715 1.09416 6710886
0.143859 -0.41582 1.94683 7500402
-0.149811 -0.122391 1.03386 10592673
-0.172295 -0.121566 1.02507 10921638
-0.19959 -0.121742 1.02594 10592673
0.306154 -0.327203 1.63714 4539717
-0.21967 0.078969 0.773725 5460819
-0.227782 -0.120566 1.02494 10263708
0.204055 -0.0296501 0.938905 6184542
-0.261903 0.0669618 0.77343 6842472
-0.251194 0.0679753 0.779993 5000268
-0.244155 0.0678313 0.780015 4934475
-0.225445 0.0692651 0.788659 4868682
-0.211338 0.070363 0.794391 5592405
-0.198788 0.0700043 0.795179 5526612
-0.218963 0.064587 0.785474 6974058
-0.191511 0.06988 0.795306 5987163
-0.189501 0.0697134 0.79577 5263440
-0.206779 0.0653845 0.78895 6316128
-0.172218 0.0693307 0.7963 5855577
-0.159504 0.0689695 0.797105 5526612
-0.144108 0.0688798 0.7977 6184542
-0.1178 0.0680464 0.798554 5723991
-0.126667 -0.120091 1.02428 13027014
-0.136404 0.0648809 0.797009 6447714
-0.11093 0.0680579 0.799606 5987163
-0.248235 -0.0776238 0.953703 13290186
-0.229189 -0.0724697 0.947711 9737364
-0.254535 0.0472928 0.819462 8553090
0.00625712 0.0732449 0.799603 6842472
0.169674 -0.295357 1.60023 4802889
-0.0631988 0.0636951 0.79951 7039851
-0.234873 0.0466677 0.820621 8289918
-0.23075 0.0465144 0.82009 9079434
0.251766 -0.281427 1.61309 3815994
-0.179525 -0.0473578 0.906202 11119017
-0.396531 -0.45929 2.303 5855577
0.170166 -0.285071 1.59374 3158064
-0.443224 -0.456325 2.26754 6381921
0.164227 -0.350332 2.01637 8684676
-0.497131 -0.369266 1.75637 7237230
-0.387438 -0.43333 2.27137 7895160
0.282946 -0.255216 1.59858 4210752
0.0110013 -0.423068 2.55287 11382189
0.140456 -0.173278 0.985742 12632256
-0.344025 -0.45375 2.53467 10132122
0.307688 -0.388719 2.54596 8092539
-0.222147 -0.0146543 0.847814 10197915
-0.502823 -0.346379 1.74014 8224125
0.171196 -0.271996 1.69124 4079166
-0.415992 -0.408945 2.2888 4473924
-0.506551 -0.334659 1.71557 6447714
0.0115306 -0.402744 2.55694 9934743
0.180386 -0.256618 1.67524 3487029
-0.104207 -0.403324 2.53247 11447982
-0.109437 -0.399995 2.53174 11579568
-0.3509 -0.417246 2.53545 7697781
0.151714 -0.15442 0.962053 6908265
-0.429223 -0.384314 2.26907 4934475
-0.120614 -0.387319 2.52671 11513775
0.319485 -0.350958 2.58659 7566195
-0.0901301 0.011267 0.80943 12434877
-0.00593276 -0.372137 2.52758 12829635
0.137201 -0.356216 2.575 8816262
0.257642 -0.234556 1.71544 2894892
-0.218413 -0.37386 2.5197 11119017
0.645577 -0.2144 1.93231 4473924
-0.438757 -0.30687 1.81271 6381921
-0.0681105 0.00998159 0.8085 9342606
-0.402205 -0.33347 2.2387 5066061
-0.186413 -0.339124 2.52232 11579568
0.282206 -0.219194 1.87396 3026478
-0.511675 -0.275737 1.65862 5066061
-0.449371 -0.332472 2.2609 3421236
0.200338 -0.226975 1.90752 4210752
-0.397569 -0.316189 2.23454 3881787
0.248618 -0.212717 1.87154 1776411
-0.0864187 0.0127914 0.805426 13027014
-0.341445 -0.32318 2.42843 4934475
0.204958 -0.271269 2.48905 5526612
0.215072 -0.280246 2.61036 5987163
-0.428557 -0.266676 1.81 5395026
-0.402025 -0.304206 2.22443 4473924
0.157763 -0.126591 0.988153 2039583
-0.458814 -0.31079 2.24908 2434341
-0.343546 -0.319008 2.47643 4539717
-0.53104 0.108756 1.78158 5329233
-0.520251 -0.255437 1.69632 5329233
-0.722168 0.0577406 1.51312 6316128
-0.482759 -0.250388 1.69659 5592405
0.936361 -0.169135 2.44246 1513239
0.280319 -0.202651 2.0935 1907997
-1.85673 -0.50202 3.01507 2763306
-0.398135 -0.282183 2.25785 2894892
0.147931 -0.117487 0.987401 3815994
0.354002 -0.181924 2.03026 2960685
0.145181 -0.219156 2.25734 3552822
0.129638 -0.115831 0.976764 3289650
0.0976416 -0.122184 1.02228 4013373
0.195891 -0.20919 2.24082 2500134
0.248061 -0.19681 2.15414 2434341
0.14997 -0.209247 2.26663 3223857
0.795626 -0.141247 2.30114 1644825
-0.394645 -0.261923 2.28059 2105376
0.940606 -0.136355 2.48682 1184274
-0.535544 -0.218142 1.54186 2500134
-0.354361 -0.264433 2.44312 2960685
-0.254021 0.0143752 0.799751 12698049
0.949014 -0.131828 2.48928 1315860
-0.268244 0.163417 1.09394 6250335
0.172285 -0.19073 2.25359 1776411
-0.263892 0.275072 1.54353 7237230
-0.492313 -0.215088 1.64255 6184542
0.20783 -0.180146 2.22699 3223857
0.156523 0.14384 0.980113 3487029
-0.911296 -0.0806989 1.50671 6118749
-0.217798 -0.225496 2.36995 3881787
0.135986 0.0504907 0.769286 7697781
-0.324046 0.0259923 0.875361 6908265
-0.215943 -0.221661 2.36818 4802889
-0.525257 -0.207542 1.63432 5592405
-0.851937 0.290789 1.55418 3881787
0.118028 -0.0984772 1.01114 10329501
0.942883 -0.0938909 2.45192 2039583
-0.424554 -0.196345 1.86774 2829099
-0.432507 -0.215267 2.21384 3026478
-0.614341 -0.195616 1.51087 2697513
-0.292801 -0.201146 2.29095 3947580
0.153887 0.177926 1.04422 3684408
-0.123041 -0.115961 1.0168 12303291
-0.702078 0.107985 1.53553 4079166
-0.101845 0.0448777 0.828186 8421504
-0.0982825 0.0453371 0.828965 8421504
-0.545605 -0.17662 1.68216 5066061
-0.117537 -0.105197 1.00072 12500670
-0.563701 -0.169831 1.50336 3947580
0.0724434 0.0599661 0.803758 7303023
-0.130171 0.0459689 0.82691 8882055
-0.135094 0.0460917 0.827005 9408399
-0.075678 -0.0948504 0.984535 9079434
0.10391 -0.0763962 1.03383 6513507
-0.248961 -0.112636 1.00466 10855845
-0.0754873 -0.0933964 0.980702 9474192
-0.431894 -0.155141 1.87059 3026478
0.109143 -0.0742534 1.02804 5395026
-0.113572 -0.0963325 0.98739 12566463
-0.0764057 -0.0921848 0.981121 11053224
0.133175 0.277598 1.25792 5000268
0.106466 -0.0730696 1.02589 6316128
0.142546 0.301736 1.28405 3618615
-0.254075 -0.109731 1.00059 10263708
-0.111668 -0.0940259 0.98281 12303291
0.0557936 0.0639044 0.803952 4737096
-0.60889 -0.152569 1.40256 3618615
-0.0750537 -0.0865361 0.970394 8618883
-0.458586 -0.140583 1.67198 5000268
-0.262194 -0.105092 0.991048 10461087
-0.499805 0.365538 1.38607 7500402
-0.266248 0.0370747 0.807552 9934743
-0.774082 -0.162739 1.49095 4605510
-0.306199 -0.106055 1.06144 4210752
-0.536546 -0.136065 1.58887 4934475
-0.523779 -0.134614 1.58251 5395026
-0.721802 -0.152397 1.43553 3947580
-0.309874 -0.104293 1.06024 5197647
-0.220291 0.0468393 0.822306 8553090
-0.540515 -0.133121 1.59171 4408131
-0.272323 -0.0988629 0.98475 11250603
0.200471 -0.0475615 0.97006 7303023
-0.0307843 0.0627002 0.802483 7763574
-0.314412 -0.101874 1.05225 4868682
-0.602044 -0.132362 1.42453 2829099
-0.69208 -0.141227 1.45369 3815994
-0.106406 -0.075521 0.953559 12171705
-0.0935199 -0.0722014 0.947553 11908533
0.201389 -0.038808 0.952151 6381921
-0.128202 -0.074069 0.94868 11579568
-0.073669 -0.0668819 0.941886 9342606
-0.137154 -0.0731334 0.949956 11776947
-0.326153 -0.0904972 1.03854 6447714
-0.0365992 0.0664084 0.802031 5329233
-0.661119 -0.122214 1.49376 3881787
-0.152181 -0.0716477 0.944289 10658466
-0.566136 -0.111045 1.46638 2960685
-0.269782 -0.0830994 0.95869 12632256
0.201717 -0.0310881 0.937085 6316128
-0.1185 -0.0630623 0.933966 11447982
-0.0756038 -0.0156574 0.930233 7960953
0.201653 -0.0249006 0.924829 6052956
0.0449733 0.0797901 0.811817 3750201
-0.223435 -0.0701311 0.938938 8487297
-0.122835 -0.0587122 0.926077 10526880
0.0145261 0.0793127 0.807253 3947580
-0.554528 -0.0868068 1.59413 4934475
-0.126621 0.0650369 0.796637 5592405
-0.0933556 -0.0514425 0.914492 8289918
-0.560981 -0.0819568 1.58898 3947580
-0.31142 0.0516105 0.808981 8289918
-0.262584 -0.0654094 0.929574 12303291
-0.149271 -0.052683 0.916334 12105912
-0.606022 -0.0830606 1.47345 4802889
-0.11914 -0.0489879 0.909008 8289918
-0.0901978 -0.0448073 0.902304 9013641
0.201809 -0.0124455 0.90047 6184542
-0.1277 -0.0480939 0.909638 10395294
-0.602479 -0.0778983 1.48882 4276545
-0.233234 -0.0587569 0.921573 9868950
-0.224595 -0.0579611 0.917315 9474192
-0.649403 -0.0783666 1.47649 6513507
-0.331633 -0.0620632 1.01326 5131854
-0.258556 -0.0580336 0.918684 12961221
-0.263087 -0.0573927 0.917118 13355979
0.146513 0.145196 1.00576 4737096
-0.584969 -0.0629953 1.49405 5197647
-0.114001 -0.0388114 0.894254 9868950
-0.20386 -0.0478166 0.903255 9539985
-0.181468 0.0695382 0.796368 5131854
-0.152479 -0.0407247 0.894456 10592673
-0.172316 -0.0395086 0.892239 9803157
-0.130859 -0.035084 0.888202 10658466
-0.255125 -0.0477157 0.900922 13948116
-0.0984759 -0.0307844 0.879332 9868950
-0.331438 -0.0493117 0.997663 5197647
-0.231994 -0.0441421 0.897255 10000536
-0.0559506 -0.0210525 0.920982 8026746
-0.703237 -0.0554862 1.52036 6645093
-0.106558 -0.0283695 0.876341 9211020
-0.45039 -0.0720991 0.783393 7105644
-0.687081 -0.0529667 1.45027 5592405
-0.254148 -0.0412219 0.889605 13027014
-0.212976 -0.0358232 0.883411 10987431
-0.118663 -0.0255113 0.870052 9605778
-0.331368 -0.0388376 0.98465 4473924
-0.196481 -0.0308389 0.878118 10724259
-0.223522 0.0702729 0.793382 5263440
-0.628207 -0.0301789 1.5276 5723991
-0.231571 -0.0339469 0.881973 11250603
-0.117051 0.0794844 0.788053 4013373
-0.864172 0.21714 1.63248 1710618
-0.269714 -0.0347289 0.88268 10790052
-0.907243 -0.0458775 1.63084 7500402
-0.10819 -0.0176253 0.859799 10724259
-0.255404 -0.0325165 0.875596 14079702
-0.21304 -0.0244381 0.866462 12632256
-0.269431 -0.0285523 0.87329 10855845
-0.230423 -0.0221991 0.862751 11184810
-0.199808 -0.0188501 0.85508 10066329
-0.512817 0.0339181 1.7716 2829099
-0.269158 -0.0230379 0.864718 9474192
-0.110642 -0.00824237 0.830315 13619151
-0.204422 -0.0152896 0.850891 11579568
-0.222161 -0.0141651 0.849033 10987431
-0.531905 0.0576749 1.76999 2631720
-0.618873 0.015386 1.47463 4737096
-0.296705 0.0775389 0.7861 5658198
-0.532338 0.0586143 1.75576 1842204
-0.0521632 0.0130845 0.865959 6316128
-0.268448 -0.0125331 0.846685 9737364
-0.545196 0.0678244 1.78028 2500134
-1.36336 0.0841675 2.04583 6645093
-0.515562 0.0951416 1.83203 4868682
-0.0498024 0.0240441 0.85406 6776679
-0.0487253 0.0258769 0.849688 7237230
-0.325804 0.00264844 0.908735 6381921
-0.534428 0.106967 1.82508 3750201
-0.564009 0.0878928 1.69509 1381653
-0.0686448 0.0223784 0.813275 7500402
-0.663127 0.0536159 1.50367 4276545
-0.550995 0.117659 1.80049 2894892
0.145692 0.230478 1.14225 3487029
-0.266452 0.00705359 0.812976 10658466
-0.069396 0.0358045 0.823238 9079434
-0.668907 0.0795103 1.53375 5395026
-0.573849 0.132016 1.78991 3092271
-0.324442 0.0189579 0.884971 6316128
-0.586155 0.138954 1.7608 3158064
-0.622018 0.123175 1.68549 1579032
-0.80408 0.261511 1.51923 4802889
-0.646832 0.135484 1.73007 1907997
-0.323564 0.0244498 0.87197 6184542
-0.689246 0.104605 1.55047 4144959
-0.611068 0.154519 1.75473 3289650
-0.613467 0.156524 1.72506 3552822
-0.891167 0.289325 1.42906 3947580
0.0195162 0.0626597 0.803537 5987163
0.0688236 0.0689799 0.799827 5658198
-0.67578 0.149762 1.6633 1776411
-0.634826 0.1667 1.70525 2697513
0.00875534 0.0673276 0.803566 7500402
-0.699376 0.157455 1.64881 2236962
-0.322008 0.0395929 0.848409 6447714
-0.266473 0.0381892 0.808574 10132122
-0.652453 0.1769 1.68545 4210752
-0.79546 0.233632 1.5999 4276545
-0.654034 0.177888 1.68511 3487029
0.142327 0.179318 1.06992 4737096
0.153301 0.172314 1.03286 3815994
-0.742308 0.213222 1.62932 3289650
-0.305496 0.0604561 0.799445 7171437
-0.772905 0.180121 1.4819 2039583
0.141126 0.199945 1.11133 3881787
-0.535195 0.0339077 0.791214 4013373
0.137483 0.203924 1.12217 3618615
0.151156 0.19581 1.07809 3421236
-0.769888 0.177373 1.44505 1644825
-0.292555 0.0651655 0.787048 6250335
0.109824 0.306717 1.51954 5526612
0.124156 0.301832 1.49398 4868682
-0.772752 0.224007 1.61583 3684408
-0.777554 0.226062 1.6123 3815994
-0.0788372 0.0675538 0.800781 5658198
-0.0594019 0.0670695 0.801663 6052956
0.149807 0.21528 1.11569 3158064
-0.802963 0.233513 1.60752 3289650
-0.0128872 0.0661796 0.803401 5789784
-0.00933133 0.065967 0.803455 5263440
-0.300789 0.0800597 0.7994 6184542
-0.896446 0.263951 1.60361 4802889
-0.767852 0.24763 1.49555 4079166
-0.253352 0.239173 1.10839 4276545
0.122948 0.317297 1.43649 5592405
-0.442384 0.335208 1.43143 7368816
-0.284227 0.0842491 0.793771 5395026
-0.794923 0.222111 1.49417 3552822
-0.274118 0.119209 0.904418 5131854
0.143558 0.37152 1.36723 3289650
-0.19717 0.0855647 0.80177 4934475
0.038962 0.0703389 0.800908 6316128
0.139905 0.269607 1.21689 3552822
0.123032 0.291952 1.1326 3618615
-0.868058 0.252371 1.57861 3618615
-0.152835 0.08333 0.798792 4802889
-0.793079 0.303791 1.7056 5329233
-0.206932 0.308956 1.47539 6710886
-0.97647 0.277939 1.52677 3750201
-0.876472 0.255594 1.57736 4671303
-0.806469 0.269624 1.51474 4605510
0.894454 0.491391 1.61038 7105644
-0.0124832 0.329517 1.43966 5000268
0.126447 0.339645 1.37848 5000268
-0.750579 0.151014 1.15762 1710618
-0.388488 0.298861 1.48536 6513507
-0.817923 0.221829 1.4107 4013373
-0.664339 0.274549 1.53025 5658198
-0.254359 0.199871 1.10526 5263440
0.124412 0.393667 1.3252 4210752
0.171658 0.0752539 0.815475 4079166
-0.254994 0.164266 1.10252 5329233
-0.416337 0.303409 1.47192 6513507
-0.417103 0.302738 1.47055 6316128
0.266118 0.35211 1.41549 5066061
0.126117 0.348979 1.39006 3421236
0.640928 0.34989 1.28269 3684408
-0.857753 0.295789 1.56085 2105376
-0.503807 0.298141 1.48065 6052956
0.104411 0.382467 1.36282 4737096
-0.213561 -0.0354544 0.883166 10132122
-0.216486 0.328596 1.44011 7368816
0.0841511 0.356383 1.40649 5789784
-0.693339 0.296438 1.51949 3618615
0.0813455 0.359497 1.40724 5197647
-0.918736 0.298246 1.43694 4671303
-0.180978 0.336682 1.43751 5526612
-0.178481 0.33479 1.42754 5526612
-0.270385 -0.0341235 0.881577 10329501
0.158222 0.111573 0.91645 3881787
0.130188 0.364544 1.39048 3223857
-0.540691 0.291565 1.49007 6842472
-0.261248 -0.0304353 0.872544 12961221
0.137554 0.280929 1.13141 3487029
-0.0557065 -0.0239018 0.949786 8553090
-0.216881 -0.0231125 0.863362 12303291
-0.229933 -0.0231979 0.862488 11184810
-0.252026 0.334028 1.4311 6645093
-0.712903 -0.00722849 1.57447 5723991
-0.706799 0.311344 1.52848 3618615
-0.0533292 -0.00122069 0.900544 7171437
-0.172699 -0.0156506 0.850403 10724259
-0.707537 0.312904 1.52999 3618615
-0.67551 0.311813 1.45088 4868682
0.124246 0.288083 1.13764 3552822
-0.449262 0.320273 1.44682 6776679
-0.521182 0.314027 1.45191 6710886
-0.177547 0.34633 1.41666 5987163
0.0643556 0.367899 1.3848 5329233
-0.324262 0.334941 1.43276 5723991
-0.395483 0.330606 1.4439 7434609
-0.0691633 0.303229 1.50458 4539717
0.137643 0.2937 1.13167 3881787
-0.110818 -0.00682504 0.827673 13619151
-0.332749 0.336018 1.42048 6118749
-0.254847 0.216995 1.10796 4671303
-0.250487 0.346326 1.41014 7303023
-0.208486 0.311641 1.48484 6974058
0.103213 0.38048 1.36124 4342338
-0.180838 0.309828 1.46781 6776679
0.15561 0.175258 1.04545 3750201
-0.0375638 0.252747 1.5748 5395026
0.102884 0.301491 1.49267 5329233
0.0168436 0.305472 1.47981 3947580
-0.433494 0.329722 1.44334 7237230
-0.290744 0.272273 1.54189 7895160
-0.438532 0.340141 1.41411 6579300
0.0451653 0.308617 1.46985 4671303
-0.366978 0.347894 1.40672 6842472
0.0904442 0.387614 1.34551 4802889
-0.233184 0.324805 1.44169 7434609
-0.216986 0.361231 1.3808 6579300
-0.329661 0.352432 1.38862 5987163
-0.257123 0.3631 1.37762 7763574
-0.499329 0.294836 1.49014 6184542
0.124403 0.32387 1.1376 3421236
-0.110066 0.3357 1.48927 4539717
-0.504465 0.342985 1.4063 8092539
-0.182558 0.372298 1.36764 6710886
0.124305 0.32562 1.13775 3750201
0.0206377 0.319712 1.45885 5658198
0.555817 0.27703 1.43784 5592405
0.137501 0.333855 1.13461 4079166
-0.382506 0.345166 1.41064 6908265
-0.332639 0.366553 1.37209 6579300
0.116355 0.407163 1.31288 4408131
-0.189902 0.384657 1.3463 5921370
-0.710369 0.366342 1.37886 5197647
-0.365516 -0.348604 2.288 4144959
-0.510384 -0.290253 1.67399 5658198
-0.201101 -0.356599 2.51483 11645361
-0.577177 0.328651 1.44239 6513507
-0.34844 -0.37092 2.52531 7697781
0.115417 -0.144887 0.976125 9539985
0.114757 -0.144486 0.972079 8816262
-0.721388 0.368739 1.35767 3684408
0.0273498 -0.33576 2.56819 7171437
0.15669 0.167899 1.03332 3881787
-0.711174 0.163247 1.63691 1579032
-0.321332 0.043373 0.84193 6776679
0.146598 0.129626 0.976421 4868682
0.164055 0.0615204 0.80603 4539717
-0.669811 0.183449 1.67343 2829099
-0.731014 0.171324 1.6352 1315860
-0.681831 0.384292 1.34307 6776679
0.136676 0.167354 1.11719 3158064
0.153808 0.137943 0.966076 2697513
-0.747378 0.177209 1.6168 1447446
0.14577 0.150136 1.01497 3947580
-0.764379 0.183223 1.62089 1776411
-0.739985 0.224395 1.73503 4210752
-0.309724 0.0559501 0.804738 7895160
0.14309 0.174688 1.06329 5066061
0.137044 0.188579 1.12028 3815994
0.151115 0.166591 1.01973 3487029
-0.792271 0.193262 1.60268 1579032
-0.640581 0.217378 1.62439 5197647
-0.304194 0.0571139 0.798051 8158332
-0.24642 0.382353 1.35766 6381921
0.337184 0.349028 1.36899 6184542
-0.0827303 0.380423 1.35102 5263440
0.0182099 0.377162 1.36254 5131854
0.148373 0.104808 0.92516 4342338
-0.16071 -0.0697397 0.943627 12698049
0.0731714 0.239997 1.47721 5460819
-0.803051 -0.0567054 1.48179 7763574
-0.217757 -0.0638527 0.932397 9868950
0.791239 -0.131708 2.29004 2368548
0.181139 -0.0809828 1.0331 6447714
0.148031 0.121822 0.963128 4276545
-0.0762078 -0.0662454 0.939061 10132122
-0.118932 0.0832221 0.803825 4868682
-0.177686 0.286671 1.50317 5921370
-0.110816 -0.0634555 0.935002 11316396
-0.206639 0.294231 1.50142 7171437
-0.219796 -0.0575445 0.92216 10395294
0.14731 -0.0722393 1.01896 6447714
-0.769258 -0.0394742 1.49792 6052956
-0.0577498 -0.0628933 0.99217 8224125
0.0341391 0.286393 1.51233 5131854
-0.1849 -0.0549049 0.915733 10329501
0.493051 -0.0906295 1.85216 2236962
0.137509 0.178835 1.12207 3750201
-0.168045 -0.0542867 0.917219 10461087
0.144995 0.155035 1.02481 4210752
-0.508459 0.341599 1.43283 6842472
0.8752 -0.104918 2.27732 2565927
-0.254242 0.229798 1.11169 4737096
-0.0528822 0.0819226 0.806797 5460819
0.127748 0.0581398 0.804353 6710886
0.763373 -0.0968181 2.24454 1513239
-0.629104 -0.0347313 1.52627 4605510
0.12157 0.0584772 0.804197 6118749
0.0183336 0.0653068 0.80312 5197647
0.144883 0.0577908 0.80543 6184542
0.178235 0.0559977 0.807091 6250335
0.0289084 0.065229 0.803245 6118749
0.157768 0.0575558 0.805543 5658198
0.0548272 0.0642777 0.803883 5197647
0.0688801 0.0637994 0.806133 4737096
-0.898482 0.263408 1.57087 4868682
0.0785877 0.0636586 0.805629 5000268
0.0876071 0.0631435 0.80592 4013373
-0.280689 0.308338 1.27606 5460819
0.0945887 0.0633503 0.806403 4408131
-0.497795 0.374164 1.40039 6513507
-0.062183 0.33072 1.43776 5197647
-0.283953 0.0872946 0.803611 4934475
-0.913875 0.265298 1.55483 4079166
-0.733572 0.242328 1.49165 4539717
-0.273647 0.086774 0.797881 5263440
0.541249 -0.144143 1.8981 1250067
-0.282026 0.356802 1.38761 6250335
0.149733 0.249985 1.18919 4276545
0.123997 0.236449 1.1313 4276545
-0.458901 0.380858 1.35273 6710886
-0.185669 0.358099 1.38916 5658198
-0.459773 0.386024 1.3584 6776679
-0.28179 0.372906 1.39001 5263440
-0.0635022 0.35095 1.40636 4144959
0.147021 0.260393 1.20214 4144959
0.219954 0.333433 1.46411 4473924
-0.257231 0.196576 1.11432 4802889
-0.113172 -0.00294181 0.821081 14408667
-0.529831 0.405587 1.34943 6381921
0.0317936 0.356407 1.40193 3684408
-0.219311 0.376101 1.35745 6645093
-0.131631 0.350641 1.30873 4802889
-0.254352 0.308381 1.12781 4144959
0.0388749 0.358416 1.39474 3947580
-0.207032 0.386411 1.37089 6645093
-0.239748 0.38811 1.35966 6118749
0.136373 0.255077 1.10383 5000268
-0.25713 0.390094 1.33957 6842472
-0.474063 0.426859 1.35553 7960953
0.126252 0.359763 1.39292 2960685
0.103761 0.364204 1.39092 5987163
-0.0844549 0.38371 1.35526 5066061
-0.45575 0.426189 1.32576 7237230
-0.338682 0.417638 1.3138 7434609
-0.0184505 0.38481 1.3458 4342338
-0.0255162 0.388925 1.34307 5263440
-0.527085 0.457834 1.33167 7829367
0.118694 0.37897 1.36248 4737096
0.0776161 0.3894 1.34204 4605510
-0.145608 0.297144 1.49854 5460819
0.654388 -0.275989 2.81529 855309
-0.646014 -0.111507 1.49971 2829099
-0.273365 -0.0957813 0.983727 12434877
0.431813 -0.226104 2.34533 3618615
0.0133768 0.0758316 0.802811 4342338
-0.00616186 -0.116162 1.08122 8618883
-0.905186 -0.100727 1.60503 6974058
-0.14133 -0.101481 0.992807 14013909
0.0533665 -0.11777 1.07868 9211020
0.0560239 -0.118361 1.08556 8487297
0.150129 -0.117072 0.986454 4934475
-0.650868 -0.106369 1.51557 4605510
0.151227 -0.116648 0.989036 4342338
-0.787445 -0.096858 1.50335 6974058
-0.0763745 -0.104174 1.00079 10658466
-0.0144131 0.311292 1.48593 5000268
-0.113772 -0.0983683 0.985425 13487565
-0.186364 -0.092415 0.977022 14342874
-0.542582 0.371584 1.37903 7895160
-0.63496 -0.097464 1.51111 4737096
-0.181854 0.335012 1.43555 5987163
-0.17049 -0.0920742 0.979735 13158600
0.11195 -0.108417 0.986632 7960953
-0.665017 0.370213 1.28005 7697781
-0.159344 -0.085169 0.967817 13684944
-0.0130861 0.325308 1.449 4802889
-0.251293 -0.0776043 0.950449 14671839
-0.621214 -0.0813597 1.53095 4671303
0.160309 -0.103894 1.02675 5000268
-0.332371 -0.0703905 1.02549 4144959
-0.233885 -0.0722187 0.944455 11184810
-0.20677 -0.0726108 0.947619 11974326
-0.428289 0.38442 1.37097 7631988
-0.272822 -0.0676189 0.938802 11447982
-0.179703 -0.0728889 0.947653 12237498
0.121033 -0.0932861 1.00755 8684676
0.2008 -0.100848 1.08083 4605510
0.15043 0.244298 1.17868 4276545
-0.156023 -0.0729184 0.946023 10921638
-0.255367 0.296763 1.12906 4210752
-0.264832 0.379758 1.37524 5066061
-0.240881 0.375988 1.3652 7434609
-0.0734821 0.0822432 0.806067 5066061
0.179416 0.0557564 0.806434 5921370
-0.0649439 0.0820719 0.806909 5263440
0.170514 0.0569794 0.805175 5723991
-0.173217 0.0136378 0.803816 12040119
-0.456942 0.396823 1.28539 7368816
-0.207039 0.383522 1.36543 6908265
-0.060601 0.36467 1.38061 4473924
-0.437878 0.411852 1.32082 6974058
-0.195328 0.386439 1.36379 6842472
-0.121956 0.366327 1.33642 4539717
0.127466 0.349429 1.40827 4802889
-0.255953 0.387972 1.3291 6710886
0.0476042 0.360653 1.3901 4802889
0.0954897 0.357111 1.39679 5131854
-0.408375 0.419926 1.31134 6842472
-0.298929 0.412884 1.33137 6776679
-0.120155 0.386847 1.34256 4342338
0.0310719 0.372658 1.37146 3684408
-0.431555 0.418258 1.27719 6776679
-0.348513 0.422611 1.31712 6776679
0.0846708 0.376259 1.36925 5131854
-0.643841 0.172992 1.69229 3684408
-0.324563 0.0294557 0.872576 6052956
-0.11988 0.404255 1.3303 4737096
-0.181983 0.414551 1.32365 4802889
