VERSION .7
FIELDS x y z rgb
SIZE 4 4 4 4
TYPE F F F F
COUNT 1 1 1 1
WIDTH 1241
HEIGHT 1
VIEWPOINT 0 0 0 1 0 0 0
POINTS 1241
DATA ascii
2.10341 0.842259 -1.54895 4.40813e+06
3.03996 0.53944 -0.80412 7.76357e+06
1.27523 1.1145 -2.16515 3.68441e+06
2.28084 0.663196 -1.21337 1.03953e+07
1.19596 1.02565 -2.07691 3.35544e+06
2.05608 0.78598 -1.44314 3.94758e+06
3.26557 0.551398 -0.725147 9.34261e+06
1.74152 0.869413 -1.56135 8.94785e+06
3.25231 0.555533 -0.734802 8.02675e+06
2.83995 0.597905 -0.926941 9.67157e+06
1.65244 1.07514 -1.84411 9.27681e+06
3.35805 -0.170366 0.294751 6.90826e+06
2.6969 0.607081 -0.98667 9.80316e+06
4.54567 0.255203 0.202677 3.55282e+06
4.66973 0.799097 -0.537195 6.11875e+06
4.71027 0.739613 -0.326794 5.85558e+06
2.70265 0.63275 -0.999678 1.08558e+07
4.7088 0.751789 -0.342111 6.25034e+06
2.03651 0.828781 -1.3915 5.6582e+06
3.3286 -0.170383 0.297765 6.90826e+06
3.25829 0.619543 -0.681973 1.01321e+07
3.03671 0.628369 -0.772642 7.76357e+06
2.63541 0.694704 -1.09985 1.03953e+07
3.46714 0.560349 -0.516487 7.5662e+06
2.62575 0.700035 -1.10979 9.67157e+06
2.62656 0.717748 -1.01195 1.05927e+07
1.88364 0.750078 -1.42496 8.88206e+06
1.96262 0.883609 -1.45321 5.46082e+06
4.63198 0.596583 -0.273876 3.42124e+06
3.26241 0.570288 -0.712461 9.01364e+06
1.65972 1.11944 -1.847 8.4873e+06
3.05056 0.564069 -0.777634 6.64509e+06
2.37118 0.963361 -1.38281 6.11875e+06
2.89446 0.641531 -0.927447 9.47419e+06
2.87177 0.662701 -0.961519 8.81626e+06
2.0589 0.89988 -1.42175 5.19765e+06
2.71143 0.648711 -0.999327 1.17112e+07
2.46955 0.699893 -1.14605 1.03295e+07
0.870291 0.0632461 -0.858662 7.10564e+06
5.06591 0.605574 -0.393229 6.97406e+06
2.48595 0.767208 -1.22392 9.53998e+06
3.11046 0.680498 -0.75492 5.78978e+06
2.43856 0.752986 -1.22258 1.01979e+07
2.3777 0.721307 -1.0753 1.05927e+07
2.4089 0.795539 -1.28558 1.07901e+07
2.1446 0.808437 -1.26539 4.86868e+06
2.11277 0.945638 -1.57369 5.13185e+06
1.79 0.990388 -1.74026 9.27681e+06
2.16352 0.843924 -1.30057 5.00027e+06
4.51106 0.193735 0.204676 5.00027e+06
4.50162 0.307558 0.224691 3.55282e+06
5.03789 0.777984 -0.13106 2.89489e+06
1.71107 0.931678 -1.679 9.73736e+06
3.11863 -0.287295 0.326745 8.81626e+06
4.59447 0.743682 -0.420908 8.22412e+06
4.70695 0.741217 -0.211427 3.94758e+06
3.03717 0.598733 -0.789472 7.82937e+06
4.62803 0.7351 -0.233728 3.61862e+06
3.45624 0.608348 -0.522363 9.21102e+06
3.24907 0.679014 -0.683489 8.61888e+06
2.31811 0.984028 -1.51477 5.52661e+06
2.93834 0.737013 -0.868394 1.12506e+07
1.82753 0.917323 -1.60504 1.01321e+07
2.76542 0.713947 -0.905827 1.18427e+07
2.41169 0.494809 -1.19622 1.25665e+07
3.24644 0.603786 -0.703776 8.88206e+06
2.7041 0.782148 -1.00945 1.15138e+07
2.59667 0.665838 -1.00977 1.04611e+07
2.28003 0.759429 -1.14129 1.15796e+07
2.33533 0.826652 -1.29873 1.05269e+07
2.17573 1.01103 -1.47794 3.94758e+06
4.63321 0.631453 -0.0207161 4.34234e+06
2.36401 0.113003 -2.30573 1.44087e+07
3.2379 -0.956048 0.121189 1.05927e+07
4.51305 0.312439 0.243151 5.06606e+06
3.4638 0.664825 -0.493841 7.36882e+06
4.68177 0.74439 -0.201419 3.81599e+06
4.66922 0.751943 -0.215041 4.07917e+06
2.69429 0.837448 -0.99309 1.03953e+07
3.46372 0.611435 -0.504813 7.30302e+06
2.33996 0.97045 -1.28464 9.80316e+06
3.0844 0.684677 -0.734192 5.39503e+06
2.76378 0.722512 -0.899755 1.17769e+07
2.31881 1.06032 -1.39643 4.34234e+06
2.71527 0.800924 -1.01033 1.10532e+07
2.05219 0.958854 -1.3836 3.48703e+06
2.66148 0.879633 -1.12325 1.17112e+07
2.39677 0.853688 -1.19266 1.12506e+07
1.86091 0.903854 -1.39489 7.96095e+06
2.72321 -0.318599 0.360084 8.09254e+06
2.15622 0.997722 -1.45295 3.48703e+06
4.74184 0.745872 -0.0657112 4.86868e+06
3.46782 0.666021 -0.475474 6.84247e+06
0.845336 0.0546076 -0.831714 9.07943e+06
4.27462 -0.0332476 -1.92727 1.28954e+07
3.46357 0.67524 -0.487715 7.36882e+06
3.25495 0.713762 -0.66766 9.67157e+06
3.09406 0.766173 -0.737331 5.46082e+06
3.02691 0.716155 -0.758003 8.88206e+06
2.33466 0.974858 -1.27532 9.4084e+06
2.03602 0.969028 -1.4329 4.01337e+06
5.05648 0.458813 0.343114 6.97406e+06
2.12022 1.00365 -1.39269 5.32923e+06
3.18059 0.0587472 0.289554 3.15806e+06
2.77236 -0.254333 0.454879 4.80289e+06
2.06021 0.995507 -1.40697 4.7371e+06
2.82886 -0.134744 0.352871 4.07917e+06
3.04434 0.0572804 0.255735 3.28965e+06
0.816468 0.0584154 -0.822283 8.81626e+06
2.95903 -0.00592524 0.30726 3.81599e+06
2.71705 -0.323779 0.373383 9.34261e+06
3.04349 0.0577708 0.278529 3.55282e+06
2.59498 -0.316535 0.494017 5.6582e+06
2.59575 0.815479 -0.973686 9.86895e+06
2.85352 -0.083711 0.372447 3.88179e+06
3.77486 0.22378 -2.21213 1.40797e+07
2.42983 0.762426 -0.521872 9.34261e+06
1.03764 -0.0253425 -0.51442 1.3356e+07
4.30761 0.324495 0.283577 3.22386e+06
2.75849 -0.214159 0.472564 3.61862e+06
2.84937 -0.067415 0.364147 3.35544e+06
3.01412 0.782882 -0.753362 9.01364e+06
2.97702 0.0278227 0.325238 4.21075e+06
2.76019 -0.203093 0.471348 3.88179e+06
2.83341 0.780003 -0.822329 1.08558e+07
2.51059 0.768473 -0.632047 1.02637e+07
2.33628 0.792463 -1.03517 9.14523e+06
2.61401 0.833604 -0.985842 9.60578e+06
2.6071 -0.358451 0.387604 9.86895e+06
1.2082 -0.0680419 -0.381285 1.09216e+07
3.14516 -0.232418 0.718901 6.11875e+06
4.57991 0.383068 0.345584 4.47392e+06
2.75105 -0.177722 0.487663 4.21075e+06
4.28667 0.506508 0.0881893 2.96068e+06
1.27357 -0.09374 -0.290806 8.94785e+06
3.13546 -0.21661 0.72836 6.44771e+06
2.45159 1.01346 -1.50216 5.72399e+06
2.74502 -0.152052 0.495925 4.21075e+06
3.4122 0.747698 -0.518154 8.4873e+06
2.44634 0.730865 -0.506582 9.47419e+06
2.67058 -0.318481 0.387002 7.69778e+06
2.42711 0.784853 -0.568351 9.47419e+06
7.81175 -1.17171 -2.07196 1.29612e+07
3.2214 0.801219 -0.638012 7.17144e+06
2.42379 0.754452 -0.527761 1.05269e+07
2.80343 -0.306187 0.43745 9.14523e+06
4.2779 0.56967 0.110446 3.42124e+06
0.968895 -0.0158279 -0.492447 1.38165e+07
4.29524 0.587218 0.0984018 4.60551e+06
1.25665 -0.0887969 -0.276221 1.17769e+07
3.16962 0.0729165 0.206211 3.94758e+06
1.25806 -0.0895771 -0.269369 1.03295e+07
2.27487 0.549476 -1.22388 1.17769e+07
2.59556 -0.231103 0.540971 6.18454e+06
2.70596 -0.322569 0.452763 6.77668e+06
3.19992 0.618617 0.037076 7.03985e+06
2.72176 -0.258413 0.389665 5.13185e+06
1.24271 -0.0945665 -0.261545 1.03295e+07
3.2115 0.0958589 0.21185 3.48703e+06
2.69972 -0.143421 0.527114 4.34234e+06
-0.832219 0.47227 0.528092 9.14523e+06
1.23054 -0.101084 -0.240812 8.61888e+06
-0.92446 0.581354 0.528353 1.08558e+07
3.02288 -0.0435958 0.29529 2.23696e+06
2.9977 0.591719 0.0261052 8.55309e+06
4.34971 0.620965 0.142411 4.14496e+06
2.3449 0.674299 -0.371697 8.4873e+06
2.94972 -0.338109 0.592561 8.35571e+06
2.86275 -0.329993 0.555923 9.27681e+06
2.34385 0.740432 -0.432978 8.15833e+06
-3.52099 -0.216872 1.03118 6.5793e+06
2.36407 0.732702 -0.403841 1.03953e+07
2.60686 0.809087 -0.774913 9.21102e+06
1.20871 -0.0996035 -0.238238 1.03295e+07
3.021 0.575355 0.16411 4.21075e+06
3.02749 0.625406 0.0485608 7.82937e+06
3.01579 0.581604 0.155827 4.14496e+06
2.6022 -0.173618 0.562924 6.05296e+06
2.73113 -0.0273964 0.550226 3.48703e+06
1.20056 -0.103044 -0.229479 9.07943e+06
2.87746 0.588839 0.0876347 7.82937e+06
3.01725 0.268108 0.390003 5.39503e+06
2.59286 -0.136041 0.579516 5.32923e+06
2.68766 -0.0654378 0.568715 3.42124e+06
2.73378 -0.0492804 0.536365 3.88179e+06
2.73071 -0.01631 0.548916 3.94758e+06
3.05369 0.579488 0.141153 4.40813e+06
3.07078 0.53688 0.260158 4.53972e+06
2.69366 -0.0852994 0.556005 3.81599e+06
3.14679 0.575751 0.205836 5.39503e+06
2.26999 0.668481 -0.285455 1.07243e+07
2.82873 0.571496 0.0420301 8.28992e+06
2.26392 0.695114 -0.311859 9.53998e+06
1.18044 -0.100819 -0.227545 1.25665e+07
1.16245 -0.108178 -0.207352 1.04611e+07
3.12767 0.563934 0.218625 4.6713e+06
2.25901 0.687125 -0.29701 1.01321e+07
2.8516 0.584729 0.05407 8.55309e+06
2.25522 0.694386 -0.305335 9.60578e+06
-2.2285 0.438069 -0.0473729 5.46082e+06
1.18289 -0.106279 -0.216662 1.01979e+07
2.6812 -0.0513569 0.577809 3.7502e+06
3.01992 0.536883 0.401111 2.63172e+06
3.17483 0.444115 0.419898 4.53972e+06
3.10145 0.735273 0.287987 6.77668e+06
3.03575 0.752626 0.236454 7.03985e+06
2.2874 0.667473 -0.25419 9.14523e+06
2.69173 0.59523 0.166483 7.30302e+06
2.56497 0.586819 0.100781 1.03953e+07
3.07807 0.477013 0.350441 4.47392e+06
2.53329 0.58162 0.0868476 1.02637e+07
2.68658 -0.0328358 0.581343 3.61862e+06
2.37754 0.729541 -0.121306 7.5662e+06
3.03116 0.484647 0.329578 4.7371e+06
-0.708701 0.699718 -0.460501 5.92137e+06
2.72617 0.0163625 0.569647 3.42124e+06
-1.36885 0.490798 -0.213472 6.77668e+06
3.17657 0.41886 0.476463 3.81599e+06
3.17155 0.424484 0.468939 4.34234e+06
-0.639612 0.685607 -0.46016 5.52661e+06
2.9876 0.49358 0.309261 3.09227e+06
-1.00405 0.772227 -0.440126 6.5793e+06
2.69541 0.569234 0.0844976 8.68468e+06
-1.30798 0.561242 -0.260505 6.44771e+06
-1.73728 0.559863 -0.177421 5.46082e+06
2.86298 0.382039 0.44586 1.908e+06
2.91637 0.50089 0.381286 2.8291e+06
3.01198 0.59288 0.362457 5.6582e+06
2.54742 0.599439 0.0905982 9.86895e+06
-0.485116 0.495402 -1.03153 1.03295e+07
-3.21428 -0.167039 1.05376 5.72399e+06
2.71847 0.0998541 0.597294 3.02648e+06
2.79062 0.222157 0.541372 4.14496e+06
2.53964 0.582306 0.109735 1.07901e+07
-1.65814 0.942646 -1.32042 3.81599e+06
2.77489 0.268015 0.504814 3.48703e+06
2.56976 0.575307 0.142525 7.76357e+06
2.58134 -0.0215558 0.630026 4.80289e+06
2.69246 0.576469 0.0767491 9.34261e+06
2.68043 0.0594399 0.623606 3.02648e+06
2.72499 0.0272903 0.568243 3.09227e+06
2.78214 0.285214 0.504463 2.96068e+06
3.13658 0.414528 0.469213 3.55282e+06
3.08332 0.707765 0.345786 6.31613e+06
2.99458 0.496611 0.32164 2.76331e+06
2.70763 0.617615 0.198948 6.5793e+06
2.89431 0.492018 0.416471 2.63172e+06
2.70513 0.583455 0.0886319 9.34261e+06
2.67499 0.574818 0.223762 7.69778e+06
2.69133 0.592576 0.0733272 9.47419e+06
2.56771 -0.0221066 0.637283 5.6582e+06
2.6791 0.0700921 0.630353 3.55282e+06
2.6831 -0.0120003 0.594575 3.7502e+06
2.71679 0.128423 0.606811 3.61862e+06
2.9916 0.332942 0.478548 3.42124e+06
2.66991 0.167158 0.54916 4.21075e+06
3.03241 0.431551 0.429753 2.23696e+06
2.87416 0.289846 0.572673 4.27654e+06
-2.04223 0.612147 -0.237962 6.44771e+06
2.79556 0.298232 0.520197 3.28965e+06
2.88403 0.484897 0.426082 2.76331e+06
2.97411 0.532759 0.324162 3.35544e+06
2.56884 0.35653 0.342177 5.6582e+06
2.54851 0.502098 0.216587 6.31613e+06
-0.475946 0.556149 -0.812216 1.05269e+07
2.85545 0.767931 0.188291 7.17144e+06
-0.48947 0.553084 -0.801997 1.01979e+07
2.38718 0.611323 0.0369977 7.30302e+06
2.80697 0.246159 0.476431 3.94758e+06
-0.408996 0.636354 -0.954002 8.35571e+06
2.97485 0.540867 0.328843 3.68441e+06
-2.48883 -0.0544533 1.08079 4.34234e+06
2.93295 0.513871 0.348779 3.09227e+06
2.58587 -0.0509471 0.618743 5.98716e+06
2.70142 0.128592 0.539276 4.40813e+06
2.4203 0.589213 0.00637828 7.43461e+06
-0.43311 0.680391 -0.967439 7.69778e+06
6.3967 1.45091 1.59591 5.98716e+06
2.58908 -0.0392768 0.618681 5.32923e+06
2.86965 0.241486 0.55304 3.61862e+06
2.77596 0.242505 0.498646 3.09227e+06
-0.546209 0.594839 -0.628755 1.17769e+07
-0.462865 0.575623 -0.798491 9.80316e+06
-0.666573 0.566957 -0.535697 8.55309e+06
-2.70549 0.321712 0.756673 5.5924e+06
-0.482499 0.561725 -0.770688 9.01364e+06
-2.83024 0.307673 0.834537 5.13185e+06
-0.778897 0.416036 -0.438605 1.25007e+07
-2.8747 0.307904 0.855744 5.26344e+06
-2.12652 0.589665 -0.0714518 7.17144e+06
-2.08166 0.589967 -0.156882 4.27654e+06
-2.72141 0.395394 0.460921 6.31613e+06
-0.587944 0.104804 -3.23628 1.03953e+07
-0.507999 0.563257 -0.749853 7.43461e+06
-0.603677 0.536475 -0.517559 1.12506e+07
-2.18372 0.563598 0.00569767 6.11875e+06
-2.56563 0.327336 0.695439 8.28992e+06
-0.791005 0.428974 -0.428817 8.75047e+06
-2.71132 0.312871 0.784187 5.72399e+06
-2.22039 0.542591 0.0664307 6.25034e+06
-2.73601 0.311419 0.797989 5.13185e+06
-2.61695 0.374778 0.472836 5.13185e+06
-0.688662 0.563047 -0.498543 1.18427e+07
-0.350378 -0.0577688 0.0337216 7.03985e+06
-2.7666 0.28442 0.873217 5.92137e+06
-0.352749 -0.0539489 0.0352801 7.5662e+06
-2.91803 0.244254 1.02331 4.6713e+06
-3.0522 0.255468 1.07614 4.60551e+06
-0.396012 0.69499 -0.942797 9.27681e+06
-0.417432 0.696456 -0.93492 9.73736e+06
-0.460892 0.721621 -0.760493 7.5662e+06
-0.623013 0.499282 -0.577861 1.03295e+07
-0.599135 0.579874 -0.521037 8.75047e+06
-2.27566 0.508341 0.168418 6.25034e+06
-0.669226 0.58697 -0.494724 9.67157e+06
-2.35139 0.472542 0.250868 5.72399e+06
-0.738374 0.476108 -0.326826 1.22375e+07
-2.36858 0.466765 0.266454 5.78978e+06
-2.88416 0.0526233 1.05486 4.27654e+06
-2.7614 0.251036 0.95037 6.44771e+06
-2.82694 0.243713 0.991785 4.86868e+06
-0.621764 0.505691 -0.576008 1.02637e+07
-0.325117 -0.0209532 0.0713918 5.92137e+06
-0.745684 0.471596 -0.473689 9.14523e+06
-0.713966 0.549509 -0.41701 1.36192e+07
-2.28088 0.511572 0.181727 6.64509e+06
-2.47411 0.223333 0.852727 8.22412e+06
-0.781868 0.439183 -0.403345 9.80316e+06
-1.69206 0.619235 -0.217973 8.4215e+06
-0.422379 0.701529 -0.73385 8.09254e+06
-2.4578 0.217775 0.874589 7.63199e+06
-0.350413 -0.0453293 0.0394824 7.89516e+06
-2.48499 0.0329548 1.10671 5.00027e+06
-2.82135 0.187805 1.10542 4.6713e+06
-0.384213 0.696523 -0.914586 9.4084e+06
-0.314754 -0.0262965 0.0926558 5.85558e+06
-2.34601 0.469508 0.297208 5.52661e+06
-0.346566 -0.000277519 0.0784692 7.36882e+06
-2.92119 0.0939293 1.05648 4.6713e+06
-0.403664 0.689296 -0.884356 1.09216e+07
-0.417471 0.69453 -0.696314 7.5004e+06
-0.492234 0.627087 -0.762013 1.05269e+07
-0.731265 0.551854 -0.370237 1.00005e+07
1.19325 1.41643 -2.88855 5.92137e+06
-2.59092 0.395184 0.523306 6.64509e+06
-0.361142 0.0470325 0.0527137 6.71089e+06
-3.02321 0.38791 0.735458 6.18454e+06
-2.11964 -0.141269 1.17654 6.25034e+06
-0.708208 0.579991 -0.354486 8.02675e+06
-0.530654 0.610647 -0.711346 1.12506e+07
-3.82901 0.995678 0.825052 8.02675e+06
-0.629522 0.526263 -0.555817 1.04611e+07
-0.314771 -0.00787687 0.115557 7.23723e+06
-2.40232 0.448364 0.380361 6.05296e+06
-2.41795 0.419318 0.425226 5.19765e+06
-0.390529 0.736866 -0.665894 7.82937e+06
-2.70015 0.359642 0.635277 5.6582e+06
-0.54471 0.648285 -0.486822 7.23723e+06
-2.7167 0.360689 0.641725 5.78978e+06
-0.715921 0.588431 -0.330447 8.94785e+06
-0.393458 0.70264 -0.883134 8.02675e+06
-0.965788 0.760572 -0.388446 8.28992e+06
-0.530542 0.466388 -0.854196 8.4873e+06
-2.53632 0.173853 1.08754 6.38192e+06
-2.3838 0.453206 0.379846 6.90826e+06
-0.389005 0.743029 -0.663399 7.82937e+06
-1.12292 0.64 -0.161627 9.53998e+06
-0.747452 0.588161 -0.303738 8.4873e+06
-2.54297 0.102365 1.19011 5.78978e+06
-1.44958 0.454089 0.538081 6.38192e+06
-0.461966 0.816224 -0.683676 7.23723e+06
-1.45318 0.52805 0.222766 7.10564e+06
-1.54748 0.433975 0.613997 6.51351e+06
-1.42928 0.559224 0.121748 7.5662e+06
-2.46715 0.293741 1.29335 5.46082e+06
-1.58017 0.821483 -0.907629 5.32923e+06
-0.416417 0.799225 -0.668983 7.30302e+06
-1.70891 0.42756 0.749533 8.09254e+06
-2.51039 0.317197 1.3261 6.25034e+06
-0.866666 0.713201 -0.334811 8.35571e+06
-0.337413 0.17985 0.142424 7.30302e+06
-0.900387 0.721045 -0.325056 8.35571e+06
-0.6316 0.562625 -0.551028 1.00005e+07
-1.57409 0.39063 0.708115 6.18454e+06
-1.41417 0.592883 0.0883378 7.89516e+06
-1.61923 0.403719 0.724162 6.5793e+06
-1.4453 0.543099 0.158303 8.55309e+06
-1.47382 0.426012 0.625416 6.25034e+06
-2.16784 -0.0510086 1.18209 6.51351e+06
-1.62228 0.388087 0.763067 6.11875e+06
-0.550124 0.688178 -0.468612 7.69778e+06
-2.38662 0.279279 1.32701 5.5924e+06
-0.705616 0.611719 -0.30343 8.35571e+06
-0.278324 0.128504 0.17233 5.06606e+06
-2.22235 -0.0176784 1.18416 6.44771e+06
-1.47931 0.416034 0.668244 7.76357e+06
-0.399711 0.778364 -0.635664 6.18454e+06
-1.50743 0.397307 0.708497 6.97406e+06
-1.54887 0.372303 0.754407 4.01337e+06
-1.37445 0.5638 0.12953 8.28992e+06
-2.33793 0.260716 1.32921 5.78978e+06
-0.524711 0.48748 -0.806319 1.01979e+07
-0.332247 0.192272 0.161921 6.51351e+06
-1.40323 0.560566 0.169297 9.47419e+06
-1.63917 0.370571 0.818751 6.18454e+06
-2.35931 0.27332 1.35654 6.11875e+06
-1.48521 0.533795 0.241942 8.28992e+06
-0.328023 0.223905 0.14782 7.03985e+06
-0.400212 0.851691 -0.671623 7.43461e+06
-1.61217 0.349921 0.8412 8.15833e+06
-1.55819 0.34659 0.817695 5.32923e+06
-1.3272 0.568234 0.129863 7.5004e+06
-2.75832 0.460695 1.47105 7.23723e+06
-2.25504 0.236396 1.35273 5.19765e+06
-0.334124 0.0899903 0.0814124 7.10564e+06
-0.32682 0.245691 0.153488 6.5793e+06
-0.679095 0.761619 -0.415467 7.23723e+06
-2.125 0.187696 1.32422 5.13185e+06
-2.21932 0.223484 1.35552 4.7371e+06
-1.47288 0.531039 0.268472 8.09254e+06
-1.53884 0.396237 0.809954 8.68468e+06
-1.5232 0.362456 0.846765 7.5004e+06
-0.531635 0.729355 -0.444782 6.77668e+06
-1.52701 0.359323 0.851533 7.30302e+06
-1.51294 0.502849 0.339083 8.15833e+06
-0.311636 0.186711 0.215641 5.52661e+06
-1.4489 0.359516 0.822003 9.27681e+06
-2.31557 0.30454 1.45275 6.18454e+06
-0.529484 0.748947 -0.446743 6.90826e+06
-0.269157 0.147965 0.256574 5.5924e+06
-0.652549 0.790798 -0.419677 8.35571e+06
-0.336738 0.308079 0.193009 6.64509e+06
-1.36002 0.53766 0.228611 6.51351e+06
-0.316676 0.241181 0.230716 6.38192e+06
-0.3131 0.231948 0.243105 5.85558e+06
-1.26559 0.525002 0.197842 9.4084e+06
-0.336762 0.323138 0.201005 5.98716e+06
-1.47178 0.525541 0.32275 6.18454e+06
-0.304044 0.200819 0.27814 5.78978e+06
-0.716274 0.539986 0.3444 8.81626e+06
-1.57026 0.481763 0.430932 9.67157e+06
-1.07286 -0.190889 1.05411 8.35571e+06
-1.30161 1.0755 -1.96433 2.43434e+06
-0.715371 0.676343 -0.224275 6.90826e+06
-0.582546 0.569031 0.242479 8.09254e+06
-0.809842 0.575554 0.389663 9.07943e+06
-1.38838 0.512412 0.326164 6.25034e+06
-1.46002 0.200184 1.06384 8.28992e+06
-1.0981 0.447079 0.681679 9.47419e+06
-1.46249 0.507946 0.391321 6.38192e+06
-2.54609 1.46243 1.01202 8.68468e+06
-1.53465 0.486947 0.452667 8.75047e+06
-0.698656 0.708664 -0.228534 7.10564e+06
-2.56831 0.296107 1.23697 6.5793e+06
-0.702936 0.708741 -0.217145 8.15833e+06
-1.43996 0.476507 0.426147 7.43461e+06
-1.51968 0.466561 0.481508 1.01979e+07
-1.58399 0.479736 0.515445 6.97406e+06
-0.317474 0.139141 0.103984 5.78978e+06
-1.44589 0.464209 0.47606 7.82937e+06
-1.51875 0.440263 0.540531 6.05296e+06
-0.318638 0.145462 0.113449 6.18454e+06
-2.64358 0.359211 1.2821 5.5924e+06
-1.42116 0.475648 0.468368 9.47419e+06
-0.339035 0.160195 0.131616 7.69778e+06
-1.50486 0.457272 0.559725 5.85558e+06
-1.59825 0.422851 0.645593 8.4873e+06
-2.27463 -0.582589 -0.376768 328965
-0.948613 -0.221518 -1.3347 1.40139e+07
-2.08895 -0.378247 -1.11971 394758
-0.628947 1.3128 -2.51197 5.39503e+06
-1.85112 -0.296097 -1.33373 1.40797e+07
-3.67791 -0.898094 0.453997 6.25034e+06
-0.644469 0.540324 -0.569182 8.61888e+06
-0.939627 -0.206245 -1.3402 1.3027e+07
-1.84998 -0.274661 -1.35159 1.6514e+07
-1.13498 -0.253562 -1.1649 1.44745e+06
-1.85118 -0.263912 -1.32708 1.45403e+07
-1.84998 -0.308689 -1.15092 1.1448e+07
-2.39875 -0.536204 -0.433135 1.63825e+07
-1.8676 -0.655057 0.203145 1.44745e+06
-3.92888 -0.856871 0.336766 7.23723e+06
-1.16201 1.09365 -1.77344 4.47392e+06
-2.39781 -0.519536 -0.468444 131586
-3.2275 -0.696099 -0.0377541 8.22412e+06
-1.84888 -0.242449 -1.34316 1.55929e+07
-2.29156 -0.527379 -0.377241 197379
-3.02405 -0.675308 -0.0252981 1.05269e+07
-1.05548 -0.28025 -0.938432 1.67114e+07
-1.85129 -0.285333 -1.14721 1.09874e+07
-2.09628 -0.633369 0.110763 1.62509e+07
-1.13633 1.10846 -1.78347 6.31613e+06
-0.121136 1.54586 -3.24683 4.60551e+06
-1.02516 1.08338 -2.03986 4.34234e+06
-0.669508 0.740676 -0.415611 6.5793e+06
-0.733471 0.721972 -0.221746 8.02675e+06
-1.18898 1.08275 -1.77129 2.89489e+06
-0.741041 0.721797 -0.206644 8.02675e+06
0.202508 1.43133 -2.10194 7.30302e+06
-1.08449 1.11155 -1.86327 2.96068e+06
-0.600738 0.583531 -0.481271 7.63199e+06
-0.425108 0.696411 -0.692905 7.10564e+06
0.322865 1.32287 -2.12411 7.17144e+06
-1.01339 1.12386 -2.06316 5.92137e+06
0.338642 1.39505 -2.6017 6.84247e+06
-1.08446 1.12063 -1.84797 4.86868e+06
-0.557205 0.713035 -0.395489 7.30302e+06
-0.571454 0.737141 -0.40391 6.51351e+06
-1.55203 0.992072 -1.7302 8.81626e+06
-0.563304 0.615597 -0.647909 9.93474e+06
-0.991997 1.14558 -2.04262 5.78978e+06
-0.339106 0.762768 -0.867922 9.14523e+06
-0.600968 0.593908 -0.488839 7.30302e+06
-0.412126 0.722043 -0.680546 6.5793e+06
-0.732275 0.597347 -0.289031 6.84247e+06
-0.573215 0.746107 -0.400432 7.03985e+06
-1.12372 1.0888 -1.80141 3.35544e+06
-0.618478 1.29406 -2.5485 4.60551e+06
-0.43987 0.60325 -0.758842 6.90826e+06
-0.964699 1.12506 -1.89809 4.86868e+06
-0.444408 0.598104 -0.72827 1.06585e+07
-0.939574 1.15925 -2.05715 5.19765e+06
-0.529992 0.465155 -3.37776 1.38823e+07
-0.589539 0.830324 -0.758255 7.43461e+06
-0.883893 0.477404 -3.30189 1.6514e+07
-0.611853 0.782631 -0.360026 8.81626e+06
-1.724 0.306097 -1.54506 1.55929e+07
-0.48253 0.760851 -0.460152 1.02637e+07
-1.91141 0.283246 -1.27405 1.10532e+07
-0.727406 0.622796 -0.247244 7.43461e+06
-0.556925 1.34763 -2.64901 4.53972e+06
-1.86843 0.297016 -1.30892 1.19743e+07
-0.586509 0.632665 -0.454275 7.5662e+06
-0.880047 1.21299 -2.23065 6.51351e+06
-0.401127 0.776915 -0.638841 6.97406e+06
-1.02846 1.12279 -1.86182 4.80289e+06
-0.6153 0.45906 -3.16629 1.1119e+07
-0.8445 1.21628 -2.2867 5.26344e+06
-0.491119 0.831615 -0.688176 8.28992e+06
-0.62567 0.459389 -3.16325 1.42771e+07
-0.500148 0.833462 -0.673584 7.63199e+06
-0.407598 0.784322 -0.613376 7.69778e+06
-0.721895 0.442775 -2.98065 1.55271e+07
-0.855097 1.22234 -2.22243 4.93448e+06
-0.752148 0.442922 -2.96538 1.48034e+07
-0.442419 0.818568 -0.686685 6.90826e+06
-0.974145 0.42073 -2.67075 1.03295e+07
-0.410045 0.796122 -0.630223 6.5793e+06
-0.776558 1.2484 -2.35503 5.00027e+06
-0.7743 1.25195 -2.31454 5.32923e+06
-0.411167 0.880091 -0.916613 8.55309e+06
-0.433545 0.844157 -0.597488 9.53998e+06
-0.295159 0.888624 -0.841591 6.64509e+06
-0.230376 0.886101 -0.883258 9.01364e+06
-0.103456 0.705488 -0.17163 6.51351e+06
-0.086707 0.704836 -0.182305 6.51351e+06
-0.25735 1.56182 -3.19793 5.26344e+06
-0.0775734 0.713049 -0.210018 6.71089e+06
-0.133842 1.50034 -3.12278 5.00027e+06
-0.104084 1.48695 -3.11217 5.00027e+06
-1.00319 1.13251 -2.03751 4.47392e+06
-0.45053 0.667369 -0.712435 7.76357e+06
-0.735954 0.708217 -0.232548 7.23723e+06
-1.02516 1.1337 -1.87306 4.60551e+06
0.13415 1.42343 -1.84322 9.01364e+06
-0.100762 1.74417 -2.28903 8.09254e+06
0.32507 1.13609 -1.54202 9.21102e+06
-0.954046 1.15186 -2.02309 3.81599e+06
0.3252 1.08559 -1.35781 8.94785e+06
-0.956886 1.12512 -1.89967 3.68441e+06
0.296773 1.26406 -1.88626 8.4215e+06
0.372155 1.11468 -1.60359 8.55309e+06
-0.932139 1.17732 -2.12619 5.06606e+06
0.365785 1.12546 -1.5972 8.02675e+06
-0.717413 0.660301 -0.226792 6.38192e+06
-0.96164 1.18956 -2.07837 5.19765e+06
-0.931806 1.16285 -2.01455 4.93448e+06
-0.940769 1.14215 -1.90702 5.98716e+06
-0.495855 0.830796 -0.686068 7.30302e+06
-0.892399 1.22127 -2.24748 5.13185e+06
-0.860995 1.20051 -2.16684 5.39503e+06
-0.731993 0.704054 -0.228628 6.18454e+06
-0.834211 1.22824 -2.29136 4.80289e+06
-0.381661 0.712977 -0.883964 9.60578e+06
-0.74013 0.710239 -0.199214 7.36882e+06
-0.945977 1.17913 -2.08158 5.26344e+06
-0.279396 0.88783 -0.859013 8.94785e+06
-0.945396 1.17141 -2.01385 5.5924e+06
-0.280551 0.887219 -0.848466 7.89516e+06
-0.456089 0.824065 -0.69495 7.69778e+06
-0.460512 0.824427 -0.681744 7.89516e+06
-0.693307 1.24849 -2.22572 8.68468e+06
-0.165219 1.04377 -3.50316 3.48703e+06
-0.698436 1.28472 -2.43871 6.44771e+06
-0.702475 1.28546 -2.42752 5.78978e+06
-0.850046 1.19676 -2.22332 6.18454e+06
-0.661171 1.28328 -2.50054 5.19765e+06
-0.862781 1.22061 -2.19913 6.11875e+06
-0.382093 0.869035 -0.929719 8.35571e+06
-0.318239 0.816498 -0.708353 9.60578e+06
-0.506175 1.38325 -2.76207 4.7371e+06
-0.316714 1.47533 -3.08468 3.7502e+06
-0.155791 1.06121 -3.49918 2.8291e+06
-0.633509 1.28378 -2.5395 5.6582e+06
-0.857048 1.24635 -2.2635 4.86868e+06
-1.93656 0.996158 -1.12913 6.38192e+06
-0.164041 1.08014 -3.50332 2.8291e+06
-0.653657 1.29935 -2.49848 5.92137e+06
-0.742311 1.21185 -2.32563 5.78978e+06
-0.667374 1.30409 -2.47869 6.11875e+06
-0.827587 1.24576 -2.28286 5.06606e+06
-0.0564841 1.01703 -0.0552993 6.77668e+06
-0.359837 0.881065 -0.902694 9.93474e+06
-0.201011 1.17904 -2.01663 8.02675e+06
-0.86533 1.27158 -2.26504 6.77668e+06
-0.286536 1.49356 -3.1284 4.34234e+06
0.144683 0.679853 -0.37988 8.4873e+06
-0.324567 0.872621 -0.897118 9.60578e+06
-0.582561 1.31834 -2.64135 5.78978e+06
-0.78541 1.25189 -2.32414 5.39503e+06
-0.585482 1.31736 -2.61873 6.31613e+06
-0.297681 0.864064 -0.858241 7.69778e+06
-0.606469 1.33404 -2.57991 6.38192e+06
-0.759347 1.26388 -2.35559 5.72399e+06
0.0121574 1.25773 -0.603409 8.35571e+06
-0.116099 1.08806 -3.443 2.8291e+06
-0.292075 0.884203 -0.844589 8.02675e+06
-0.556013 1.34376 -2.6438 6.31613e+06
-0.109862 0.720082 -0.146658 7.36882e+06
-0.388403 1.39109 -3.81145 5.46082e+06
-0.211583 1.44962 -3.61174 2.36855e+06
-0.520955 1.34433 -2.7337 6.51351e+06
-0.345326 1.47338 -3.03509 4.86868e+06
-0.535722 1.34935 -2.70585 5.46082e+06
-0.25249 1.47929 -3.55578 2.17117e+06
-0.36416 1.38276 -3.77579 4.7371e+06
-0.330342 1.47555 -3.05849 5.26344e+06
-0.547644 1.36252 -2.6768 6.51351e+06
-0.207306 1.47235 -3.60406 2.56593e+06
-0.524023 1.37441 -2.72583 5.26344e+06
-0.164427 1.42365 -3.42593 2.43434e+06
-0.477829 1.3754 -2.79639 5.06606e+06
-0.284534 1.48152 -3.13596 3.55282e+06
-0.340459 1.22062 -2.11275 7.96095e+06
-0.306959 1.49392 -3.11062 5.6582e+06
-0.478587 1.39544 -2.79862 5.72399e+06
-0.290939 1.55121 -3.63911 1.8422e+06
-0.257691 1.3709 -3.66261 4.14496e+06
-0.15987 1.43776 -3.4255 1.97379e+06
-0.404276 1.39204 -2.90566 5.26344e+06
-0.29765 1.49754 -3.11571 4.80289e+06
-0.432406 1.40584 -2.878 5.00027e+06
-0.288889 1.5027 -3.13194 5.78978e+06
-0.299062 1.42447 -3.68539 3.55282e+06
-0.256461 1.56611 -3.73635 1.77641e+06
-0.443735 1.42062 -2.86308 4.93448e+06
-0.160766 1.46306 -3.41296 2.63172e+06
-0.375621 1.37702 -2.75751 6.64509e+06
-0.255729 1.50631 -3.20404 4.40813e+06
-0.318276 1.46178 -3.67154 4.07917e+06
-0.269741 1.51271 -3.17329 4.53972e+06
-0.396419 1.43131 -2.96124 4.01337e+06
-0.410696 1.43621 -2.92555 4.86868e+06
-0.203573 1.52336 -3.60442 1.57903e+06
0.277534 0.732394 -0.434698 7.03985e+06
-0.236265 1.50603 -3.24159 4.40813e+06
-0.391005 1.44563 -2.94893 5.39503e+06
0.0185968 1.174 -1.87614 8.88206e+06
-0.256824 1.44697 -3.64254 3.28965e+06
-0.152789 1.47336 -3.39895 2.89489e+06
-0.161016 1.36315 -3.43682 2.96068e+06
-0.257772 1.52575 -3.19867 4.27654e+06
-0.243183 1.45146 -3.68149 2.69751e+06
-0.369306 1.45575 -2.99263 4.53972e+06
-0.185585 1.45839 -3.05508 7.30302e+06
-0.251839 1.46848 -3.70449 2.23696e+06
0.0074563 1.18976 -1.87667 9.07943e+06
-0.192494 1.41453 -3.48691 2.36855e+06
-0.251341 1.5408 -3.20733 4.86868e+06
-0.31081 1.44569 -3.0735 4.21075e+06
-0.224064 1.53374 -3.23803 4.21075e+06
-0.334552 1.45952 -3.05872 4.40813e+06
-0.216232 1.57877 -3.61047 2.56593e+06
0.0281305 1.57817 -3.44428 2.63172e+06
-0.246963 1.6028 -3.62379 2.76331e+06
0.105097 1.53621 -3.37841 2.36855e+06
-0.277443 1.62289 -3.6034 2.03958e+06
0.153486 1.51174 -3.3345 2.43434e+06
0.150744 1.51367 -3.32927 3.02648e+06
-0.183634 1.5175 -3.27544 3.35544e+06
0.39425 1.11044 -1.60718 8.61888e+06
0.5221 0.868944 -0.512735 5.5924e+06
-0.202328 1.5391 -3.26382 4.86868e+06
-1.02239 0.493624 -2.75883 1.63167e+07
-1.73369 0.123793 -1.32361 1.34876e+07
-0.229195 1.6068 -3.60897 3.09227e+06
-0.984329 0.458069 -2.58233 1.21059e+07
0.588199 0.986351 -1.52822 8.94785e+06
-0.23728 1.60313 -3.52203 2.69751e+06
-0.535695 0.590782 -0.637892 9.67157e+06
-0.81086 0.39298 -2.85483 1.56587e+07
-0.552811 0.583342 -0.59464 8.68468e+06
-0.157911 1.49952 -3.12306 5.5924e+06
0.417555 0.0482084 -0.482571 1.1119e+07
-0.904139 0.468679 -2.62432 1.07243e+07
-0.202774 1.59684 -3.61327 2.8291e+06
-0.254143 1.52497 -3.60361 1.8422e+06
-2.44337 -0.311639 1.20503 6.90826e+06
-0.751522 0.566379 -3.16527 1.66456e+07
-0.201248 1.57918 -3.46517 2.89489e+06
-0.734358 0.526689 -2.95996 1.42771e+07
-1.03094 0.395362 -2.79237 460551
-0.740912 0.52155 -2.92974 1.36849e+07
-0.188256 1.5623 -3.31879 4.40813e+06
-1.78669 0.307195 -1.34972 1.40797e+07
-0.519162 0.593334 -0.644457 9.53998e+06
-1.98691 0.293425 -1.19317 7.30302e+06
-0.146202 1.51017 -3.13652 5.92137e+06
-0.569552 0.733284 -0.424016 5.98716e+06
-2.4099 -0.121284 1.20137 6.05296e+06
-0.159055 1.55432 -3.364 4.6713e+06
-0.5497 0.593976 -3.3572 1.45403e+07
-0.610846 0.486057 -3.2699 7.5662e+06
-0.624639 0.560372 -3.14517 1.04611e+07
-0.172356 1.5984 -3.58611 2.50013e+06
-0.548739 0.587218 -3.28228 8.09254e+06
-0.733843 0.474404 -3.18361 1.63167e+07
-0.144175 1.42636 -3.40262 2.30276e+06
-0.17664 1.57683 -3.36331 3.61862e+06
-0.590646 0.685793 -3.74873 1.67772e+07
-0.483093 1.37154 -2.79261 4.07917e+06
-0.190301 1.58768 -3.36658 4.01337e+06
-0.508372 1.16488 -2.18332 6.71089e+06
-0.798902 0.454484 -3.02006 1.48692e+07
-0.342695 1.45655 -3.01611 4.47392e+06
-0.109487 1.50007 -3.13736 5.5924e+06
-0.417633 1.38827 -2.9017 5.26344e+06
-1.31689 0.833344 0.0861338 7.82937e+06
-0.0763893 1.50447 -3.17121 6.18454e+06
-0.470672 1.38887 -2.8312 4.21075e+06
-0.295906 1.48214 -3.10362 4.21075e+06
-0.527972 1.38216 -2.73462 4.6713e+06
-0.134838 1.60546 -3.58356 1.8422e+06
-0.172115 1.61338 -3.61699 1.97379e+06
-0.424658 1.3941 -2.88241 4.80289e+06
-0.23135 1.50619 -3.23891 3.42124e+06
-0.126812 1.60629 -3.56658 2.03958e+06
-0.278661 1.4932 -3.13421 3.7502e+06
-0.500438 1.38937 -2.76542 4.60551e+06
-0.750286 0.683493 -0.242775 6.18454e+06
-0.0939193 1.55479 -3.33998 4.07917e+06
-0.470098 0.666086 -0.802771 9.60578e+06
-0.140356 1.44426 -3.38808 3.35544e+06
-0.279863 1.49898 -3.12352 4.60551e+06
-0.100959 1.5782 -3.41926 4.01337e+06
-0.916316 1.36754 -0.257597 9.07943e+06
-0.146317 1.53293 -3.34268 3.28965e+06
-0.504511 0.681386 -0.753224 6.18454e+06
-0.119166 1.62847 -3.5754 1.57903e+06
-0.143352 1.46003 -3.3811 3.42124e+06
0.047152 1.41527 -1.79932 8.4215e+06
-0.362283 1.43253 -2.99821 3.81599e+06
-0.173546 1.53874 -3.29359 3.09227e+06
-0.109538 1.63817 -3.56918 1.8422e+06
-0.605035 0.67034 -0.304859 5.98716e+06
0.19113 1.10789 -1.56411 9.01364e+06
-0.17208 1.5547 -3.31502 3.7502e+06
-0.115768 1.64301 -3.56639 2.50013e+06
-0.172723 1.54256 -3.28149 3.61862e+06
-0.256564 0.835992 -0.938322 7.96095e+06
-0.582052 0.667769 -0.310179 6.77668e+06
-0.909687 1.37542 -0.243555 8.88206e+06
-0.288826 0.84623 -0.869721 7.43461e+06
-0.15905 1.49671 -3.1332 5.39503e+06
-0.326115 0.876161 -0.8621 6.90826e+06
-0.33762 0.664058 -0.634038 7.10564e+06
-0.245056 0.859601 -0.860993 6.84247e+06
-0.220779 0.863213 -0.893917 8.81626e+06
-0.68451 0.64397 -3.02565 1.53956e+07
-0.662729 0.637833 -3.00163 0
0.204464 0.837855 -1.14672 8.94785e+06
-1.65926 0.583064 -1.04506 7.43461e+06
-0.581615 0.403836 -0.989745 1.10532e+07
-0.314796 0.660844 -0.621344 6.97406e+06
0.44664 1.20057 -2.19669 7.03985e+06
-0.605227 0.693575 -3.30306 8.88206e+06
0.21702 1.29939 -1.88885 8.02675e+06
-0.0814292 1.63008 -3.54036 2.96068e+06
0.254338 1.23677 -1.83456 8.68468e+06
-0.558251 0.745569 -0.441089 6.71089e+06
-0.730553 0.630502 -3.1427 1.5264e+07
0.259877 1.22471 -1.82032 7.89516e+06
-0.376679 0.775907 -0.78776 6.90826e+06
0.208202 1.0284 -1.26144 9.86895e+06
0.488712 1.14938 -2.16609 6.97406e+06
-0.0763503 1.50346 -3.16836 5.13185e+06
-0.0751153 1.49411 -3.14568 4.93448e+06
0.363303 1.28258 -2.17354 7.82937e+06
0.0860612 0.654898 -1.15822 7.5662e+06
0.0176485 1.69541 -2.29626 7.23723e+06
0.166969 0.624183 -1.19449 8.02675e+06
0.0849621 1.48132 -1.97359 7.82937e+06
-0.356316 0.779957 -0.747898 6.64509e+06
-0.136389 1.275 -1.00026 9.73736e+06
-0.315521 0.69044 -0.579869 7.82937e+06
0.2126 0.967495 -1.12063 8.68468e+06
-0.419461 0.796566 -0.666843 6.5793e+06
-0.207523 1.14225 -0.538961 9.01364e+06
-0.372781 0.881426 -0.901408 7.89516e+06
0.0643851 1.62148 -2.21981 6.97406e+06
-1.1847 -0.315972 2.24082 6.05296e+06
-0.223182 0.744431 -0.777062 7.5662e+06
0.223953 1.28896 -1.84922 8.15833e+06
-2.25973 4.34323 -2.8321 8.02675e+06
-0.313015 1.43813 -0.912198 9.27681e+06
0.207933 0.992572 -1.13655 9.80316e+06
0.260277 1.30607 -1.94012 7.63199e+06
0.328833 0.137362 2.18491 1.3356e+07
0.319346 0.275884 1.69796 1.21717e+07
1.19283 -1.53548 2.24911 1.06585e+07
0.328054 0.970971 -1.32862 8.75047e+06
0.384163 1.09809 -1.7283 8.68468e+06
-0.0695446 1.33933 -1.18427 8.88206e+06
0.692276 0.174098 2.1595 1.02637e+07
1.09935 0.0542393 2.60272 5.5924e+06
-2.63323 -0.30874 0.0581614 1.03953e+07
-3.24841 -0.578553 1.04314 7.36882e+06
-0.555939 0.631455 -3.34353 1.28296e+07
-0.57519 0.531182 -2.99019 592137
-0.818955 0.500877 -2.86649 1.66456e+07
-0.829147 0.492511 -2.8364 197379
-0.944259 0.421533 -2.57908 1.15138e+07
-0.810992 0.0218287 -1.18552 1.4935e+07
-0.0471379 -1.78254 2.57975 1.4606e+07
-0.641863 0.58562 -3.14911 1.03953e+07
-1.0176 0.4823 -2.75575 1.59877e+07
0.595904 0.13248 2.23566 1.1119e+07
1.93188 -0.308684 3.79417 1.17769e+07
0.969319 0.0316825 2.64242 1.06585e+07
-0.64532 0.590807 -3.13952 1.13164e+07
-0.750431 0.547481 -2.97795 1.59877e+07
-0.804788 0.50749 -2.83292 1.59877e+07
1.31102 0.179971 2.20013 1.29612e+07
0.901233 0.273033 1.87954 5.72399e+06
3.46931 -0.0224184 2.96096 8.35571e+06
-3.13793 -0.528744 1.01411 6.84247e+06
2.75672 0.00367504 2.97443 4.93448e+06
-0.758631 0.553687 -2.97027 1.32902e+07
0.302106 0.106686 2.23707 1.13164e+07
1.56044 0.0728217 2.646 7.63199e+06
1.8271 0.0490393 2.69697 1.03953e+07
0.452715 0.140272 2.18672 1.15138e+07
-3.16359 -0.502459 1.02707 6.18454e+06
-0.872952 -0.0925758 2.01138 3.61862e+06
2.04555 0.0506715 2.77068 1.53956e+07
-2.54747 -0.484088 0.931862 5.19765e+06
-0.537175 0.697863 -3.41711 197379
-0.566717 0.676815 -3.33981 1.38823e+07
-0.628575 0.677901 -3.33452 8.22412e+06
-0.599132 0.649416 -3.24006 8.75047e+06
-0.64654 0.618609 -3.1263 1.15138e+07
-0.633342 0.592228 -3.03676 1.65798e+07
-0.668042 0.587284 -3.01454 986895
-0.793655 0.533755 -2.81056 592137
3.0018 0.000595212 2.99822 5.06606e+06
-2.72686 -0.349827 0.0665656 1.30928e+07
0.0455787 -1.64902 2.66524 8.55309e+06
-0.55622 0.61226 -3.35599 1.50008e+07
1.34751 0.265137 1.87556 9.07943e+06
-0.7836 -0.000967488 -1.18271 1.44745e+07
-0.375081 0.221395 1.69837 1.23691e+07
0.650652 -1.4552 2.1494 8.75047e+06
2.11982 0.0447294 2.7145 1.08558e+07
1.52731 0.189123 2.1337 5.6582e+06
2.19802 0.0306424 2.71406 8.75047e+06
-0.328453 0.236783 1.69156 1.3027e+07
1.47752 0.192738 2.068 7.69778e+06
2.04971 -1.7504 3.69938 3.55282e+06
2.0872 -1.78851 4.02623 4.47392e+06
0.0621367 0.203983 1.89194 5.6582e+06
2.11248 -1.76268 3.7615 3.94758e+06
0.712478 -1.14635 2.15487 8.09254e+06
1.40698 0.222908 1.94371 8.61888e+06
-2.3732 -1.22334 1.27452 1.06585e+07
1.20055 0.297749 1.85096 8.4873e+06
1.10967 0.275082 1.77265 8.68468e+06
-1.07742 0.0998254 2.05305 5.13185e+06
1.14903 0.183723 2.2022 1.35534e+07
-1.17288 -1.03539 2.03459 5.78978e+06
0.722257 -1.12581 2.19102 7.30302e+06
2.0626 0.0278877 2.83191 8.94785e+06
-0.291525 -0.0912871 2.76003 6.31613e+06
2.16013 -1.40378 3.75505 3.88179e+06
-0.500142 -1.2801 2.438 7.23723e+06
-0.770758 0.202997 1.71402 8.88206e+06
-0.0795059 -1.21581 2.32929 8.22412e+06
1.86233 -1.34486 3.58903 8.55309e+06
2.02938 -1.61388 3.75939 4.80289e+06
1.85953 -1.3446 3.64622 8.88206e+06
1.49055 -1.17906 2.51668 1.13164e+07
-0.464774 0.204913 1.78868 1.16454e+07
2.22141 0.0188869 2.78017 1.10532e+07
-1.10687 0.281216 1.38269 3.94758e+06
0.97144 0.254481 1.84562 5.6582e+06
1.61721 0.150063 2.24922 7.89516e+06
1.46249 -1.1783 2.48865 6.5793e+06
1.75265 -1.34385 3.67821 1.56587e+07
-0.523646 0.203826 1.75114 9.27681e+06
-0.557064 -0.735374 2.56308 6.18454e+06
1.0586 0.0389447 2.59976 1.32244e+07
-0.531231 -0.80823 2.56341 6.25034e+06
-0.646825 0.186986 1.7854 1.05269e+07
1.54138 0.16114 2.20631 6.97406e+06
2.30336 -1.36079 3.79675 3.68441e+06
1.89228 -1.48068 3.48417 1.00005e+07
-0.706808 0.17208 1.84335 8.94785e+06
1.01841 0.257139 1.74923 6.97406e+06
-0.511407 -1.19556 2.45821 6.64509e+06
1.42835 -0.374989 2.74097 6.90826e+06
1.48179 -1.13787 2.51934 7.82937e+06
-0.58763 0.108123 2.11131 5.98716e+06
2.31055 0.000744224 2.97396 5.72399e+06
1.45371 -0.983835 2.54677 6.84247e+06
1.17603 0.231998 1.91975 1.11848e+07
-2.63145 -0.583736 1.39143 4.80289e+06
0.270327 0.147513 2.10202 1.55929e+07
0.70762 -1.02035 2.20297 7.36882e+06
1.88713 -1.4591 3.51253 9.53998e+06
1.73107 -0.503437 3.84248 5.26344e+06
1.97996 -1.77048 4.42984 3.88179e+06
1.85658 -0.539483 3.74123 8.28992e+06
0.922274 0.0890796 2.42626 1.34218e+07
1.89329 -1.25764 3.57442 1.02637e+07
0.569495 0.250892 1.83656 6.77668e+06
1.9847 0.0145855 2.83787 1.17112e+07
2.32816 -1.48349 3.75993 8.68468e+06
-0.25089 -0.944491 2.67013 7.69778e+06
1.59444 0.215109 2.08308 5.78978e+06
1.35702 0.187176 2.12822 1.13822e+07
1.78761 -1.43971 3.6207 1.01321e+07
-1.28846 0.270583 1.35411 5.32923e+06
1.46229 -0.141838 2.84541 5.06606e+06
1.43086 -0.45859 2.71411 6.64509e+06
2.32416 -1.47123 3.76977 7.43461e+06
-0.905411 -0.821568 2.32319 8.68468e+06
-1.21092 0.114001 2.3234 7.30302e+06
-0.143625 -0.953855 2.73328 7.89516e+06
-0.113474 -1.15056 2.72444 7.36882e+06
1.80288 -0.596223 3.98381 5.46082e+06
2.21 0.0642681 2.6877 1.32902e+07
-2.67717 -0.283068 1.23378 4.93448e+06
1.78979 -1.71016 3.52627 1.20401e+07
-0.519014 -0.722354 2.59646 6.38192e+06
0.684703 -0.307711 2.44269 6.64509e+06
1.4453 -1.05892 2.52177 7.43461e+06
1.43129 -0.480546 2.70073 7.17144e+06
0.509861 0.120454 2.24619 1.15138e+07
1.74831 -1.25448 3.7146 1.54614e+07
2.12989 0.0216557 2.84611 9.34261e+06
2.04602 0.0180512 2.81906 7.5662e+06
1.77433 -1.68826 3.54738 1.5264e+07
1.74346 0.0832885 2.54699 6.25034e+06
0.000903606 -1.44766 2.65371 7.76357e+06
-0.546511 -0.823499 2.53809 6.18454e+06
1.45504 -1.2554 2.49066 7.23723e+06
1.80909 -1.16677 3.86635 6.38192e+06
1.45537 -0.865312 2.56635 6.90826e+06
1.8101 0.0624796 2.69243 9.27681e+06
1.43925 -0.664604 2.65386 6.18454e+06
1.45605 -0.915844 2.55824 6.51351e+06
1.83988 0.0115761 2.81031 5.32923e+06
1.55069 0.173889 2.18067 4.40813e+06
-0.429498 -0.170786 2.84949 6.5793e+06
1.82142 -1.61713 3.52037 7.63199e+06
1.77008 -1.57346 3.56756 1.4935e+07
1.28745 0.233971 1.95913 1.19743e+07
-0.808555 -0.713716 2.41703 7.76357e+06
1.95659 0.0910891 2.57421 1.17769e+07
0.835475 0.234623 1.82233 5.26344e+06
1.80446 0.00935197 2.83723 5.98716e+06
1.8136 -1.60952 3.51992 9.21102e+06
1.4236 -0.327338 2.75242 7.17144e+06
1.13573 0.193766 2.23525 1.42113e+07
1.92135 -1.58977 3.50903 9.86895e+06
1.88595 -1.24409 3.58747 9.60578e+06
1.87052 -1.04319 3.61361 8.68468e+06
1.15497 0.0819666 2.44773 1.10532e+07
1.88172 -1.03701 3.62182 1.21059e+07
0.983639 0.147356 2.31291 9.67157e+06
1.86323 -0.766804 3.70711 8.28992e+06
1.80551 -1.06029 3.83264 6.97406e+06
1.7631 -1.53987 3.63649 1.39481e+07
-0.49287 -0.273291 2.73813 6.25034e+06
0.719974 -1.06991 2.20682 7.10564e+06
2.21668 0.00735343 2.82094 7.10564e+06
1.80472 -1.20512 3.84434 7.63199e+06
1.93393 -1.57355 3.57128 7.63199e+06
1.4348 -0.624233 2.66116 7.10564e+06
0.755788 -1.09277 2.12579 8.02675e+06
1.86546 -0.811584 3.68849 8.88206e+06
1.896 -1.50947 3.43561 9.14523e+06
1.73205 -1.01019 3.86474 9.86895e+06
-0.153315 -1.30342 2.63307 8.15833e+06
1.87217 -0.98536 3.63339 9.27681e+06
1.45028 -1.17726 2.50622 6.84247e+06
1.15394 -0.871688 3.65892 5.13185e+06
1.73179 -0.792819 3.88533 5.00027e+06
1.43423 -0.532295 2.68992 7.03985e+06
-2.42675 -0.953783 1.27778 5.5924e+06
2.08582 -1.61729 3.79911 4.34234e+06
-0.332728 -0.542335 2.73106 7.10564e+06
1.76046 0.0078153 2.85549 6.64509e+06
1.90876 -0.0143586 2.92783 6.64509e+06
-0.243357 -1.28567 2.59978 8.02675e+06
-0.583727 -0.758367 2.55389 7.23723e+06
1.89361 -1.4823 3.42385 9.27681e+06
1.4403 -0.659689 2.65237 6.84247e+06
2.19621 -1.62269 3.85139 3.48703e+06
2.72946 0.0337716 3.02589 4.93448e+06
1.73895 -1.1686 3.78414 1.57245e+07
1.62465 0.196814 2.16629 5.92137e+06
1.85722 -0.635751 3.7379 8.28992e+06
-0.725727 -0.708712 2.47291 7.76357e+06
-3.50362 -0.692227 0.94745 5.19765e+06
1.75637 -1.52357 3.63819 1.5264e+07
1.08477 0.14798 2.23549 1.23033e+07
1.44296 -1.07801 2.51008 8.61888e+06
-0.67401 -0.381625 2.3908 1.19743e+07
0.0587081 -1.64126 2.6735 7.5662e+06
1.77387 0.00343466 3.0286 7.03985e+06
1.7601 -1.50698 3.64032 1.51982e+07
2.10923 -1.58785 3.9343 4.47392e+06
0.717555 0.21496 1.94483 1.1119e+07
-0.12916 0.383786 1.27885 6.97406e+06
1.86566 -0.864294 3.66952 8.75047e+06
1.91162 -1.42854 3.56738 8.88206e+06
-1.68203 -0.624695 2.84146 8.68468e+06
1.75291 -1.44268 3.65515 1.47376e+07
1.20777 -0.998811 3.58227 1.62509e+07
-0.994643 -0.889155 2.43761 6.64509e+06
1.43245 -0.657947 2.64736 7.43461e+06
0.700059 -0.990071 2.21751 7.63199e+06
1.2315 -0.875071 3.69086 5.98716e+06
-0.0924394 -0.118574 2.84132 5.5924e+06
1.73483 -0.545217 3.83578 5.19765e+06
1.45199 -0.026646 2.8792 4.86868e+06
1.44415 -0.811769 2.60272 7.10564e+06
-3.63796 -0.284952 0.927935 5.6582e+06
1.17081 -0.965811 3.58723 1.01979e+07
-1.7484 -0.626122 1.70679 9.47419e+06
-0.596246 -0.617628 2.65569 6.77668e+06
-0.399702 -1.05446 2.57829 8.61888e+06
-0.531469 0.073256 2.13874 8.68468e+06
2.0435 -1.28588 3.33638 4.93448e+06
1.78896 -0.486567 3.90226 4.80289e+06
1.86112 -0.78323 3.68883 7.63199e+06
2.10369 -1.25267 3.22567 4.80289e+06
1.73449 -0.757864 3.83447 5.13185e+06
1.77197 -0.451254 3.90355 4.34234e+06
0.0784998 0.140408 2.08036 1.15796e+07
1.50334 -1.00868 2.51976 9.86895e+06
2.31732 -1.35221 3.68238 7.69778e+06
0.677589 -0.177451 2.48169 6.31613e+06
1.43937 -0.997577 2.55115 7.30302e+06
1.37067 -0.343465 3.74235 4.60551e+06
1.96726 -1.30753 3.62878 5.92137e+06
1.46795 -0.356116 3.79617 3.81599e+06
1.99473 -1.31162 3.64157 5.13185e+06
0.72188 0.113495 2.27392 1.04611e+07
2.04868 -1.32239 3.6765 4.80289e+06
2.31632 -1.32083 3.67968 8.4215e+06
1.90407 -0.239296 4.16791 6.77668e+06
0.753034 0.0981919 2.37686 1.17112e+07
1.64883 -0.378585 3.88728 4.47392e+06
-0.034384 -0.545186 2.8854 6.77668e+06
-0.562133 -0.494905 2.59906 9.21102e+06
1.41556 -0.163272 2.80729 7.10564e+06
1.86873 -0.899929 3.66172 8.68468e+06
-0.333774 0.12724 2.03247 6.84247e+06
-0.268816 -0.54292 2.75987 7.03985e+06
-0.0540321 -0.539853 2.94685 7.23723e+06
0.0813298 0.191301 1.9287 4.34234e+06
0.163359 -0.436088 3.05033 5.00027e+06
1.76412 -0.952295 3.91475 6.05296e+06
1.41182 -0.82492 3.6919 1.12506e+07
1.52021 -0.834486 3.73024 1.24349e+07
0.926933 0.0282108 2.57762 1.06585e+07
1.56392 -0.844182 3.75862 1.3027e+07
-1.60447 -0.30589 2.62255 7.5004e+06
-0.408037 -0.425821 2.71082 7.43461e+06
1.19956 -0.26834 3.674 3.42124e+06
-1.18351 -0.245939 2.24315 4.40813e+06
1.27222 -0.286058 3.71839 2.96068e+06
-0.738873 -0.332249 2.43112 1.23033e+07
0.668555 -1.20617 2.16788 8.35571e+06
1.63803 -0.795241 3.77338 7.17144e+06
1.33498 -0.290235 3.75468 3.68441e+06
-1.43225 -0.201912 2.37981 6.64509e+06
0.675728 -0.132786 2.49448 6.71089e+06
-1.33997 -0.199975 2.35929 6.18454e+06
-1.90915 0.179681 1.60413 4.53972e+06
-0.179554 -0.960601 2.73609 8.55309e+06
1.84002 -0.377227 3.80343 6.25034e+06
-0.118612 -0.371544 2.87233 7.23723e+06
1.42739 -0.280939 2.76911 7.5662e+06
-1.06941 -0.142246 2.36631 7.03985e+06
-0.202975 0.150721 2.01609 7.5004e+06
-0.493924 -0.153864 2.74687 5.13185e+06
1.26925 -0.940849 3.31311 1.3027e+07
-1.5188 0.148273 1.85905 5.32923e+06
1.32305 -0.941378 3.39572 1.55929e+07
-1.03508 0.0252905 2.03277 4.80289e+06
1.79771 -0.301126 3.88217 3.68441e+06
-0.525475 -0.22467 2.80775 6.44771e+06
-0.381075 -0.219056 2.56383 9.34261e+06
1.42392 -0.215636 2.78648 6.51351e+06
-0.910758 -0.0857293 2.38261 7.5662e+06
-0.588244 -0.0822173 2.5245 9.27681e+06
-0.135042 0.205734 1.84136 7.96095e+06
-0.407824 -0.196841 2.80907 6.71089e+06
0.0364838 0.157358 1.87725 4.53972e+06
1.72837 -0.658235 3.86893 5.39503e+06
1.59994 -0.937908 3.92628 8.4873e+06
-0.231889 -0.180137 2.98665 6.05296e+06
1.63989 -0.945356 3.89981 7.76357e+06
-0.931809 0.0559909 2.15134 5.72399e+06
1.79832 -0.980121 3.89189 5.32923e+06
-0.190647 0.252446 1.65717 1.10532e+07
1.445 -0.819031 2.60209 6.05296e+06
0.144407 -0.223993 3.10335 3.61862e+06
0.684647 -0.316097 2.44069 6.90826e+06
0.131056 0.179692 1.97326 7.36882e+06
-0.904582 0.0560011 2.14932 5.98716e+06
-0.340835 0.289729 1.45043 1.25665e+07
-0.211006 -0.108052 2.61045 5.5924e+06
1.87449 -0.860576 3.64488 9.60578e+06
1.86186 -0.684139 3.7486 7.10564e+06
1.12229 -0.0463109 2.72075 5.92137e+06
-0.915701 0.131986 1.94117 9.21102e+06
0.841656 0.0445375 2.55509 1.20401e+07
-0.854063 0.106094 2.02171 7.30302e+06
1.2362 -0.0604995 2.77078 6.97406e+06
-0.452066 0.106511 2.10981 8.68468e+06
0.0848051 -0.139328 3.02684 4.93448e+06
-1.16254 0.203822 1.67168 7.23723e+06
0.58791 0.104832 2.254 1.40139e+07
0.947856 0.22701 1.97414 9.21102e+06
-0.627897 0.158511 1.88768 7.96095e+06
-0.734876 0.133224 1.95785 7.89516e+06
0.701079 0.0877416 2.36077 1.2698e+07
-1.11988 0.295446 1.27772 5.6582e+06
0.814204 0.0806513 2.55976 1.53298e+07
0.938697 0.0517718 2.58871 1.43429e+07
-0.425322 0.0901414 2.10763 9.93474e+06
0.493917 0.138099 1.96978 1.38165e+07
-0.431269 0.0917095 2.16552 8.88206e+06
0.4852 0.161008 2.07316 1.4606e+07
-0.636868 0.151686 1.95045 1.00663e+07
0.909192 0.0712831 2.52099 1.4606e+07
0.756695 -0.0190407 2.58103 5.85558e+06
-0.821843 0.205693 1.67051 8.75047e+06
1.4531 -0.0688801 2.88085 4.6713e+06
1.47756 -0.357626 3.80389 3.7502e+06
0.485639 0.167767 2.06169 1.48692e+07
-0.736274 0.185654 1.81558 8.75047e+06
0.523754 0.175735 2.16454 1.60535e+07
1.52964 -0.363222 3.83479 3.88179e+06
0.104798 0.16792 2.00665 7.96095e+06
-0.367459 0.107087 2.13782 7.5662e+06
1.07575 0.050034 2.5992 8.55309e+06
-0.295903 0.272391 1.57907 1.07901e+07
0.396992 0.247746 1.83117 9.27681e+06
1.28734 -0.000328481 2.77433 6.90826e+06
0.616663 0.196448 2.01838 1.48692e+07
0.754256 0.125905 2.26291 1.13164e+07
0.734875 0.171945 2.08851 1.32244e+07
1.42279 -0.248044 2.78335 5.6582e+06
0.888139 0.146088 2.23228 1.19085e+07
1.89342 -0.310455 3.55058 5.19765e+06
-0.78936 -0.15718 2.411 8.22412e+06
1.0152 0.0849615 2.45261 1.63825e+07
1.09426 0.106889 2.41387 1.38823e+07
1.5778 -0.324247 3.88619 2.69751e+06
0.518205 0.201948 1.9763 1.38165e+07
0.463511 0.155422 2.13072 1.17769e+07
1.84413 -0.399921 3.79962 6.38192e+06
1.1892 0.0944639 2.45812 8.22412e+06
1.12113 0.0741863 2.52638 8.55309e+06
1.41277 -0.138631 2.81986 6.25034e+06
1.46682 -0.00546145 2.82919 8.61888e+06
-0.503256 0.39299 1.12381 3.7502e+06
-0.285725 0.189762 1.85166 1.21717e+07
1.79423 -0.0158725 3.01036 7.82937e+06
1.25521 0.136868 1.95636 1.05269e+07
0.757099 0.214496 1.98542 1.19085e+07
1.62698 0.103167 2.47545 6.05296e+06
1.6474 0.106381 2.49654 4.60551e+06
1.21838 0.112872 2.407 7.96095e+06
0.549085 0.149664 2.21291 1.08558e+07
-0.693434 0.303851 1.38786 1.21717e+07
-0.300342 0.343993 1.2664 1.1448e+07
1.05149 0.107293 2.33481 1.22375e+07
-0.0715303 0.153059 2.00274 5.78978e+06
-0.128903 0.316063 1.4658 1.3027e+07
1.42602 -0.0121616 2.8235 7.63199e+06
2.21094 -0.0213296 2.95264 6.44771e+06
0.953415 0.194304 2.09224 9.67157e+06
0.888135 0.07283 2.512 1.38823e+07
1.79371 0.00656533 2.83933 5.39503e+06
1.55651 -0.362258 3.84955 4.21075e+06
1.84203 0.00100023 2.90815 5.78978e+06
1.54522 0.140616 2.3983 8.22412e+06
-0.368382 0.375965 1.16857 8.22412e+06
1.59423 0.121472 2.40971 6.90826e+06
-1.6383 -0.320998 2.61822 8.02675e+06
1.71139 0.0972552 2.51889 4.86868e+06
0.123419 0.131959 2.14976 1.12506e+07
0.872097 0.0831872 2.45639 1.11848e+07
1.91576 -0.0150956 2.93805 7.82937e+06
0.886107 0.132702 2.3625 1.17112e+07
-0.695419 0.338779 1.27269 1.17769e+07
0.988957 0.200035 2.05086 8.15833e+06
1.78616 0.0872346 2.58306 8.02675e+06
-0.0175911 0.304441 1.54754 1.01979e+07
1.0264 0.250789 1.87622 1.15796e+07
1.07079 0.234471 1.89097 1.07243e+07
0.244295 0.237804 1.79962 1.05927e+07
1.91931 -0.336117 3.8151 1.47376e+07
-0.486341 -0.161123 2.64996 1.02637e+07
1.94576 -0.358899 3.74535 1.56587e+07
1.4131 -0.0827053 2.83202 5.6582e+06
0.083827 0.152046 2.06368 1.09216e+07
-0.483613 0.41468 1.03608 5.39503e+06
1.22037 0.22481 2.0355 1.13822e+07
2.2861 -0.0364984 2.44997 1.01979e+07
1.58377 0.142198 2.34443 6.18454e+06
1.5997 0.212717 2.11661 5.32923e+06
1.07443 0.0436125 2.63508 5.19765e+06
1.17178 0.290871 1.68955 1.01979e+07
1.77849 -1.7226 3.57604 1.28954e+07
1.93234 -1.66649 3.47265 9.47419e+06
