VERSION .7
FIELDS x y z rgb
SIZE 4 4 4 4
TYPE F F F F
COUNT 1 1 1 1
WIDTH 1386
HEIGHT 1
VIEWPOINT 0 0 0 1 0 0 0
POINTS 1386
DATA ascii
2.77361 -0.619933 4.15277 4144959
2.77736 -0.621126 4.14562 4276545
2.77188 -0.619413 4.1561 3487029
2.77712 -0.620903 4.14631 4079166
2.77054 -0.6189 4.15851 3947580
2.77339 -0.619843 4.15342 2565927
2.77839 -0.621426 4.14368 4210752
2.77825 -0.621341 4.14405 3552822
-0.671824 -0.285131 2.48601 3487029
-0.675149 -0.284085 2.49236 7237230
-0.683445 -0.281474 2.50821 6052956
-0.680102 -0.282528 2.50183 9671571
-0.679056 -0.282858 2.49982 10526880
-0.676832 -0.283558 2.49557 10790052
-0.676716 -0.283594 2.49535 13290186
-0.670401 -0.285582 2.48328 16777215
2.85647 -0.587781 3.11211 1776411
2.86164 -0.589386 3.10227 1842204
2.85977 -0.58884 3.10579 2105376
2.85827 -0.588358 3.1087 1842204
2.85975 -0.588799 3.10589 2565927
2.86147 -0.589345 3.10256 2763306
2.86179 -0.589434 3.10196 2236962
2.85622 -0.587711 3.11262 2500134
-1.33956 0.0491077 2.46502 5592405
-1.34139 0.0496895 2.46852 5000268
-1.35185 0.052977 2.48851 5526612
-1.34626 0.0512288 2.47783 3750201
-1.34875 0.0520048 2.48259 4144959
-1.34542 0.0509588 2.47621 4737096
-1.34099 0.0495511 2.46772 2697513
-1.34286 0.050154 2.47133 4671303
1.50869 -0.315055 3.81218 1381653
1.50668 -0.314428 3.81602 2171169
1.51069 -0.315688 3.80836 2039583
1.5108 -0.31572 3.80815 3289650
1.51185 -0.316057 3.80617 3092271
1.50748 -0.314678 3.81448 3026478
1.50739 -0.31464 3.81467 4079166
1.5103 -0.315565 3.80915 4408131
1.70921 0.0993329 2.4659 2171169
1.7034 0.100908 2.47526 2434341
1.70763 0.099774 2.46845 2236962
1.70315 0.100973 2.4756 5263440
1.70819 0.0996196 2.46754 6118749
1.70319 0.100954 2.47555 2368548
1.70313 0.100999 2.47567 10855845
1.70997 0.0991246 2.46469 5658198
0.668921 -0.195642 2.49494 6974058
0.666372 -0.19485 2.49979 5658198
0.66159 -0.193337 2.50894 7500402
0.664748 -0.194337 2.50288 4737096
0.664534 -0.194275 2.50332 6710886
0.660142 -0.192885 2.51166 7566195
0.666401 -0.194843 2.4997 5526612
0.663082 -0.193795 2.50609 6645093
-1.06626 0.0249969 2.30012 3421236
-1.06761 0.0254264 2.30273 2565927
-1.06687 0.0251995 2.30132 2565927
-1.07652 0.0282281 2.31973 4144959
-1.07484 0.0277066 2.31654 4342338
-1.07006 0.0262045 2.30739 4473924
-1.06771 0.025462 2.30292 5066061
-1.07261 0.0269993 2.31226 5658198
1.82958 -0.350216 3.83907 2105376
1.82224 -0.347906 3.8531 1776411
1.83102 -0.350672 3.83632 5526612
1.83481 -0.35186 3.82908 1184274
1.82329 -0.348236 3.85109 2500134
1.83198 -0.35097 3.83449 10461087
1.82504 -0.348787 3.84774 1052688
1.833 -0.351289 3.83255 2894892
-0.97394 0.010247 2.34899 4868682
-0.974735 0.0104959 2.35053 3158064
-0.973237 0.0100228 2.34765 3421236
-0.979292 0.0119304 2.35922 4671303
-0.973738 0.0101866 2.34862 4737096
-0.972355 0.00974214 2.34595 4737096
-0.982014 0.0127916 2.36444 5855577
-0.974887 0.0105419 2.3508 6250335
1.84649 -0.342696 3.83501 5526612
1.8443 -0.342013 3.83918 2500134
1.84191 -0.341261 3.84374 10461087
1.83974 -0.340578 3.84789 1052688
1.84541 -0.342356 3.83705 6710886
1.85105 -0.344136 3.82629 13224393
1.8446 -0.342103 3.83862 2894892
1.84302 -0.341621 3.84161 6184542
-0.40081 -0.0808331 2.66257 3355443
-0.4066 -0.0789953 2.67369 1513239
-0.404171 -0.0797679 2.66898 2368548
-0.39812 -0.0816852 2.65747 2434341
-0.399174 -0.0813545 2.65946 3026478
-0.408024 -0.0785615 2.67642 3618615
-0.406895 -0.078919 2.6742 3552822
-0.405101 -0.0794732 2.67081 5066061
2.52811 -0.0250331 3.1332 4539717
2.53537 -0.0270069 3.12154 5921370
2.52955 -0.0254397 3.13089 4539717
2.52909 -0.025307 3.13163 8026746
2.53284 -0.0263183 3.12561 5658198
2.53182 -0.0260425 3.12726 4802889
2.5273 -0.0248204 3.13451 8026746
2.53121 -0.0258843 3.12821 7960953
-0.308818 -0.0836128 2.73405 4605510
-0.299874 -0.0864338 2.71695 3552822
-0.300499 -0.0862387 2.71813 3355443
-0.310875 -0.0829707 2.73796 5460819
-0.300515 -0.0862287 2.71821 5526612
-0.310814 -0.0829791 2.73789 5460819
-0.300375 -0.0862694 2.71785 5921370
-0.305632 -0.0846117 2.72798 6052956
-0.636516 0.0605575 2.20775 6710886
-0.641611 0.0621659 2.2175 6184542
-0.636032 0.0604063 2.20682 6250335
-0.642103 0.0623187 2.21843 8618883
-0.64204 0.0622983 2.2183 8421504
-0.642371 0.0623955 2.21893 8618883
-0.637541 0.0608779 2.2097 8553090
-0.633527 0.0596163 2.20204 6974058
-0.461249 -0.0550236 2.89056 4737096
-0.467576 -0.0530324 2.90265 3289650
-0.456274 -0.0565891 2.88105 3289650
-0.464076 -0.0541341 2.89596 5592405
-0.465228 -0.0537724 2.89816 5395026
-0.467432 -0.0530775 2.90237 5395026
-0.45856 -0.0558691 2.88542 5789784
-0.462564 -0.0546105 2.89307 6381921
-0.365958 0.0081467 2.18225 5987163
-0.365825 0.0080983 2.18198 6250335
-0.369538 0.00925678 2.18904 5526612
-0.369902 0.00936812 2.18983 8947848
-0.370978 0.00970972 2.19186 8224125
-0.368368 0.00888282 2.18687 5987163
-0.375783 0.0112579 2.20103 8487297
-0.367107 0.00852573 2.18445 7105644
-0.200669 -0.101636 2.78166 4802889
-0.210031 -0.0986884 2.79955 3355443
-0.210178 -0.0986459 2.79983 3421236
-0.201514 -0.101367 2.78328 5197647
-0.207466 -0.0994962 2.79466 5131854
-0.197138 -0.102751 2.77491 4802889
-0.207481 -0.0994914 2.79468 5987163
-0.198531 -0.102311 2.77759 5987163
2.87037 -0.309296 6.94927 15132390
2.88731 -0.314589 6.91668 15658734
2.86687 -0.30816 6.95583 14869218
2.87539 -0.31086 6.93978 16119285
2.86723 -0.308316 6.95501 15724527
2.88075 -0.312574 6.92935 15066597
2.87266 -0.310025 6.94468 16645629
2.8781 -0.311713 6.93453 16777215
0.0993915 -0.153326 2.73092 4342338
0.0921874 -0.151059 2.74469 3289650
0.101012 -0.15383 2.72784 3223857
0.101586 -0.154023 2.72674 4671303
0.092469 -0.151148 2.74416 4605510
0.0962069 -0.152316 2.73704 4671303
0.0933061 -0.151408 2.74257 5592405
0.0916758 -0.150898 2.74567 5723991
-0.78497 0.1193 2.2079 8750469
-0.779224 0.117427 2.19686 8092539
-0.781268 0.118106 2.20078 8421504
-0.778582 0.11726 2.19565 5460819
-0.782626 0.118527 2.2034 6974058
-0.780046 0.117739 2.19856 7500402
-0.780613 0.117918 2.19955 5066061
-0.786232 0.11966 2.21027 5592405
-0.0254116 -0.128463 2.94166 3289650
-0.0261385 -0.128233 2.94307 2829099
-0.0234952 -0.129058 2.93801 2960685
-0.0223267 -0.129432 2.93577 4605510
-0.0265107 -0.128112 2.94377 4539717
-0.0344214 -0.125621 2.95889 4539717
-0.0241137 -0.128869 2.93921 5329233
-0.0235457 -0.129052 2.93811 5526612
2.7506 -0.395423 4.91538 12500670
2.76485 -0.399894 4.88812 13948116
2.7551 -0.396812 4.90677 11382189
2.75199 -0.395835 4.91272 15527148
2.7591 -0.398079 4.89909 13816530
2.76003 -0.39837 4.89737 8882055
2.76039 -0.398494 4.89665 16448250
2.75357 -0.396349 4.9097 16645629
-0.384226 0.0612468 2.21886 4868682
-0.387651 0.0623945 2.2253 5329233
-0.392161 0.0637203 2.23403 5329233
-0.382953 0.0608214 2.21637 5592405
-0.382912 0.0608444 2.21623 6316128
-0.390111 0.0630987 2.23007 6579300
-0.382362 0.0607408 2.2153 6908265
-0.390572 0.0631877 2.23094 7697781
1.43328 -0.378682 2.73275 5592405
1.43798 -0.380164 2.72375 6776679
1.43339 -0.378719 2.73254 4802889
1.43842 -0.3803 2.72292 7500402
1.43547 -0.379372 2.72856 5658198
1.44006 -0.380817 2.7198 4539717
1.44085 -0.381064 2.71829 6513507
1.43327 -0.37868 2.73276 5658198
2.73449 -0.4095 4.30321 3881787
2.73813 -0.410642 4.29627 8026746
2.72866 -0.407666 4.31435 2500134
2.73036 -0.408196 4.3111 14606046
2.73982 -0.41118 4.29302 8947848
2.74022 -0.411305 4.29227 2368548
2.72907 -0.407799 4.31357 14474460
2.74031 -0.411333 4.29208 12829635
1.24102 -0.329986 3.65248 4934475
1.23476 -0.328026 3.66446 3750201
1.22975 -0.326434 3.67404 4144959
1.23499 -0.328095 3.66397 2039583
1.24362 -0.330818 3.64755 2105376
1.23892 -0.329316 3.65649 2105376
1.23814 -0.329088 3.65797 986895
1.23962 -0.329539 3.65516 1315860
1.29693 -0.337269 3.70983 5066061
1.30482 -0.339773 3.69476 4210752
1.30318 -0.339248 3.69785 4737096
1.30862 -0.340972 3.68747 2697513
1.30792 -0.340749 3.68883 2960685
1.3014 -0.338691 3.70126 3158064
1.29711 -0.337335 3.70946 1052688
1.3083 -0.340873 3.68812 1250067
2.02713 -0.304127 3.66697 16777215
2.0174 -0.301063 3.68556 11316396
2.02136 -0.302311 3.678 15987699
2.01789 -0.301219 3.68461 5855577
2.0265 -0.303931 3.66816 8553090
2.01909 -0.301595 3.68236 12698049
2.01822 -0.301324 3.68399 5592405
2.01971 -0.301794 3.68114 5197647
1.33423 -0.342941 3.73833 5263440
1.33739 -0.343941 3.73228 4144959
1.34087 -0.345011 3.72561 4605510
1.34621 -0.346714 3.71542 3684408
1.3357 -0.343404 3.73551 3750201
1.34155 -0.345244 3.72433 3750201
1.3446 -0.346223 3.71845 1644825
1.3472 -0.346994 3.71363 1315860
2.06639 -0.303315 3.65043 16777215
2.06469 -0.302787 3.65367 12698049
2.05924 -0.30107 3.6641 16777215
2.06635 -0.303308 3.65051 6447714
2.06057 -0.301497 3.66153 10855845
2.06669 -0.303417 3.64987 14869218
2.06284 -0.302206 3.65721 6052956
2.06173 -0.301857 3.65932 5526612
0.689195 -0.25006 2.45778 6447714
0.684807 -0.24868 2.46616 5131854
0.687829 -0.249632 2.46039 7434609
0.687919 -0.249659 2.46022 4802889
0.689028 -0.250007 2.45809 6250335
0.688931 -0.249978 2.45828 7500402
0.686915 -0.249343 2.46213 5131854
0.688324 -0.249785 2.45944 5987163
-0.462059 0.0979629 2.12151 8092539
-0.460655 0.0975142 2.1188 6645093
-0.462296 0.0980264 2.12194 9868950
-0.463441 0.0983882 2.12416 6250335
-0.468981 0.100132 2.13476 9342606
-0.459823 0.0972612 2.11721 11119017
-0.459599 0.0971857 2.11676 9079434
-0.468922 0.100113 2.13463 11250603
2.75609 -0.37973 4.19712 4342338
2.75953 -0.380811 4.19055 7237230
2.76692 -0.383137 4.17642 2763306
2.7575 -0.380175 4.19442 11250603
2.76629 -0.382939 4.17763 5000268
2.76362 -0.382096 4.18275 2565927
2.75651 -0.379862 4.19631 10263708
2.76491 -0.382505 4.18027 10395294
1.66156 -0.384671 3.90666 5921370
1.66159 -0.384679 3.90659 5723991
1.66488 -0.385723 3.90029 5658198
1.66744 -0.386528 3.89536 3881787
1.66042 -0.384314 3.90883 4539717
1.65928 -0.383959 3.911 4868682
1.66057 -0.384353 3.90852 1776411
1.66849 -0.386858 3.8934 1052688
1.36435 0.219309 2.03963 9934743
1.36757 0.218422 2.0344 12237498
1.36397 0.219414 2.0402 11184810
1.36898 0.218041 2.03214 10000536
1.36377 0.219447 2.04051 9605778
1.36689 0.218605 2.03551 12566463
1.36469 0.219214 2.03905 7039851
1.36118 0.220154 2.04465 7697781
1.73618 -0.397651 3.90472 4737096
1.73054 -0.395873 3.9155 5197647
1.73729 -0.398 3.90261 3815994
1.73752 -0.398072 3.90217 4671303
1.72894 -0.395377 3.91855 4210752
1.73597 -0.397588 3.90511 4276545
1.73893 -0.398519 3.89947 2763306
1.73055 -0.395884 3.91546 1447446
2.15629 -0.29488 3.62025 16777215
2.15375 -0.294072 3.62512 13684944
2.14979 -0.292833 3.63267 16777215
2.1552 -0.294536 3.62234 7434609
2.15017 -0.292955 3.63195 11908533
2.15157 -0.293388 3.62928 15395562
2.15283 -0.293787 3.62687 6381921
2.15559 -0.294664 3.62159 6250335
-0.688498 -0.0042578 2.43521 14277081
-0.697368 -0.00146687 2.45216 10658466
-0.691806 -0.00321543 2.44153 10658466
-0.696906 -0.00161171 2.45127 6974058
-0.693422 -0.0027082 2.44462 7039851
-0.700062 -0.000620186 2.45731 6710886
-0.697633 -0.00138295 2.45266 6776679
-0.700998 -0.000324547 2.4591 6842472
2.7676 -0.373526 4.16884 4210752
2.76439 -0.372517 4.17498 7697781
2.75602 -0.369882 4.19098 3289650
2.75951 -0.370975 4.18432 13553358
2.76107 -0.371471 4.18133 6316128
2.76217 -0.371818 4.17924 2829099
2.7603 -0.371228 4.1828 13684944
2.7682 -0.373715 4.1677 13421772
-0.485012 -0.0372286 2.50969 16448250
-0.493767 -0.034484 2.52641 15329769
-0.485406 -0.0371181 2.51043 15527148
-0.484534 -0.037393 2.50875 7237230
-0.486604 -0.036727 2.51274 7763574
-0.488667 -0.0360783 2.51669 7895160
-0.482504 -0.0380169 2.5049 6776679
-0.487626 -0.0364167 2.51466 6776679
-0.519682 0.312532 1.37528 11908533
-0.517613 0.312174 1.37295 11711154
-0.516564 0.311993 1.37178 11842740
-0.513361 0.311445 1.36818 11579568
-0.509495 0.310791 1.36382 12895428
-0.506809 0.310323 1.36082 11645361
-0.515447 0.31181 1.37052 13421772
-0.509736 0.31083 1.3641 13553358
-0.430926 -0.0441769 2.58531 16514043
-0.432889 -0.0435669 2.58904 14671839
-0.43303 -0.043507 2.58925 16711422
-0.422684 -0.0467716 2.56953 8553090
-0.431246 -0.0440763 2.58589 9737364
-0.428952 -0.0447937 2.5815 8816262
-0.421998 -0.047001 2.56815 6842472
-0.431959 -0.0438474 2.58725 6908265
-0.375021 0.126134 2.03292 4079166
-0.365443 0.123138 2.01463 4605510
-0.37068 0.124804 2.02463 8158332
-0.370188 0.124647 2.02372 3881787
-0.370691 0.124797 2.02465 5526612
-0.366519 0.123472 2.01669 6908265
-0.370277 0.124649 2.02385 2631720
-0.374264 0.125924 2.03149 2434341
-0.402213 -0.0487754 2.63115 3223857
-0.411846 -0.0457436 2.64956 5263440
-0.402296 -0.0487478 2.63131 4605510
-0.408274 -0.0468654 2.64274 7105644
-0.406444 -0.0474403 2.63924 5395026
-0.40415 -0.0481647 2.63485 5789784
-0.401786 -0.0489098 2.63034 6184542
-0.404988 -0.0479028 2.63646 6447714
2.25473 -0.277715 3.61612 16777215
2.24585 -0.274922 3.63307 11974326
2.24553 -0.274824 3.63369 16185078
2.25203 -0.276864 3.62129 6710886
2.24518 -0.274708 3.63436 10526880
2.25001 -0.276233 3.62515 13355979
2.24914 -0.275955 3.62681 6579300
2.24831 -0.275691 3.62841 5855577
2.79161 -0.551354 4.6189 5723991
2.79039 -0.551023 4.62123 7237230
2.78603 -0.549623 4.62952 4013373
2.79512 -0.552516 4.61213 8553090
2.78187 -0.548325 4.63749 5000268
2.78516 -0.54935 4.6313 3881787
2.78337 -0.548763 4.63467 6316128
2.78352 -0.548854 4.63439 4473924
0.660057 -0.0356516 2.54468 6250335
0.664391 -0.0370142 2.53641 5197647
0.664991 -0.0371897 2.53531 7500402
0.66552 -0.0373666 2.53429 4737096
0.663149 -0.0366162 2.53879 6118749
0.660032 -0.03565 2.54469 7500402
0.66744 -0.0379674 2.53057 4802889
0.662035 -0.0362689 2.54089 5789784
1.39978 -0.342922 2.98014 986895
1.40398 -0.344252 2.97213 2368548
1.40458 -0.344441 2.97091 1315860
1.39528 -0.341495 2.98866 3552822
1.40131 -0.343374 2.97716 2302755
1.40382 -0.344213 2.97239 2039583
1.40278 -0.343861 2.9744 3355443
1.40128 -0.343411 2.97724 3618615
1.74608 -0.165389 3.55467 5987163
1.75704 -0.168837 3.53371 6316128
1.74972 -0.166539 3.54767 5723991
1.74835 -0.166087 3.55034 6842472
1.75195 -0.167224 3.54347 5987163
1.75624 -0.168569 3.53527 5855577
1.75396 -0.167862 3.53964 7303023
1.74834 -0.166085 3.55033 7500402
2.82519 -0.340849 4.10835 2565927
2.81921 -0.338965 4.11976 4408131
2.82142 -0.339664 4.11553 2500134
2.82574 -0.341027 4.10729 12237498
2.82254 -0.34002 4.1134 4868682
2.82324 -0.340234 4.11206 2500134
2.82767 -0.341631 4.10357 12369084
2.82565 -0.340989 4.10745 12698049
1.29394 -0.298203 3.53305 1315860
1.28601 -0.295695 3.54823 1907997
1.28445 -0.295208 3.55114 1973790
1.28769 -0.296243 3.54498 3026478
1.28935 -0.296765 3.54178 2829099
1.2836 -0.294951 3.5528 2960685
1.29352 -0.298088 3.53377 3947580
1.28179 -0.294368 3.55627 4079166
1.41031 -0.313395 3.67036 1250067
1.42115 -0.316819 3.64955 1644825
1.41113 -0.313664 3.66873 1579032
1.41821 -0.31591 3.65514 2631720
1.4186 -0.316024 3.6544 2500134
1.4209 -0.316747 3.65 2368548
1.41247 -0.314095 3.66616 3750201
1.41931 -0.316242 3.65305 4342338
-0.308074 0.130359 2.03485 7829367
-0.310282 0.131059 2.03905 7105644
-0.30601 0.129707 2.03089 8684676
-0.31332 0.13201 2.04488 4079166
-0.311781 0.131523 2.04193 5197647
-0.309498 0.130808 2.03758 6776679
-0.310778 0.131211 2.04001 2960685
-0.30641 0.129841 2.03166 6184542
1.75815 -0.160216 3.52544 5921370
1.75892 -0.16044 3.52397 6513507
1.75578 -0.15945 3.53 5658198
1.76165 -0.16131 3.51881 7368816
1.75063 -0.157845 3.53979 6974058
1.75193 -0.158248 3.5373 6381921
1.75575 -0.15944 3.52999 7434609
1.75049 -0.1578 3.54008 7303023
0.0173373 0.134056 1.92798 5329233
0.0192642 0.133464 1.92442 4276545
0.0174127 0.134032 1.9278 2829099
0.0139151 0.135146 1.9345 2697513
0.0213935 0.13282 1.92028 3552822
0.0170848 0.134138 1.92859 4342338
0.0147858 0.134879 1.93289 6316128
0.0218492 0.132652 1.91936 4473924
2.31608 -0.273445 3.61202 16777215
2.31646 -0.273559 3.6113 15329769
2.3193 -0.274451 3.60588 16777215
2.31217 -0.272208 3.61949 9408399
2.31448 -0.272939 3.61508 12632256
2.3217 -0.27521 3.60129 16645629
2.32033 -0.274777 3.60392 7368816
2.32313 -0.275659 3.59855 7237230
0.052031 0.147717 2.07855 8224125
0.0548208 0.14684 2.07322 7960953
0.0504458 0.148211 2.08156 8026746
0.0563042 0.14637 2.07039 7039851
0.0509379 0.148069 2.08062 7237230
0.0556679 0.146577 2.0716 12961221
0.0553436 0.146673 2.07222 6908265
0.0574625 0.146011 2.06815 12566463
2.34239 -0.25908 3.62429 16645629
2.33911 -0.258057 3.63053 11250603
2.34689 -0.260496 3.61567 13948116
2.34274 -0.259195 3.62359 7237230
2.34068 -0.25854 3.62753 8026746
2.34049 -0.258484 3.62789 11908533
2.34297 -0.259268 3.62315 6381921
2.34683 -0.260482 3.61579 5395026
0.474413 0.0794891 2.30987 8158332
0.474748 0.0793856 2.30924 7303023
0.474499 0.0794634 2.30972 7631988
0.484157 0.0764249 2.29128 10987431
0.479918 0.0777593 2.29937 10132122
0.477283 0.0785866 2.30441 9803157
0.484145 0.0764312 2.29129 11053224
0.4835 0.0766339 2.29253 10724259
1.46155 -0.14588 2.83254 4342338
1.46072 -0.145617 2.83414 3947580
1.46391 -0.146628 2.828 5263440
1.46368 -0.146549 2.82846 4408131
1.45907 -0.145104 2.83727 4539717
1.46106 -0.145729 2.83347 5921370
1.46333 -0.146442 2.82916 4013373
1.46306 -0.146354 2.82965 4671303
1.40655 -0.0692475 2.81641 7039851
1.40447 -0.0685935 2.82038 6118749
1.41004 -0.0703513 2.80974 5855577
1.40948 -0.0701787 2.81081 2236962
1.41211 -0.0709932 2.80579 2697513
1.4071 -0.0694175 2.81534 3355443
1.40866 -0.0699173 2.81237 2105376
1.40639 -0.0691944 2.81673 2171169
1.45005 -0.0692178 2.88426 4539717
1.44826 -0.0686575 2.88767 3487029
1.45261 -0.0700251 2.87935 4868682
1.45311 -0.0701939 2.8784 2829099
1.45116 -0.0695727 2.88214 3881787
1.44731 -0.0683581 2.88949 5131854
1.45132 -0.0696259 2.88182 3223857
1.45121 -0.0695906 2.88202 4144959
0.496816 0.040118 2.43174 7368816
0.500647 0.0389172 2.42438 7631988
0.499934 0.0391438 2.42576 7237230
0.502625 0.0382923 2.42064 7763574
0.503711 0.0379533 2.41855 7829367
0.499463 0.0392909 2.42667 7631988
0.501459 0.0386657 2.42284 14145495
0.500157 0.0390713 2.42535 16514043
2.5866 -0.246361 3.54108 16777215
2.59191 -0.248032 3.53095 16250871
2.59036 -0.247547 3.53388 16777215
2.59108 -0.247766 3.53252 11250603
2.58788 -0.246771 3.53862 13816530
2.58869 -0.24702 3.53709 16777215
2.58914 -0.247159 3.53623 10132122
2.59087 -0.247705 3.53292 7368816
0.920711 -0.031593 2.63007 7895160
0.926911 -0.0335477 2.61824 7434609
0.917494 -0.0305886 2.63623 7566195
0.918871 -0.0310141 2.63362 3487029
0.919897 -0.0313343 2.63164 4802889
0.922668 -0.0322118 2.62636 6118749
0.921676 -0.0319009 2.62824 2631720
0.925119 -0.0329794 2.62167 2565927
2.61073 -0.231681 3.55016 16579836
2.60353 -0.229414 3.56392 11382189
2.6075 -0.230667 3.55633 13355979
2.60647 -0.230341 3.55829 6908265
2.60599 -0.230189 3.5592 9671571
2.60341 -0.229378 3.56414 11250603
2.60227 -0.229019 3.56631 7171437
2.60886 -0.231094 3.55372 5855577
1.01892 -0.0488281 2.66567 7697781
1.01707 -0.0482476 2.66918 7697781
1.01571 -0.0478226 2.6718 7566195
1.01801 -0.0485445 2.6674 7368816
1.01199 -0.0466497 2.67891 7303023
1.0126 -0.0468355 2.67775 7434609
1.01361 -0.0471606 2.67582 4737096
1.01307 -0.0469867 2.67684 2697513
0.106413 0.152156 2.02513 6447714
0.105915 0.152314 2.02609 6513507
0.106083 0.152258 2.02576 9145227
0.0986712 0.154591 2.03993 6250335
0.0989304 0.15451 2.03943 8618883
0.0995245 0.154323 2.0383 14211288
0.103736 0.152999 2.03025 8947848
0.102728 0.153315 2.03217 12961221
2.02646 0.128735 2.53157 12303291
2.03105 0.127493 2.5242 15198183
2.0313 0.127425 2.52381 11645361
2.02908 0.128028 2.52737 16711422
2.02729 0.128511 2.53026 14079702
2.02672 0.128666 2.53115 12369084
2.02732 0.128505 2.5302 16119285
2.0263 0.12878 2.53183 15198183
0.802605 0.051087 2.47682 8882055
0.807119 0.0496486 2.46817 15000804
0.804929 0.0503511 2.47236 15198183
0.807128 0.0496517 2.46818 14671839
0.809161 0.0490252 2.46428 13553358
0.805869 0.0500523 2.47055 12105912
0.804174 0.0505863 2.47381 11711154
0.807396 0.0495632 2.46763 11250603
2.8869 -0.300997 4.05744 2565927
2.88333 -0.299872 4.06427 8026746
2.88977 -0.301902 4.05195 2631720
2.88898 -0.301643 4.05349 13684944
2.88609 -0.300737 4.059 8684676
2.89369 -0.303135 4.04447 3026478
2.89228 -0.302679 4.04717 13816530
2.88409 -0.300108 4.06283 13948116
0.498409 0.0503855 2.44084 7237230
0.497331 0.0507299 2.44291 7829367
0.492779 0.052156 2.4516 7631988
0.499323 0.0501028 2.43909 14145495
0.498874 0.0502425 2.43993 11579568
0.498884 0.0502352 2.43993 7895160
0.49354 0.051919 2.45013 16514043
0.500063 0.049861 2.43766 10658466
1.14567 0.00487375 2.71844 4276545
1.15126 0.00310814 2.70776 4671303
1.14443 0.00525266 2.72081 4539717
1.14782 0.00419426 2.71434 6381921
1.14227 0.00593656 2.72495 5987163
1.14662 0.0045644 2.71662 5263440
1.14878 0.00388718 2.7125 7500402
1.14594 0.00478047 2.71793 7960953
1.01338 -0.0383348 2.67827 7500402
1.0133 -0.0383114 2.67843 7368816
1.01269 -0.0381186 2.67959 7303023
1.0133 -0.0383095 2.67844 4144959
1.02038 -0.0405374 2.6649 5395026
1.01802 -0.0397962 2.66942 6579300
1.0114 -0.0377137 2.68206 2697513
1.01326 -0.0382965 2.67852 2565927
2.64791 -0.241378 3.49484 16777215
2.64694 -0.241076 3.49668 14474460
2.64807 -0.24143 3.49453 16777215
2.65055 -0.242209 3.48978 10987431
2.64579 -0.240711 3.49889 11908533
2.64571 -0.240688 3.49905 16579836
2.64121 -0.239272 3.50766 8421504
2.6424 -0.239641 3.50536 6974058
2.36691 -0.224902 3.64797 7237230
2.36852 -0.225418 3.64486 5987163
2.37684 -0.228034 3.62897 5855577
2.37512 -0.227494 3.63224 6710886
2.37675 -0.228003 3.62912 6513507
2.36788 -0.225216 3.64611 5395026
2.3731 -0.226857 3.63609 6645093
2.36933 -0.225669 3.64328 6645093
0.224861 0.143838 2.11672 13158600
0.232903 0.141306 2.10134 13224393
0.23287 0.14132 2.10141 12829635
0.225171 0.143739 2.11612 16448250
0.227374 0.143045 2.11194 16185078
0.229394 0.142407 2.10805 14145495
0.228997 0.142537 2.10881 16777215
0.229774 0.142289 2.10734 16119285
1.55926 0.233112 1.99923 2105376
1.55852 0.233328 2.00043 2171169
1.55955 0.233049 1.99878 3552822
1.55854 0.233329 2.00044 2171169
1.55606 0.233997 2.00437 4605510
1.55996 0.232933 1.99815 7763574
1.56027 0.232857 1.99762 5658198
1.55382 0.234599 2.00796 8158332
0.326972 0.131824 2.19319 16119285
0.328516 0.131343 2.19025 13948116
0.332584 0.130058 2.18247 16053492
0.332074 0.130218 2.18345 11974326
0.32338 0.132955 2.20006 14211288
0.323009 0.133067 2.20077 15987699
0.323677 0.132862 2.19948 12105912
0.324034 0.132749 2.1988 12698049
0.797474 0.0173873 2.58946 2565927
0.795209 0.0180943 2.59378 3487029
0.804687 0.0151125 2.57567 3355443
0.796633 0.0176513 2.59106 4144959
0.796813 0.0175931 2.59073 4079166
0.800471 0.0164399 2.58375 4013373
0.799609 0.016715 2.58539 5263440
0.797247 0.0174575 2.58992 6710886
0.557297 0.0868578 2.26968 10526880
0.556462 0.0871198 2.27127 10197915
0.556568 0.0870884 2.27107 10263708
0.560181 0.0859526 2.26418 12171705
0.561349 0.0855766 2.26193 12632256
0.561063 0.0856733 2.26248 12763842
0.555502 0.0874203 2.2731 12500670
0.558619 0.0864419 2.26716 12105912
1.18783 -0.0526099 2.74518 7368816
1.19383 -0.0545017 2.73372 6974058
1.18525 -0.0518053 2.7501 7105644
1.19104 -0.0536242 2.73905 4144959
1.19188 -0.0538906 2.73744 4934475
1.1942 -0.0546167 2.73301 5789784
1.1912 -0.0536756 2.73875 2697513
1.1859 -0.0520054 2.74885 2631720
1.784 0.153746 2.25338 12105912
1.78493 0.153493 2.2519 4210752
1.7804 0.154718 2.25915 15527148
1.7846 0.153584 2.25242 2829099
1.78523 0.153413 2.2514 4737096
1.78124 0.154496 2.2578 16777215
1.78573 0.153277 2.2506 5197647
1.78722 0.152877 2.24823 9868950
1.22486 -0.00268209 2.74182 4342338
1.22942 -0.00412017 2.73313 4737096
1.2235 -0.00225157 2.74444 4737096
1.22676 -0.00327569 2.73821 6513507
1.22448 -0.00256634 2.74256 5921370
1.2281 -0.00370425 2.73565 5395026
1.22907 -0.00400364 2.7338 7631988
1.22828 -0.00375557 2.73529 7763574
0.521745 0.0669818 2.40743 16514043
0.522837 0.066636 2.40533 16777215
0.515263 0.0690193 2.41978 10658466
0.51934 0.0677291 2.412 16777215
0.520138 0.0674851 2.41048 13158600
0.517239 0.0683954 2.41599 8158332
0.514023 0.0694073 2.42216 9408399
0.513485 0.0695815 2.42321 7566195
0.03373 0.164343 1.89698 3881787
0.0325253 0.164714 1.89923 4013373
0.0373423 0.163206 1.89007 2171169
0.0314362 0.165055 1.90133 2500134
0.0323541 0.164782 1.89953 2960685
0.0344367 0.164115 1.89562 3026478
0.0332792 0.164471 1.89788 5855577
0.03775 0.163057 1.88925 4013373
-0.0271299 0.136954 1.93487 4342338
-0.0239794 0.13594 1.92888 6316128
-0.0241172 0.135988 1.92909 6710886
-0.0201159 0.134737 1.92147 3881787
-0.0217729 0.135253 1.92468 5131854
-0.0262887 0.13668 1.9333 3092271
-0.020494 0.134858 1.92225 2697513
-0.0192847 0.134473 1.91985 3947580
0.0924387 0.162174 1.91755 3618615
0.0926452 0.162134 1.91722 5723991
0.0872889 0.163791 1.92743 7368816
0.0849917 0.164542 1.93183 3289650
0.0884876 0.163436 1.9251 4408131
0.0840633 0.164823 1.93363 3092271
0.0906041 0.162772 1.92111 2368548
0.0870552 0.163876 1.92782 2500134
1.48041 0.246241 1.92475 2171169
1.4802 0.246285 1.92508 4342338
1.48033 0.246262 1.92489 2829099
1.47815 0.24685 1.92839 3223857
1.47588 0.247459 1.93202 9803157
1.4737 0.248052 1.93552 2500134
1.47872 0.246701 1.92749 9408399
1.47875 0.246687 1.92743 11645361
0.0752459 0.174065 1.97027 6447714
0.0768418 0.173562 1.96722 4737096
0.0806327 0.172369 1.95997 6974058
0.0775638 0.173333 1.96584 3092271
0.0812633 0.172171 1.95877 4802889
0.0740664 0.174437 1.97252 6381921
0.0756083 0.173952 1.96958 3026478
0.0727413 0.174851 1.97505 4934475
0.859993 0.0252952 2.62008 3750201
0.861534 0.0248168 2.61708 4342338
0.862766 0.0244304 2.61475 4210752
0.856465 0.026408 2.62677 5855577
0.853107 0.0274669 2.63323 5329233
0.860652 0.0251024 2.61879 4868682
0.85572 0.0266559 2.62821 6908265
0.862865 0.0244019 2.61457 6513507
0.256945 0.15121 2.10118 15329769
0.256764 0.151267 2.10152 16645629
0.251035 0.153069 2.11247 15132390
0.251926 0.152791 2.11077 16777215
0.257069 0.15117 2.10094 14474460
0.258152 0.150831 2.09887 11382189
0.255384 0.151701 2.10416 15592941
0.25692 0.151218 2.10123 15987699
2.53958 -0.238311 3.56927 15461355
2.53674 -0.237413 3.57472 11316396
2.53529 -0.236955 3.57749 13027014
2.53294 -0.236218 3.58199 7368816
2.53782 -0.237756 3.57265 8684676
2.53269 -0.236143 3.58246 12303291
2.54125 -0.238833 3.56612 6908265
2.54165 -0.238965 3.56532 5197647
0.632515 0.107803 2.40503 10066329
0.634332 0.107247 2.40155 10461087
0.631459 0.108144 2.40702 11842740
0.632173 0.107932 2.40565 10592673
0.626351 0.109743 2.41677 11184810
0.635489 0.106882 2.39927 13158600
0.633197 0.107581 2.40373 7500402
0.63345 0.107522 2.40325 10197915
0.597078 0.150581 2.14781 12105912
0.596052 0.150909 2.14979 12698049
0.590756 0.15257 2.15988 11513775
0.597478 0.150452 2.14709 13684944
0.593629 0.151679 2.15438 11053224
0.593445 0.151734 2.15477 11447982
0.596987 0.150613 2.14798 11579568
0.590576 0.152628 2.16029 11119017
1.43271 -0.0146089 2.88447 2829099
1.44112 -0.0172573 2.86841 2631720
1.43489 -0.0152947 2.88033 2960685
1.43989 -0.0168664 2.87077 4408131
1.43896 -0.0165721 2.87255 4737096
1.44029 -0.0169934 2.87001 5789784
1.43642 -0.0157746 2.87739 5921370
1.43635 -0.0157537 2.87754 6710886
0.972046 0.00700092 1.95415 12237498
0.975785 0.005862 1.9469 13421772
0.974194 0.00636959 1.95021 12369084
0.976511 0.00567472 1.94561 13092807
0.976715 0.00558197 1.94525 12500670
0.973402 0.0066607 1.95158 9671571
0.976078 0.00574869 1.94648 12763842
0.973927 0.00646472 1.95059 10329501
1.4548 -0.0185517 2.89096 4408131
1.45561 -0.0188043 2.88943 2960685
1.45336 -0.0180949 2.89373 5855577
1.45522 -0.0186827 2.89017 4737096
1.45478 -0.0185437 2.891 5789784
1.46066 -0.0203958 2.87976 6513507
1.46278 -0.0210634 2.87571 6776679
1.46263 -0.0210134 2.87601 6710886
0.960325 0.101743 2.39678 13684944
0.956875 0.102834 2.40337 11382189
0.96356 0.100727 2.39059 15132390
0.963991 0.100594 2.38977 10658466
0.960326 0.101738 2.39674 12434877
0.961054 0.101504 2.39536 14671839
0.964505 0.100431 2.38876 10395294
0.960482 0.101698 2.39647 11119017
2.90382 -0.217157 3.42124 15329769
2.90162 -0.216469 3.42546 13750737
2.90216 -0.21664 3.42444 14803425
2.90956 -0.218972 3.4103 9342606
2.90855 -0.218646 3.41224 11513775
2.90562 -0.217726 3.41782 14079702
2.90357 -0.217079 3.42174 10000536
2.90128 -0.216364 3.42611 8553090
1.03272 0.421388 4.86073 7237230
1.04385 0.417845 4.83928 7566195
1.04534 0.417357 4.83661 7631988
1.0295 0.422269 4.8669 7763574
1.03194 0.421565 4.86226 7960953
1.04038 0.418874 4.84598 7960953
1.03902 0.419398 4.84878 8092539
1.0361 0.420248 4.85414 8618883
1.17225 0.0722671 2.48802 6579300
1.16952 0.0731237 2.49324 5526612
1.16987 0.0730125 2.49256 8026746
1.16471 0.0746408 2.50244 5263440
1.16732 0.0738198 2.49744 7105644
1.16961 0.0730976 2.49308 8487297
1.1643 0.0747712 2.50323 6118749
1.17121 0.0725928 2.49002 7566195
0.678453 0.0793676 2.25885 12829635
0.679854 0.0789552 2.25627 14408667
0.677614 0.0796592 2.26049 10790052
0.672778 0.0811695 2.26972 14606046
0.67487 0.0805335 2.26574 11645361
0.676143 0.0801319 2.26335 10658466
0.676905 0.0798791 2.26192 12763842
0.677775 0.079587 2.26016 10329501
3.08881 -0.20018 3.70485 2368548
3.09019 -0.200609 3.70223 6974058
3.08899 -0.200236 3.70451 2302755
3.08682 -0.199558 3.70865 12632256
3.08502 -0.198982 3.71211 7434609
3.0918 -0.201125 3.69914 2500134
3.08714 -0.199656 3.70804 12895428
3.08724 -0.19968 3.70786 12961221
0.885249 0.0628185 2.46867 13290186
0.881377 0.0640389 2.47608 11579568
0.883602 0.0633412 2.47183 13487565
0.887043 0.0622547 2.46525 11513775
0.887414 0.0621368 2.46453 13027014
0.888919 0.0616645 2.46167 16777215
0.880903 0.0641892 2.47699 14671839
0.886295 0.0624909 2.46669 14737632
1.1345 0.277327 1.74471 2697513
1.13635 0.276823 1.74175 2697513
1.13631 0.276846 1.74181 5263440
1.13736 0.276546 1.74012 2368548
1.13333 0.277645 1.74658 9605778
1.13672 0.276726 1.74116 10658466
1.13566 0.277016 1.74287 7829367
1.1307 0.278356 1.75083 14606046
1.43544 -0.0100551 2.85544 2631720
1.43161 -0.0088501 2.86276 4408131
1.43011 -0.00838155 2.86561 4737096
1.4384 -0.010991 2.84978 5921370
1.43593 -0.0102111 2.85451 5921370
1.43524 -0.00999546 2.8558 6776679
1.43409 -0.00963581 2.85801 7566195
1.43052 -0.00851309 2.86482 7960953
0.575383 0.167902 2.1369 14079702
0.582623 0.16563 2.12309 15527148
0.577427 0.16725 2.133 13421772
0.576429 0.167581 2.13492 14803425
0.580518 0.166297 2.12711 13882323
0.580421 0.166301 2.1273 10790052
0.579479 0.166609 2.12904 11579568
0.576284 0.167611 2.13515 8421504
2.68804 -0.221832 3.46844 10461087
2.67916 -0.219032 3.48539 7697781
2.67917 -0.219044 3.48537 10526880
2.68566 -0.22108 3.47296 6447714
2.68843 -0.221947 3.46769 7303023
2.68035 -0.21941 3.48311 8684676
2.68215 -0.21998 3.47966 5263440
2.68353 -0.22041 3.47705 5329233
0.779358 0.120616 2.16839 10132122
0.771806 0.122963 2.18272 9737364
0.774347 0.122193 2.17804 9803157
0.773602 0.122397 2.17941 10066329
0.779149 0.120671 2.16883 11447982
0.771273 0.123116 2.18384 10066329
0.773802 0.122337 2.179 11382189
0.775517 0.121808 2.17573 11776947
3.00465 -0.238896 3.8459 2763306
3.00613 -0.239367 3.84306 8882055
3.00595 -0.239309 3.84341 2960685
3.01174 -0.241129 3.83234 13684944
3.01252 -0.241372 3.83086 9211020
3.01112 -0.240932 3.83353 3421236
3.00223 -0.238138 3.85051 13750737
3.00377 -0.238618 3.84758 14013909
3.11128 -0.202638 3.67718 2105376
3.10759 -0.201487 3.68424 2500134
3.10792 -0.201588 3.6836 2236962
3.10874 -0.201837 3.68204 7895160
3.10494 -0.200648 3.68929 2763306
3.1043 -0.200436 3.69054 2105376
3.11174 -0.20279 3.67631 8355711
3.10395 -0.200336 3.69118 8421504
0.0645223 0.190493 1.95994 3092271
0.0717781 0.188207 1.94616 2434341
0.0704517 0.188625 1.94859 3026478
0.0639267 0.190674 1.96105 2500134
0.0633938 0.190844 1.96211 3618615
0.0638442 0.190694 1.96125 4934475
0.0683889 0.189261 1.95255 7303023
0.0721705 0.188078 1.94537 4802889
0.885106 0.126478 2.30892 14145495
0.892016 0.124309 2.2957 11908533
0.885533 0.126352 2.30813 13355979
0.883919 0.126863 2.31118 10066329
0.892096 0.124278 2.29556 9079434
0.888214 0.125498 2.30298 8553090
0.888384 0.125456 2.30267 8289918
0.885005 0.12652 2.30913 7631988
2.74256 -0.22567 3.4796 16777215
2.74257 -0.225678 3.47959 11184810
2.73422 -0.223044 3.49554 14869218
2.74218 -0.225553 3.48034 8224125
2.7409 -0.225153 3.48278 11184810
2.73443 -0.223114 3.49513 12040119
2.7438 -0.22606 3.47723 7171437
2.73895 -0.224542 3.48649 7434609
2.95799 -0.212606 3.40151 14803425
2.95768 -0.212512 3.40211 13355979
2.95398 -0.211351 3.40916 14474460
2.95962 -0.21312 3.3984 9211020
2.95871 -0.212834 3.40014 11645361
2.96182 -0.213816 3.39419 13882323
2.96034 -0.21335 3.39702 8882055
2.95998 -0.213235 3.39772 8158332
0.901664 0.10931 2.17359 7631988
0.899115 0.110108 2.17852 8092539
0.901676 0.109299 2.17362 8553090
0.90185 0.109243 2.17323 9474192
0.899693 0.109927 2.17737 9934743
0.897556 0.110583 2.18145 10329501
0.901155 0.109444 2.1746 10592673
0.900908 0.109523 2.17504 9737364
0.692662 0.108125 2.35817 7697781
0.699807 0.105872 2.34453 9145227
0.697832 0.106491 2.3483 11974326
0.691514 0.108476 2.36037 7171437
0.694512 0.107538 2.35464 9605778
0.692711 0.108101 2.35807 13290186
0.69278 0.108078 2.35793 10855845
0.693006 0.108021 2.35753 11842740
1.11511 0.102252 2.42308 15395562
1.11675 0.101729 2.41996 16777215
1.11502 0.102282 2.42327 13290186
1.12147 0.100244 2.41091 13750737
1.11713 0.101627 2.41926 13355979
1.11475 0.102373 2.42376 15198183
1.11673 0.101738 2.42 11316396
1.12157 0.100212 2.41072 13092807
0.85599 0.0971337 2.03612 9803157
0.854424 0.0976347 2.03913 10461087
0.855529 0.0972803 2.03702 9539985
0.852315 0.0982883 2.04312 10987431
0.853554 0.0978962 2.04078 10197915
0.853341 0.0979708 2.04122 10132122
0.858074 0.0964717 2.03213 11579568
0.859941 0.0958772 2.02853 11711154
0.80983 0.0946536 2.39935 10197915
0.80849 0.0950891 2.40192 10461087
0.810963 0.0943049 2.39717 12303291
0.805333 0.0960891 2.40792 9408399
0.811543 0.0941253 2.3961 11974326
0.808132 0.0952055 2.40261 12237498
0.812198 0.0939209 2.39487 8355711
0.813365 0.0935494 2.39261 9803157
2.83624 0.0537955 3.10059 2500134
2.83815 0.0533043 3.0976 4539717
2.83354 0.0545377 3.10492 3421236
2.83953 0.0529232 3.09532 5658198
2.83979 0.0528275 3.09488 5263440
2.83528 0.0540682 3.10212 4342338
2.84147 0.0523869 3.09221 5723991
2.84015 0.0527492 3.09434 5592405
2.44248 -0.0719132 3.24033 7368816
2.44742 -0.0734598 3.23088 7171437
2.443 -0.0720729 3.23936 7237230
2.44495 -0.072685 3.2356 6447714
2.44743 -0.0734616 3.23088 6184542
2.44506 -0.0727283 3.23541 7039851
2.44234 -0.071867 3.24059 5987163
2.44201 -0.0717707 3.24122 5526612
1.50979 -0.00137252 2.86207 7763574
1.5083 -0.000916958 2.86493 6842472
1.50396 0.000457048 2.87321 7566195
1.50101 0.00138664 2.87882 8553090
1.50958 -0.00131565 2.86249 8026746
1.50084 0.00144267 2.87918 6579300
1.50025 0.0016169 2.88032 8882055
1.50549 -3.80874e-05 2.87029 8947848
3.0365 -0.228753 3.79373 2631720
3.03855 -0.229394 3.78979 6842472
3.03793 -0.2292 3.79098 2631720
3.03411 -0.227997 3.7983 12829635
3.0325 -0.227491 3.80137 7368816
3.03624 -0.228666 3.79422 2763306
3.03367 -0.227862 3.79912 13224393
3.03604 -0.228603 3.79459 12961221
0.388456 0.203679 1.86294 4605510
0.390588 0.203008 1.85887 4671303
0.389663 0.203299 1.86063 7105644
0.394758 0.201695 1.85091 2697513
0.39252 0.2024 1.85518 3289650
0.388949 0.203522 1.862 4013373
0.392761 0.202325 1.85472 3092271
0.396297 0.201211 1.84796 2171169
0.248775 0.279207 2.5646 13684944
0.248615 0.279259 2.5649 14671839
0.255931 0.276958 2.55092 12895428
0.248116 0.279414 2.56585 14671839
0.257021 0.276614 2.54884 12961221
0.249036 0.279124 2.56409 10197915
0.252789 0.277944 2.55692 13290186
0.256513 0.276773 2.54981 10658466
0.813513 0.150246 2.14404 10461087
0.812534 0.150523 2.14584 10855845
0.812767 0.15046 2.14538 9013641
0.812934 0.150415 2.14511 10921638
0.813349 0.150292 2.14429 8684676
0.813081 0.15037 2.14481 8553090
0.808839 0.151684 2.15293 9145227
0.809438 0.151504 2.15178 9013641
1.54232 -0.000872374 2.8706 7829367
1.53683 0.000842571 2.88106 6579300
1.54414 -0.0014503 2.86718 7368816
1.54424 -0.00149214 2.86694 8750469
1.54235 -0.00088805 2.87055 7763574
1.53693 0.000822306 2.88097 6842472
1.53928 6.70552e-05 2.87638 8816262
1.54314 -0.00114471 2.86902 8750469
0.979325 0.130214 2.27031 9211020
0.98047 0.12985 2.26813 11842740
0.980159 0.12994 2.26873 10263708
0.984272 0.128654 2.26084 11974326
0.981689 0.129461 2.2658 8882055
0.976338 0.131152 2.27603 7237230
0.984167 0.128682 2.26108 10263708
0.982411 0.129244 2.26442 9211020
2.81872 -0.225027 3.4686 16448250
2.82339 -0.226496 3.4597 15198183
2.82488 -0.226962 3.45684 15856113
2.82622 -0.227387 3.45427 10066329
2.82438 -0.226809 3.45779 13224393
2.81918 -0.225176 3.46773 15263976
2.82356 -0.226549 3.45937 10461087
2.82355 -0.226544 3.45938 9605778
3.03012 -0.258127 3.59015 1710618
3.03476 -0.259592 3.58128 2105376
3.03491 -0.259643 3.58099 1579032
3.0389 -0.26089 3.57337 2763306
3.03349 -0.259183 3.58372 2105376
3.03875 -0.260843 3.57366 1579032
3.03363 -0.259231 3.58344 2697513
3.03957 -0.261095 3.57212 2500134
1.06341 0.118557 2.31477 12171705
1.05602 0.120886 2.32891 12829635
1.06164 0.119116 2.31819 11842740
1.06002 0.119634 2.32129 11382189
1.05687 0.120599 2.32729 10132122
1.05553 0.121049 2.32986 10132122
1.05732 0.120481 2.32645 11316396
1.06068 0.119437 2.32003 13619151
0.237353 0.17045 1.91784 7171437
0.238864 0.169986 1.91497 7039851
0.237246 0.170483 1.91802 8158332
0.234412 0.171391 1.92348 7039851
0.23966 0.169741 1.91343 5526612
0.236828 0.170622 1.91883 7171437
0.232199 0.172085 1.92771 3092271
0.23186 0.172205 1.92835 7105644
1.98233 -0.00974143 2.9091 8882055
1.98845 -0.011658 2.89743 8750469
1.9894 -0.0119638 2.89561 8882055
1.98923 -0.0119172 2.89592 9013641
1.98093 -0.00929701 2.91177 6250335
1.98609 -0.0109182 2.90189 7566195
1.98594 -0.0108723 2.90222 7303023
1.98104 -0.00933117 2.91159 4473924
0.817074 0.0914143 2.31439 8947848
0.817029 0.0914361 2.31442 9539985
0.815964 0.091763 2.3165 8816262
0.820436 0.0903506 2.30793 10263708
0.816031 0.0917427 2.31635 10526880
0.819497 0.0906574 2.30978 8618883
0.820214 0.0904334 2.30835 11382189
0.825393 0.0888023 2.29849 11250603
2.05246 -0.032839 2.89168 8553090
2.0497 -0.0319684 2.89702 8289918
2.05304 -0.0330101 2.89063 7631988
2.05487 -0.0335954 2.88711 8487297
2.05072 -0.0322872 2.89503 7105644
2.05586 -0.0339321 2.88519 6316128
2.05194 -0.0326665 2.89273 6974058
2.04758 -0.0313016 2.90103 5329233
3.14833 -0.176854 3.62051 1776411
3.14244 -0.175015 3.63175 3092271
3.14458 -0.175679 3.6277 1644825
3.14743 -0.176584 3.62223 6184542
3.14831 -0.176855 3.62053 2894892
3.14553 -0.175983 3.62587 1710618
3.14804 -0.176773 3.62108 4802889
3.15059 -0.177585 3.61619 4276545
2.78421 -0.206082 3.43329 10132122
2.78769 -0.207179 3.42664 6908265
2.79009 -0.207923 3.42211 8026746
2.78505 -0.206343 3.43172 4737096
2.78415 -0.206075 3.43342 6645093
2.78635 -0.206766 3.4292 6908265
2.78597 -0.206631 3.42995 5197647
2.78532 -0.206445 3.43118 5723991
0.539418 0.202273 2.00147 12632256
0.538065 0.202691 2.0041 8947848
0.541691 0.201558 1.99721 13684944
0.539543 0.202221 2.00127 8553090
0.541408 0.201659 1.9977 10921638
0.536777 0.203108 2.00655 13487565
0.539503 0.20226 2.00136 11184810
0.537301 0.202941 2.00553 13355979
2.82464 -0.219181 3.41687 14540253
2.82146 -0.218189 3.42293 9671571
2.82104 -0.218046 3.42374 12303291
2.82799 -0.220234 3.41046 7631988
2.82061 -0.217918 3.42454 10000536
2.82566 -0.219502 3.41493 10000536
2.82807 -0.220264 3.4103 6776679
2.82762 -0.22012 3.41116 7105644
3.011 -0.195608 3.33955 9079434
3.0063 -0.194118 3.34853 8684676
3.00849 -0.194807 3.34436 7697781
3.00861 -0.194839 3.34411 6118749
3.01025 -0.195367 3.34099 6645093
3.00584 -0.193981 3.3494 8487297
3.00829 -0.194754 3.34472 5789784
3.00431 -0.193497 3.35236 5131854
3.06597 -0.214224 3.76605 2960685
3.06091 -0.212632 3.77571 8487297
3.06124 -0.212741 3.77508 3092271
3.0588 -0.211965 3.77972 13487565
3.05615 -0.211134 3.78481 8947848
3.05605 -0.211115 3.78499 3355443
3.06347 -0.213444 3.77079 13553358
3.0632 -0.213359 3.77134 13816530
0.856193 0.169691 2.22101 10197915
0.857165 0.169379 2.21913 9605778
0.854745 0.17015 2.22376 11184810
0.855135 0.170009 2.22294 8882055
0.851435 0.171201 2.23013 10132122
0.851791 0.171073 2.22945 11119017
0.859094 0.16876 2.21547 9145227
0.85696 0.169436 2.21952 9211020
0.136101 0.202763 1.8723 5987163
0.133852 0.203473 1.87659 5263440
0.13842 0.202037 1.86786 4473924
0.137839 0.202219 1.86898 4079166
0.140461 0.201392 1.86397 3881787
0.138119 0.202131 1.86845 6381921
0.137102 0.202451 1.87039 4144959
0.139015 0.201847 1.86673 4802889
-0.392293 0.0788786 2.19032 5987163
-0.390341 0.0783065 2.18725 5921370
-0.401407 0.0813249 2.20488 6316128
-0.395722 0.0798 2.19579 6184542
-0.400798 0.0811414 2.20398 6579300
-0.393758 0.0792822 2.19267 7631988
-0.394488 0.0794604 2.1938 6381921
-0.401512 0.0813147 2.20515 7763574
2.87123 -0.222205 3.43115 15724527
2.87105 -0.222142 3.4315 14342874
2.87361 -0.222951 3.42659 15329769
2.87141 -0.222263 3.4308 9737364
2.87115 -0.222178 3.4313 12895428
2.8709 -0.222094 3.43178 14737632
2.87793 -0.224308 3.41835 9934743
2.87613 -0.223743 3.4218 9408399
0.850089 0.103925 2.29279 10329501
0.845137 0.105475 2.30224 11250603
0.843795 0.10592 2.30484 11776947
0.850108 0.103934 2.29276 10658466
0.845522 0.105372 2.3015 11908533
0.851735 0.103413 2.28967 14408667
0.846423 0.105073 2.2998 10921638
0.848515 0.104425 2.29579 10329501
0.992284 0.142271 2.24923 10263708
1.00057 0.139665 2.23343 11579568
0.993092 0.142013 2.2477 9211020
0.999292 0.140078 2.23586 11250603
0.996437 0.140971 2.24133 10197915
0.996851 0.140835 2.24048 7500402
0.996019 0.141099 2.2421 10263708
0.995075 0.141393 2.24389 10132122
1.71888 0.0519926 2.59656 2960685
1.71997 0.0516309 2.59446 3289650
1.72256 0.0508451 2.58954 2763306
1.72103 0.051305 2.59245 4276545
1.71775 0.0523276 2.59871 5987163
1.7199 0.0516597 2.59463 3092271
1.71402 0.0535082 2.60585 10066329
1.71963 0.051747 2.59512 7105644
1.20493 0.113367 2.373 6842472
1.2013 0.114507 2.37992 10263708
1.205 0.113348 2.37286 6447714
1.1978 0.115607 2.38662 16645629
1.20293 0.114001 2.37681 9737364
1.20429 0.11357 2.3742 7895160
1.20438 0.11354 2.37405 13290186
1.20124 0.114527 2.38003 6974058
2.75677 -0.499663 4.07535 3750201
2.76821 -0.502759 4.05701 4079166
2.75925 -0.500335 4.07139 2894892
2.76112 -0.500842 4.06838 4079166
2.76803 -0.50271 4.0573 3355443
2.76485 -0.501849 4.0624 2631720
2.75644 -0.499572 4.07589 3750201
2.75561 -0.499347 4.07723 2960685
0.478093 0.21241 1.87968 2763306
0.474037 0.213693 1.88749 4802889
0.479454 0.211976 1.87711 4605510
0.474037 0.213677 1.88742 9737364
0.478946 0.21214 1.87806 8158332
0.474996 0.213379 1.8856 2565927
0.477258 0.212684 1.88129 5526612
0.475188 0.213314 1.88525 2763306
1.2286 0.133636 2.32204 12369084
1.23343 0.132103 2.31281 16645629
1.22984 0.133238 2.3197 10592673
1.23234 0.13245 2.3149 13750737
1.23065 0.13298 2.31814 13684944
1.22987 0.133227 2.31963 7500402
1.22928 0.133404 2.32073 12500670
1.22955 0.133328 2.32022 12303291
2.33 -0.0306298 3.10616 7105644
2.33324 -0.0316789 3.0999 6776679
2.32592 -0.0293757 3.11385 6513507
2.32669 -0.0295931 3.11246 7566195
2.33138 -0.0310565 3.10345 8026746
2.32417 -0.0288141 3.11725 8026746
2.33111 -0.0310064 3.10405 8421504
2.33225 -0.0313621 3.10179 8882055
3.18281 -0.152465 3.62475 1579032
3.17358 -0.149558 3.64241 2894892
3.17614 -0.15037 3.63746 1315860
3.18224 -0.152304 3.62579 6513507
3.18041 -0.151709 3.62932 3618615
3.17683 -0.150591 3.63623 1315860
3.1823 -0.152314 3.62574 5460819
3.17745 -0.150784 3.63502 4605510
0.519868 0.214736 1.91177 10592673
0.521564 0.214205 1.90852 7105644
0.520459 0.214549 1.91066 11579568
0.5181 0.215293 1.91518 4013373
0.515836 0.216012 1.91949 10329501
0.516984 0.215642 1.9173 13750737
0.521142 0.214348 1.90936 8092539
0.516006 0.215959 1.91918 8816262
2.12105 0.00900006 2.81044 6052956
2.12165 0.00881302 2.80933 4408131
2.11895 0.00965858 2.81446 2631720
2.11455 0.0110393 2.82287 6908265
2.11434 0.0111064 2.82325 6974058
2.11981 0.00938648 2.81282 3487029
2.11568 0.0106887 2.8207 11513775
2.11991 0.0093568 2.81263 16777215
1.21391 0.114625 2.33307 16645629
1.21176 0.115295 2.33714 14606046
1.21669 0.113744 2.32772 13290186
1.21201 0.115212 2.33667 14803425
1.21197 0.115227 2.33674 10197915
1.21453 0.11443 2.33185 6974058
1.21093 0.115554 2.33874 10855845
1.21181 0.115288 2.33705 12369084
0.629403 0.226611 1.89414 9145227
0.628204 0.226986 1.89644 6842472
0.625936 0.227701 1.90077 9276813
0.627204 0.227302 1.89834 5329233
0.631233 0.226036 1.89065 7434609
0.625338 0.227889 1.90191 9671571
0.630771 0.22618 1.89153 3947580
0.627764 0.227124 1.89727 4408131
0.641503 0.209605 2.01464 12171705
0.646086 0.208158 2.00591 10000536
0.64923 0.207171 1.99986 12040119
0.642456 0.209276 2.01277 8882055
0.648203 0.207486 2.0018 10855845
0.646879 0.207915 2.00437 14145495
0.643632 0.208933 2.01058 12829635
0.646692 0.20797 2.00474 14474460
0.756808 0.183875 2.04122 11776947
0.759537 0.18303 2.03597 12369084
0.758239 0.18344 2.03848 9737364
0.757295 0.183743 2.04029 13553358
0.756824 0.183884 2.04121 10461087
0.760041 0.182872 2.03504 9671571
0.754654 0.184567 2.04534 11053224
0.753934 0.1848 2.04675 9539985
1.52287 0.11243 2.49241 9276813
1.5223 0.112604 2.49349 9342606
1.52562 0.111554 2.48713 8026746
1.52675 0.111207 2.48499 9276813
1.51998 0.113334 2.49792 8553090
1.51972 0.113419 2.4984 6316128
1.52173 0.112781 2.49459 9211020
1.52669 0.111225 2.4851 9474192
0.83014 0.186733 2.13701 10855845
0.829742 0.186843 2.13777 11513775
0.827289 0.187621 2.14249 10066329
0.830043 0.186774 2.13721 11119017
0.832206 0.186074 2.13307 9145227
0.826686 0.187803 2.14363 8816262
0.826241 0.187944 2.14449 8158332
0.83268 0.185921 2.13207 6579300
1.6197 0.0812259 2.48172 13487565
1.61385 0.0830654 2.49289 10263708
1.61349 0.0831808 2.49359 14079702
1.61825 0.0816807 2.48451 6381921
1.61959 0.08126 2.48193 10197915
1.61605 0.0823686 2.48869 13684944
1.61529 0.0826142 2.49014 6184542
1.6159 0.0824167 2.48898 7960953
2.0268 0.00854087 2.84888 2565927
2.02461 0.0092268 2.85306 7895160
2.03332 0.00649667 2.83644 2565927
2.03192 0.00692165 2.83906 8816262
2.03315 0.00654227 2.83677 5263440
2.02711 0.00843704 2.84828 2500134
2.02496 0.00912488 2.85239 4868682
2.02736 0.00835752 2.8478 4144959
2.23582 0.00300229 2.89505 2763306
2.23707 0.00261593 2.89263 8289918
2.23173 0.00429583 2.90284 2368548
2.23609 0.00292504 2.8945 8947848
2.23709 0.00261331 2.89258 8026746
2.23376 0.00366133 2.89894 2105376
2.23433 0.00347579 2.89788 9539985
2.2338 0.00364602 2.89888 4473924
2.48425 -0.0506504 3.1418 5197647
2.48226 -0.0500219 3.14565 6513507
2.4846 -0.050761 3.14116 5197647
2.48294 -0.0502399 3.14431 7434609
2.48443 -0.0507068 3.14147 6381921
2.47701 -0.048377 3.15567 5066061
2.48215 -0.0500129 3.14579 7500402
2.48273 -0.0501834 3.14472 8026746
2.34898 -0.0205958 2.94226 6645093
2.35343 -0.0219941 2.93373 2631720
2.35013 -0.0209473 2.94006 3881787
2.34727 -0.0200568 2.94551 2039583
2.3481 -0.0203098 2.94391 4342338
2.35273 -0.0217767 2.93508 3947580
2.35049 -0.0210676 2.93934 2039583
2.35049 -0.0210705 2.93936 2434341
2.42549 -0.0392908 2.95338 7434609
2.42295 -0.0384891 2.95825 7697781
2.42162 -0.03807 2.96078 7631988
2.42526 -0.039216 2.95381 7039851
2.4256 -0.0393249 2.95317 7566195
2.42223 -0.0382617 2.95962 7697781
2.41954 -0.0374151 2.96476 4144959
2.42219 -0.038254 2.95968 5197647
-0.0227275 0.388471 1.90135 10855845
-0.0219078 0.388219 1.89982 11184810
-0.0238466 0.388822 1.90352 12040119
-0.0153358 0.386157 1.88723 11974326
-0.0182602 0.387058 1.89279 12895428
-0.0195477 0.387467 1.89532 13948116
-0.0214634 0.388066 1.89895 12763842
-0.0186858 0.387199 1.89366 13158600
0.679613 -0.0817436 2.51369 6250335
0.680341 -0.0819408 2.51252 5000268
0.681623 -0.0822885 2.51046 7500402
0.679286 -0.0816554 2.51421 4802889
0.6825 -0.0825254 2.50906 6118749
0.678303 -0.0813877 2.51579 7697781
0.68903 -0.0842945 2.49858 4802889
0.68626 -0.0835446 2.50303 5987163
1.24992 0.156552 2.30986 8158332
1.24553 0.157947 2.31828 11447982
