VERSION .7
FIELDS x y z rgb
SIZE 4 4 4 4
TYPE F F F F
COUNT 1 1 1 1
WIDTH 1212
HEIGHT 1
VIEWPOINT 0 0 0 1 0 0 0
POINTS 1212
DATA ascii
0.90604 -0.478009 1.14721 4.53972e+06
0.905191 -0.167175 1.34404 7.36882e+06
0.919917 -0.206174 1.33829 1.15796e+07
0.966028 -0.163938 1.24669 7.76357e+06
0.565959 -0.477376 1.13978 9.60578e+06
0.639552 -0.391422 1.05361 1.38823e+07
0.938358 -0.421755 1.16362 8.4215e+06
0.510307 -0.410112 1.29071 1.05269e+07
0.285287 -0.150019 1.25436 6.97406e+06
0.927997 -0.426504 1.18309 9.60578e+06
0.514616 -0.408588 1.27972 7.17144e+06
0.263493 -0.146716 1.29626 6.11875e+06
0.630956 -0.43207 1.24242 9.14523e+06
0.753188 -0.0979152 1.70248 6.90826e+06
-0.34687 -0.251853 1.08302 1.19085e+07
0.266999 -0.156214 1.2882 6.11875e+06
0.727091 -0.434137 1.19978 6.18454e+06
0.404588 -0.478412 1.23917 1.55929e+07
0.507781 -0.358973 1.53073 8.75047e+06
0.76602 -0.0379243 1.71332 8.4873e+06
0.676128 -0.489574 1.1631 5.00027e+06
0.435869 -0.46589 1.37493 4.47392e+06
0.696173 -0.317789 1.64103 1.05927e+07
0.920357 -0.427101 1.19129 7.63199e+06
0.897471 -0.137025 1.37556 4.7371e+06
0.527754 -0.0826732 1.57246 7.76357e+06
0.843792 -0.208053 1.43048 2.23696e+06
0.866241 -0.456824 1.19209 4.21075e+06
0.392612 -0.109916 1.4944 5.5924e+06
0.883781 -0.449081 1.20388 3.88179e+06
0.931518 -0.136054 1.32108 5.85558e+06
0.954276 -0.136172 1.28613 7.10564e+06
0.864908 -0.14367 1.43595 6.64509e+06
0.490075 -0.49667 1.30553 4.60551e+06
0.336075 -0.12722 1.4616 5.78978e+06
0.697512 -0.296544 1.64676 1.29612e+07
0.946443 -0.422631 1.1482 7.5004e+06
0.972213 -0.167673 1.22773 6.97406e+06
0.482053 -0.416423 1.34435 6.90826e+06
0.313946 -0.336786 0.803595 7.10564e+06
0.85152 -0.461202 1.17931 9.93474e+06
0.423978 -0.481563 1.24726 1.59877e+07
0.746483 -0.13265 1.69563 6.97406e+06
0.744361 -0.142224 1.6929 7.36882e+06
0.995902 -0.150019 1.24779 7.89516e+06
0.742494 -0.132845 1.67112 6.90826e+06
0.75257 -0.432837 1.1366 1.22375e+07
0.741093 -0.143235 1.66971 6.84247e+06
0.769347 -0.185098 1.60341 5.39503e+06
0.352989 -0.325012 1.45404 5.46082e+06
-0.168193 -0.334401 1.07986 7.43461e+06
0.964707 -0.177534 1.233 1.03295e+07
0.755325 -0.21223 1.62881 2.89489e+06
0.735628 -0.189246 1.66493 6.05296e+06
0.764513 -0.207516 1.61198 3.02648e+06
0.913802 -0.422969 1.20745 8.61888e+06
0.872107 -0.440608 1.19464 3.61862e+06
0.881173 -0.456523 1.12511 1.10532e+07
0.698246 -0.329394 1.63874 7.10564e+06
0.827145 -0.14681 1.50184 5.6582e+06
0.933903 -0.160318 1.29796 6.05296e+06
0.961896 -0.148358 1.24353 6.31613e+06
0.393004 -0.456557 1.47017 2.96068e+06
0.734042 -0.192794 1.68147 6.90826e+06
0.943793 -0.137403 1.30794 6.64509e+06
0.731485 -0.207479 1.67747 6.31613e+06
0.874389 -0.484446 1.24693 1.01979e+07
0.4781 -0.427863 1.36556 9.07943e+06
0.823528 -0.269891 1.44495 2.69751e+06
0.962146 -0.163758 1.24244 6.11875e+06
0.429599 -0.420446 1.48843 7.5662e+06
0.698815 -0.22835 1.65144 5.46082e+06
0.939053 -0.165196 1.28156 7.30302e+06
0.776808 -0.184755 1.59277 5.26344e+06
0.422849 -0.424025 1.48528 6.44771e+06
0.739199 -0.448096 1.17577 2.76331e+06
0.37463 -0.477316 1.26135 7.03985e+06
0.897572 -0.474068 1.14626 4.34234e+06
0.758737 -0.157254 1.63656 4.34234e+06
0.692593 -0.354358 1.63456 8.81626e+06
0.710874 -0.22625 1.64899 4.47392e+06
0.654123 -0.261905 1.62495 6.64509e+06
0.671 -0.250844 1.63445 6.90826e+06
0.934098 -0.122957 1.32105 5.6582e+06
0.950953 -0.135415 1.2942 6.11875e+06
0.620781 -0.277423 1.60849 5.6582e+06
0.405512 -0.439557 1.4818 3.81599e+06
0.922303 -0.161875 1.32106 6.31613e+06
0.820304 -0.487606 1.36963 4.93448e+06
0.464393 -0.5032 1.3084 6.05296e+06
0.85287 -0.459374 1.1465 1.38823e+07
0.366846 -0.135685 1.09921 5.98716e+06
0.633521 -0.423005 1.01724 1.00005e+07
0.798531 -0.136613 1.57178 5.00027e+06
0.836736 -0.161641 1.46571 5.85558e+06
0.772775 -0.206394 1.59742 3.09227e+06
0.759951 -0.166739 1.62178 5.06606e+06
0.948982 -0.149381 1.28327 7.5662e+06
0.515081 -0.490666 1.28721 5.06606e+06
0.95072 -0.144281 1.28496 7.10564e+06
0.681581 -0.402106 1.62224 8.15833e+06
0.41464 -0.427152 1.46766 5.00027e+06
0.678997 -0.268995 1.63699 1.1448e+07
0.720648 -0.43743 1.21473 6.25034e+06
0.389047 -0.131966 1.05993 5.85558e+06
0.962244 -0.127095 1.30011 6.25034e+06
0.745429 -0.213054 1.64623 2.56593e+06
0.951333 -0.125604 1.29546 6.11875e+06
0.596101 -0.30235 1.58743 7.30302e+06
0.79388 -0.13649 1.56178 5.13185e+06
0.643824 -0.291528 1.61643 1.17112e+07
0.777369 -0.491496 1.43857 6.11875e+06
0.634111 -0.292563 1.60878 1.09216e+07
0.319332 -0.467394 1.42857 3.02648e+06
0.580909 -0.314004 1.57947 6.84247e+06
0.937671 -0.175856 1.29041 6.97406e+06
0.895878 -0.18595 1.36305 6.38192e+06
0.414618 -0.432215 1.46265 3.68441e+06
0.596488 -0.42555 1.17282 5.32923e+06
0.701587 -0.44348 1.25509 7.63199e+06
-0.223889 0.50235 0.938744 1.57245e+07
0.49327 -0.419105 1.33559 1.00005e+07
0.785296 -0.12334 1.60288 4.80289e+06
0.48458 0.0898979 1.56404 1.32244e+07
0.769515 -0.157106 1.61578 5.26344e+06
0.875547 -0.482071 1.24104 1.01979e+07
0.511154 0.0830476 1.57832 8.4873e+06
0.840487 -0.194417 1.45781 2.63172e+06
0.102178 -0.10111 1.337 1.27638e+07
0.65113 -0.430155 1.12322 3.68441e+06
0.747058 -0.212422 1.63985 1.64482e+06
0.641768 -0.291544 1.61067 1.31586e+07
0.881902 -0.143289 1.40104 5.78978e+06
-0.251278 0.48705 0.924619 1.63167e+07
0.62631 -0.491224 1.58522 1.55271e+07
-0.436067 -0.150396 0.943267 7.82937e+06
0.690035 -0.482594 1.1755 2.96068e+06
-0.47861 -0.157987 0.910677 7.63199e+06
0.656081 -0.47933 1.15668 3.55282e+06
0.631889 -0.410092 1.10597 3.61862e+06
0.575117 -0.334745 1.57442 1.29612e+07
0.875484 -0.47966 1.25811 1.10532e+07
0.589703 -0.424888 1.2129 4.80289e+06
-0.542756 -0.136136 0.852197 7.03985e+06
0.55448 -0.471943 1.54761 65793
0.872928 -0.465574 1.24216 1.3027e+07
0.790111 -0.185872 1.55897 5.06606e+06
0.945375 -0.137179 1.34369 8.75047e+06
-0.223316 0.497984 0.939822 1.58561e+07
0.536364 -0.408179 1.24455 9.21102e+06
0.41986 -0.431009 1.45346 4.27654e+06
0.88398 -0.173894 1.38319 6.71089e+06
0.866017 -0.283198 1.38673 1.01979e+07
0.674027 -0.464196 1.61301 9.60578e+06
0.941211 -0.141438 1.3645 7.89516e+06
0.880483 -0.172158 1.398 5.78978e+06
0.369668 -0.0597785 1.48681 1.34218e+07
0.453574 -0.425501 1.40372 8.28992e+06
0.798305 -0.338297 1.3542 1.97379e+06
0.720764 -0.441926 1.21573 8.81626e+06
0.686195 -0.567368 1.21371 4.07917e+06
-0.0990353 -0.294252 0.781196 9.07943e+06
0.376166 -0.134672 1.08344 5.98716e+06
-0.0555426 -0.291254 0.806103 8.75047e+06
0.606743 -0.417825 1.15143 5.32923e+06
0.166527 -0.108386 0.960932 6.5793e+06
0.904661 -0.189173 1.34959 8.68468e+06
0.702031 -0.439637 1.21521 4.14496e+06
0.952062 -0.178487 1.25613 1.01979e+07
-0.0356029 -0.221775 1.23087 5.26344e+06
0.793599 -0.216729 1.51815 2.50013e+06
0.880253 -0.140418 1.41629 6.77668e+06
0.371045 -0.0942864 1.48487 1.04611e+07
0.881381 -0.132485 1.40809 5.26344e+06
0.832751 -0.491857 1.33417 460551
0.783623 -0.485702 1.41757 6.90826e+06
0.923501 -0.148755 1.32204 6.90826e+06
0.833476 -0.194399 1.37539 1.00005e+07
0.518372 -0.490601 1.28197 5.13185e+06
-0.284022 0.465187 0.904677 1.50008e+07
0.366628 -0.471116 1.23024 1.04611e+07
-0.557137 -0.136136 0.810621 8.68468e+06
0.835114 -0.180391 1.47719 5.13185e+06
0.823206 -0.349072 1.35869 8.81626e+06
0.847797 -0.210696 1.42848 2.36855e+06
-0.560189 -0.136847 0.805591 8.22412e+06
-0.377 0.0823492 1.09177 1.21059e+07
0.889744 -0.459421 1.23846 9.60578e+06
-0.0585869 -0.295602 1.20805 5.46082e+06
0.526195 -0.407619 1.26054 8.22412e+06
-0.108821 -0.305363 0.831671 8.02675e+06
0.813847 -0.134281 1.53573 5.32923e+06
0.379311 -0.132741 1.0761 6.44771e+06
-0.00197642 -0.324891 0.896225 7.63199e+06
0.757813 -0.484176 1.45514 7.5004e+06
-0.143228 -0.282014 0.820267 6.90826e+06
-0.14139 0.455543 0.984443 8.35571e+06
0.337411 -0.141298 1.15959 5.46082e+06
-0.0365245 -0.323457 0.879742 7.76357e+06
0.829678 -0.453058 1.34988 1.25665e+07
0.149249 -0.111798 1.0057 7.76357e+06
0.848145 -0.123111 1.47531 6.97406e+06
-0.584866 -0.12889 0.779676 7.17144e+06
0.839573 -0.145676 1.48065 5.92137e+06
0.806842 -0.445698 1.38734 6.25034e+06
0.808064 -0.122987 1.5501 5.32923e+06
0.797118 -0.484885 1.38456 9.80316e+06
-0.454504 -0.171205 0.792491 8.55309e+06
0.618516 -0.480881 1.21959 2.69751e+06
-0.2535 0.493833 0.923954 1.53956e+07
0.438657 -0.431925 1.42374 4.7371e+06
0.343156 -0.475028 1.24386 4.60551e+06
-0.267092 0.465347 0.915586 1.59877e+07
0.829134 -0.133072 1.51619 6.18454e+06
0.362099 -0.473095 1.21773 1.56587e+07
-0.292578 0.477413 0.902729 1.48034e+07
-0.667667 -0.0880582 0.908076 5.92137e+06
0.790583 -0.311088 1.46625 2.56593e+06
-0.227953 0.499677 0.938222 1.59877e+07
-0.236846 0.445008 0.931273 1.51982e+07
-0.292039 0.473955 0.903751 1.50008e+07
-0.420414 -0.214183 0.895977 6.90826e+06
-0.287254 0.476022 0.904829 1.53298e+07
0.372781 -0.477782 1.22254 1.58561e+07
-0.218058 0.500444 0.943548 1.61851e+07
-0.267283 0.482698 0.915314 1.61851e+07
0.738267 -0.107624 1.68392 9.47419e+06
-0.274992 0.478009 0.911005 1.57245e+07
-0.0477913 -0.318553 0.937093 8.15833e+06
0.699973 -0.340433 1.63542 4.07917e+06
-0.300177 0.46587 0.897929 1.41455e+07
-0.106316 -0.309551 0.905119 7.76357e+06
-0.213601 0.49694 0.945982 1.63167e+07
-0.301419 0.443494 0.897696 1.47376e+07
0.689107 -0.413874 1.09829 1.58561e+07
0.126567 -0.116956 1.05334 9.21102e+06
0.848717 -0.459247 1.16653 1.65798e+07
0.693288 -0.3399 1.63778 1.06585e+07
0.0999941 -0.339949 0.837209 8.4215e+06
0.85457 -0.15726 1.50553 7.89516e+06
0.781183 -0.116145 1.69546 6.18454e+06
0.17531 -0.126433 0.927284 7.10564e+06
-0.220434 -0.261875 1.02809 9.07943e+06
0.0949434 -0.340016 0.865512 6.64509e+06
0.778391 -0.334679 1.49477 3.35544e+06
0.172508 -0.112667 0.945118 5.78978e+06
0.741578 -0.171964 1.67446 8.4215e+06
0.729396 -0.44038 1.17087 3.55282e+06
-0.149206 -0.283984 0.9154 7.89516e+06
0.833037 -0.460196 1.21963 1.56587e+07
0.754825 -0.45658 1.48889 6.77668e+06
-0.109685 -0.291162 0.786648 8.81626e+06
0.173219 -0.108185 0.957445 7.76357e+06
0.722948 -0.296846 1.65669 1.908e+06
-0.306813 -0.259345 0.818944 8.94785e+06
-0.285816 0.469168 0.905175 1.4935e+07
1.11601 -0.32161 1.40774 1.2698e+07
-0.236402 -0.280217 0.864024 8.28992e+06
0.837395 -0.179126 1.43619 4.14496e+06
-0.288918 0.422446 0.899785 1.58561e+07
-0.280123 0.428093 0.90406 1.63167e+07
-0.0356973 -0.357938 1.00576 6.44771e+06
0.49431 -0.0713841 1.54713 8.88206e+06
0.388767 -0.134148 1.07233 7.82937e+06
0.167073 -0.107813 0.96004 6.5793e+06
0.153753 -0.131881 0.95855 9.4084e+06
0.0180023 -0.133714 1.23784 5.72399e+06
-0.0540995 -0.349395 1.13922 5.26344e+06
0.714709 -0.440685 1.21455 6.25034e+06
-0.203842 -0.290564 0.910765 7.89516e+06
0.2614 -0.432215 1.3741 4.14496e+06
-0.479081 -0.160603 0.90333 8.28992e+06
0.751866 -0.306049 1.54366 2.30276e+06
0.744212 -0.0804793 1.68879 9.86895e+06
-0.64261 -0.0980546 0.923749 4.7371e+06
1.05114 -0.277402 1.43156 8.22412e+06
0.398778 -0.159759 1.11086 5.6582e+06
-0.369491 -0.237165 0.811055 7.89516e+06
-0.197148 0.423998 0.950714 1.57903e+07
-0.506185 -0.149068 0.875915 7.82937e+06
-0.187669 0.426525 0.954633 1.6514e+07
-0.197337 0.483089 0.952643 1.57245e+07
-0.426477 -0.0129629 0.698735 1.97379e+06
-0.253083 -0.27826 0.892974 9.60578e+06
0.140007 -0.13224 0.987033 9.07943e+06
0.737012 -0.13948 1.68541 8.88206e+06
0.393037 0.0887671 1.51321 986895
-0.321284 -0.270148 0.936299 8.61888e+06
-0.0102031 -0.330635 0.889713 7.96095e+06
0.801106 -0.198774 1.53572 5.06606e+06
0.836286 -0.495089 1.33224 197379
0.881486 -0.189064 1.38601 1.17112e+07
-0.123041 -0.316366 0.988271 8.09254e+06
-0.483731 -0.185751 0.748009 1.37507e+07
0.74694 -0.145145 1.67813 1.00005e+07
0.750233 -0.213707 1.64728 2.30276e+06
-0.277923 0.469113 0.908337 1.44087e+07
-0.627772 -0.0964619 0.924055 4.53972e+06
-0.293356 0.461772 0.901247 1.54614e+07
0.346199 -0.124592 1.13308 1.22375e+07
0.828904 -0.477668 1.35064 1.36849e+07
-0.555442 -0.178329 0.708854 7.96095e+06
-0.286556 0.411845 0.903497 1.48692e+07
-0.250423 0.476875 0.924334 1.62509e+07
0.551087 -0.185467 1.57417 5.46082e+06
0.741524 -0.119162 1.60886 6.5793e+06
-0.310539 0.425195 0.891256 1.56587e+07
0.91048 -0.403431 1.18131 1.25665e+07
-0.235281 0.479568 0.932532 1.6514e+07
-0.455711 -0.199156 0.761301 1.4935e+07
0.677901 -0.447094 1.61774 9.53998e+06
-0.489716 -0.175035 0.745866 1.37507e+07
0.747914 -0.117337 1.69822 6.51351e+06
0.0421586 -0.344469 0.96079 6.97406e+06
0.735164 -0.112567 1.6819 9.21102e+06
0.854339 -0.179042 1.41025 4.14496e+06
0.0734847 -0.32638 0.810489 8.68468e+06
0.708243 -0.301903 1.64745 8.4873e+06
0.193886 -0.104476 0.91872 8.02675e+06
0.543944 -0.346794 1.55219 1.41455e+07
0.0963019 -0.132514 1.33128 1.21059e+07
-0.232444 -0.287163 0.904707 9.21102e+06
-0.264877 0.456851 0.915109 1.53298e+07
0.855721 -0.452059 1.17142 1.03953e+07
0.841109 -0.454071 1.27512 921102
0.849416 -0.179022 1.43774 6.5793e+06
-0.294607 -0.171823 0.672321 1.20401e+07
0.0378322 -0.344683 0.989126 5.85558e+06
1.28011 -0.402212 1.5083 9.21102e+06
0.724192 -0.492508 1.50206 1.1119e+07
0.711984 -0.434491 1.22661 1.07901e+07
0.0529171 -0.129861 1.18348 8.15833e+06
0.141384 -0.130482 0.97849 8.61888e+06
-0.285574 0.456814 0.905425 1.4935e+07
-0.142579 -0.290929 0.823853 6.77668e+06
0.153981 -0.165456 1.36484 6.11875e+06
-0.135351 -0.292005 0.827432 6.51351e+06
0.842555 -0.46195 1.1956 1.51324e+07
0.363764 -0.133502 1.10063 7.89516e+06
-0.269309 0.476912 0.914044 1.60535e+07
-0.497696 -0.166664 0.772818 8.28992e+06
-0.32739 -0.0913388 0.75376 1.55929e+07
-0.279192 0.458436 0.908863 1.57245e+07
-0.0606476 -0.314005 0.869821 8.94785e+06
-0.431661 -0.172517 0.818637 8.09254e+06
1.10893 -0.333628 1.47902 1.00663e+07
-0.234868 -0.285597 0.86546 9.01364e+06
0.133804 -0.132798 0.997587 7.96095e+06
0.90393 -0.179496 1.40034 7.76357e+06
-0.295996 -0.261247 0.927541 8.28992e+06
0.83568 -0.258601 1.37089 9.86895e+06
0.388354 -0.154791 1.12074 4.7371e+06
0.816661 -0.482766 1.3542 1.08558e+07
-0.240052 0.486703 0.930664 1.51324e+07
-0.162709 -0.286716 0.854771 7.10564e+06
0.777949 -0.192406 1.32966 1.55271e+07
-0.43571 -0.156479 0.854452 7.82937e+06
0.850534 -0.179008 1.40933 3.7502e+06
-0.450071 -0.205785 0.764861 1.51324e+07
-0.154579 -0.292561 0.842665 7.76357e+06
0.815506 -0.188844 1.49476 6.5793e+06
0.0571455 -0.339167 0.956531 6.31613e+06
-0.0397509 -0.351513 1.13047 4.93448e+06
0.804767 -0.398121 1.34409 9.93474e+06
-0.23261 -0.284585 0.987954 9.21102e+06
0.81428 -0.387097 1.34992 9.93474e+06
-0.525347 -0.173718 0.72773 1.09216e+07
0.842656 -0.223042 1.37725 1.01321e+07
0.8469 -0.206637 1.38072 1.03295e+07
-0.163555 -0.2979 0.879811 7.43461e+06
0.465408 -0.402968 1.50857 1.22375e+07
-0.250085 0.482564 0.924726 1.60535e+07
-0.260266 -0.284666 0.888378 8.55309e+06
-0.286196 0.468846 0.905838 1.4935e+07
0.846985 -0.177538 1.52626 8.22412e+06
0.818537 -0.438506 1.37834 4.6713e+06
0.741592 -0.306014 1.47743 3.35544e+06
-0.30244 0.462519 0.897483 1.38165e+07
0.941934 -0.214209 1.59351 6.84247e+06
-0.360076 -0.0797337 0.772734 1.61851e+07
-0.301838 0.461862 0.898078 1.41455e+07
-0.0560418 -0.322246 1.02905 7.5004e+06
-0.267096 0.4769 0.913645 1.60535e+07
-0.4583 -0.176212 0.817369 8.28992e+06
0.112333 -0.136036 1.03716 8.88206e+06
0.832283 -0.202588 1.42809 3.55282e+06
-0.177948 -0.296008 0.902159 5.78978e+06
-0.370894 -0.111127 0.781744 1.29612e+07
-0.079983 -0.318785 0.956085 6.84247e+06
-0.31294 -0.206596 1.00899 1.01979e+07
0.783784 -0.236387 1.43175 3.09227e+06
0.798711 -0.367713 1.41026 3.81599e+06
-0.397347 -0.209597 0.789707 1.07243e+07
-0.378946 -0.131335 0.779327 1.50008e+07
0.323562 -0.119877 1.16166 1.26323e+07
-0.489732 -0.168507 0.763315 9.4084e+06
-0.320355 -0.257506 0.811681 9.53998e+06
-0.475003 -0.20571 0.74925 1.36849e+07
-0.279922 -0.262116 0.85857 8.09254e+06
-0.182907 -0.286435 0.886157 7.30302e+06
0.767303 -0.332602 1.48637 2.89489e+06
-0.246242 0.482247 0.926321 1.60535e+07
-0.442985 -0.202715 0.76971 1.3356e+07
0.0213912 -0.348395 0.996552 7.23723e+06
-0.328263 -0.254202 0.872133 8.35571e+06
-0.215664 -0.29443 0.878071 7.82937e+06
0.806154 -0.191133 1.51934 5.72399e+06
-0.257915 0.481707 0.916352 1.58561e+07
-0.495796 -0.167792 0.775336 8.15833e+06
0.0219938 -0.347821 1.01608 6.77668e+06
-0.276181 0.470492 0.909454 1.46718e+07
-0.54739 -0.175106 0.713448 7.43461e+06
-0.42603 -0.202356 0.776432 1.62509e+07
-0.275811 0.470746 0.909054 1.54614e+07
-0.527416 -0.178139 0.722182 1.36849e+07
-0.0542454 -0.309393 0.769573 1.01321e+07
0.769649 -0.490649 1.45111 9.53998e+06
-0.469616 -0.175901 0.759503 9.34261e+06
-0.0230486 -0.347163 1.0657 6.44771e+06
0.0788439 -0.332525 0.834289 8.68468e+06
-0.228986 0.483957 0.936438 1.59219e+07
0.795758 -0.195241 1.52736 3.48703e+06
-0.484592 -0.17572 0.748554 1.37507e+07
-0.482424 -0.174893 0.78892 8.22412e+06
-0.220027 -0.277523 0.898719 8.88206e+06
-0.110247 -0.283752 0.765809 7.30302e+06
-0.286535 0.464616 0.904129 1.57245e+07
0.0369807 -0.32243 0.829162 8.68468e+06
0.106589 -0.118172 1.0776 7.82937e+06
0.170758 -0.124967 0.93801 6.90826e+06
-0.522723 -0.170513 0.729608 1.04611e+07
-0.216197 0.348027 0.930749 1.13822e+07
0.75945 -0.491011 1.45645 1.01321e+07
-0.317313 -0.169987 0.718822 1.17769e+07
-0.243663 0.478493 0.927607 1.59877e+07
-0.148135 -0.296291 0.832987 7.36882e+06
-0.246819 0.477757 0.925572 1.62509e+07
0.131282 -0.132227 1.00222 7.63199e+06
-0.397284 -0.182119 0.805615 9.4084e+06
-0.130934 -0.280088 0.797587 6.90826e+06
-0.38896 -0.161846 0.812254 8.55309e+06
0.0788144 -0.339266 0.896708 6.5793e+06
-0.137986 -0.29844 0.959182 8.81626e+06
0.760997 -0.130943 1.68501 7.5662e+06
0.716666 -0.164536 1.66523 9.07943e+06
1.21941 -0.402605 1.47762 1.36192e+07
0.821974 -0.343555 1.35726 9.80316e+06
-0.327244 -0.165143 0.738533 1.19085e+07
0.82282 -0.481394 1.35754 8.88206e+06
0.0701456 -0.336816 0.931148 6.84247e+06
-0.274097 0.44443 0.910277 1.56587e+07
0.667928 -0.258994 1.63176 1.07243e+07
0.815041 -0.482483 1.35853 1.03953e+07
-0.201782 0.468737 0.949482 1.59219e+07
0.123137 -0.133906 1.0217 7.63199e+06
0.741809 -0.161948 1.67567 9.4084e+06
-0.523491 -0.146971 0.855492 7.63199e+06
0.723296 -0.149297 1.67049 1.03295e+07
-0.129025 -0.313598 0.983126 8.02675e+06
0.635512 -0.267499 1.61325 8.68468e+06
0.786597 -0.277442 1.50419 3.15806e+06
0.0399338 -0.130216 1.20489 7.03985e+06
-0.203601 0.431143 0.945381 1.65798e+07
-0.524613 -0.147726 0.852155 7.89516e+06
0.299842 -0.17714 1.31355 1.58561e+07
-0.454261 -0.169942 0.791474 9.21102e+06
0.0546594 -0.109816 1.15736 8.22412e+06
-0.108157 0.391083 1.01438 6.38192e+06
0.037112 -0.129751 1.19938 5.72399e+06
-0.173827 0.414456 0.962062 1.5264e+07
0.84055 -0.180213 1.43741 4.34234e+06
-0.524348 -0.14605 0.819094 7.76357e+06
0.122368 -0.117091 1.05228 6.84247e+06
0.844427 -0.456123 1.1604 197379
-0.341181 -0.255088 0.800365 8.4215e+06
-0.297044 -0.173697 0.685879 1.02637e+07
-0.255158 -0.285582 0.853195 8.02675e+06
0.730655 -0.420265 1.12284 1.43429e+07
0.85307 -0.45311 1.17414 1.13164e+07
0.526296 -0.356289 1.54315 1.29612e+07
0.834159 -0.187499 1.4552 4.93448e+06
0.472567 -0.0942494 1.5429 9.47419e+06
-0.526876 -0.183471 0.710109 1.21717e+07
0.857414 -0.398833 1.21403 1.17112e+07
0.467902 -0.0545044 1.52734 9.07943e+06
0.751809 -0.243913 1.55877 3.88179e+06
-0.222295 0.470321 0.93903 1.57903e+07
0.856201 -0.398697 1.21788 1.3356e+07
-0.196361 0.397675 0.943372 131586
-0.315765 -0.249376 1.00061 1.11848e+07
0.692181 -0.384901 1.63004 9.21102e+06
-0.0641862 -0.306424 0.792689 9.67157e+06
-0.32519 -0.245255 0.833146 7.36882e+06
0.83402 -0.458704 1.20491 1.61851e+07
0.727258 -0.174445 1.6057 5.19765e+06
0.126182 -0.147626 1.3259 6.38192e+06
-0.464444 -0.191179 0.757531 1.30928e+07
0.0573075 -0.141769 1.1502 5.72399e+06
-0.459269 -0.180994 0.765435 1.04611e+07
0.725337 -0.436897 1.16935 4.53972e+06
-0.200104 -0.294684 0.913661 8.09254e+06
0.733822 -0.436902 1.19149 8.61888e+06
0.641679 -0.50239 1.57915 1.64482e+07
0.485527 -0.157224 1.54301 8.35571e+06
-0.286797 0.410002 0.904612 1.61851e+07
-0.31955 -0.156974 0.726749 1.18427e+07
-0.490658 -0.166226 0.83491 8.81626e+06
-0.265893 0.459649 0.914699 1.61193e+07
-0.355903 -0.246693 0.840306 8.75047e+06
-0.270814 0.455942 0.912262 1.5264e+07
0.720606 -0.439519 1.21646 9.53998e+06
-0.381217 -0.239404 0.906994 8.22412e+06
0.145504 -0.129115 0.977884 7.76357e+06
0.100649 -0.120283 1.09334 7.43461e+06
0.158292 -0.111599 0.986572 7.5004e+06
0.853801 -0.45124 1.17358 9.80316e+06
0.68873 -0.399368 1.10795 1.11848e+07
-0.115182 -0.281792 0.761073 8.02675e+06
0.83374 -0.457984 1.21085 1.56587e+07
0.728172 -0.435788 1.17008 4.86868e+06
0.863346 -0.476064 1.28817 1.63167e+07
0.571307 -0.0728644 1.61081 1.05269e+07
0.145213 -0.13004 0.977791 8.09254e+06
-0.4324 -0.137548 0.939444 7.17144e+06
0.163064 -0.151823 1.34453 6.18454e+06
-0.130696 -0.293963 0.819278 6.51351e+06
0.786756 -0.197093 1.55009 4.47392e+06
-0.43267 -0.172495 0.817577 7.5004e+06
0.800636 -0.384674 1.33854 1.19743e+07
0.813128 -0.359729 1.3484 1.17769e+07
0.832107 -0.277037 1.36874 9.4084e+06
0.834003 -0.258486 1.372 8.4215e+06
0.728171 -0.409035 1.12951 1.07901e+07
0.808484 -0.38052 1.34798 9.01364e+06
0.823646 -0.324007 1.3629 7.23723e+06
0.828204 -0.269679 1.37173 5.85558e+06
0.833786 -0.23483 1.37885 4.86868e+06
0.0511512 -0.329999 0.816936 9.47419e+06
-0.155038 -0.295277 0.862701 6.11875e+06
0.833997 -0.184475 1.45387 4.40813e+06
-0.236172 0.465351 0.930905 1.66456e+07
-0.234911 0.471655 0.931416 1.55929e+07
0.58124 -0.319948 1.57506 1.3356e+07
-0.181408 -0.292793 0.887109 7.96095e+06
-0.348189 -0.25008 0.797586 8.4215e+06
-0.369083 -0.247831 0.782558 5.92137e+06
-0.334266 -0.254933 0.805586 8.55309e+06
0.164982 -0.122771 0.937662 7.69778e+06
-0.269434 0.456889 0.912573 1.53956e+07
0.767624 -0.447094 1.4535 6.25034e+06
-0.186305 -0.292005 0.894267 8.02675e+06
0.152662 -0.129684 0.962328 7.96095e+06
-0.160784 -0.194694 0.910972 7.96095e+06
-0.376591 -0.189909 0.806834 6.38192e+06
-0.364538 -0.228253 0.814505 7.17144e+06
-0.236667 0.465093 0.930943 1.54614e+07
-0.524266 -0.177626 0.723883 1.50666e+07
-0.511243 -0.19022 0.731929 1.59877e+07
0.853438 -0.25597 1.50651 3.02648e+06
0.161721 -0.109487 0.98167 9.01364e+06
0.00478075 -0.296454 1.02028 5.46082e+06
0.757609 -0.206978 1.67837 7.89516e+06
0.0883351 -0.137569 1.09219 6.18454e+06
0.0988178 -0.106873 1.07925 6.90826e+06
0.375314 -0.137745 1.09985 7.82937e+06
0.805216 -0.190245 1.50083 4.01337e+06
0.0916555 -0.118592 1.1 5.85558e+06
0.726229 -0.493823 1.50541 1.04611e+07
0.708756 -0.294957 1.64737 9.07943e+06
0.700252 -0.342908 1.63949 9.21102e+06
-0.310082 0.426738 0.891532 1.44745e+07
-0.39213 -0.175501 0.841306 8.81626e+06
0.0880083 -0.13961 1.08563 7.69778e+06
-0.213441 0.469422 0.942393 1.59877e+07
-0.278427 -0.271942 0.93616 8.02675e+06
1.03726 -0.359609 1.46666 9.86895e+06
0.701387 -0.462365 1.57848 7.36882e+06
-0.381331 -0.243326 0.88179 8.4873e+06
-0.0305042 -0.347395 1.11515 5.32923e+06
-0.367173 -0.254925 0.895364 8.4873e+06
0.674959 -0.481911 1.61681 1.37507e+07
0.0644651 -0.126449 1.166 8.55309e+06
-0.225779 0.460692 0.935656 1.55929e+07
0.885796 -0.395702 1.20649 1.13164e+07
0.705379 -0.400346 1.11636 1.26323e+07
-0.316801 -0.1228 0.85444 1.03295e+07
-0.149865 -0.252442 0.856593 7.69778e+06
0.0889808 -0.33727 0.840916 7.96095e+06
0.102161 -0.339735 0.847237 7.17144e+06
0.39385 -0.136129 1.07035 6.5793e+06
-0.107631 -0.289222 0.781489 7.63199e+06
-0.00241354 -0.335318 1.05849 5.92137e+06
0.727425 -0.435764 1.20453 9.86895e+06
-0.0305624 -0.315453 0.823823 9.01364e+06
-0.113749 -0.288203 0.790303 7.43461e+06
0.391261 -0.141568 1.09205 5.52661e+06
0.804929 -0.419593 1.263 1.61851e+07
0.158633 -0.110453 0.982769 8.35571e+06
0.368045 -0.130015 1.09376 7.5004e+06
-0.276922 0.458381 0.908951 1.53298e+07
-0.294008 0.449216 0.900049 1.61193e+07
0.867472 -0.29979 1.46519 2.56593e+06
0.833484 -0.267329 1.36918 1.01979e+07
0.81294 -0.344615 1.35144 1.03295e+07
-0.151749 -0.306001 0.92871 7.5662e+06
-0.255623 0.462657 0.921495 1.44745e+07
0.0587336 -0.231593 0.879247 8.09254e+06
0.826164 -0.474385 1.35128 1.13164e+07
0.817271 -0.480808 1.35045 1.16454e+07
-0.44249 -0.183342 0.790635 8.61888e+06
-0.241979 0.470398 0.92738 1.42771e+07
-0.287377 0.445772 0.90375 1.59877e+07
1.09734 -0.584899 1.61156 3.42124e+06
-0.386387 -0.232841 0.741863 1.58561e+07
-0.228795 -0.286984 0.907098 8.61888e+06
-0.117654 -0.390998 0.781818 7.5662e+06
-0.501896 -0.154457 0.693693 1.45403e+07
-0.123846 -0.292094 0.801899 6.5793e+06
-0.236709 0.461145 0.930385 1.53298e+07
-0.262005 0.451932 0.915543 1.56587e+07
-0.344114 -0.250376 0.85691 8.28992e+06
0.765308 -0.446011 1.4555 6.77668e+06
-0.347374 -0.251371 0.798347 7.96095e+06
-0.219219 0.466548 0.94082 1.51982e+07
0.107508 -0.157896 1.07279 8.4215e+06
-0.332418 -0.254009 0.869132 8.22412e+06
-0.275935 0.443553 0.909074 1.55929e+07
-0.311246 0.425554 0.891735 1.48034e+07
-0.396328 -0.210841 0.772628 1.54614e+07
-0.51855 -0.0509314 0.766572 8.15833e+06
0.0720093 -0.331088 0.923232 6.31613e+06
0.788482 -0.483623 1.39466 9.4084e+06
-0.555662 -0.135808 0.813264 7.43461e+06
-0.107059 -0.314997 0.999735 7.76357e+06
0.0211506 -0.215113 0.939897 6.77668e+06
0.114578 -0.136079 1.04066 6.97406e+06
-0.152624 -0.299565 0.877001 8.02675e+06
-0.127467 -0.59591 0.822375 7.30302e+06
-0.219026 -0.279965 0.90096 8.35571e+06
-0.289758 -0.238785 0.959127 1.29612e+07
0.866927 -0.317447 1.57523 3.02648e+06
-0.521586 -0.165336 0.722627 1.3356e+07
-0.504864 -0.0963461 0.798449 7.36882e+06
-0.518223 -0.174954 0.727441 1.56587e+07
-0.491231 -0.200117 0.744734 1.35534e+07
-0.168345 -0.302601 0.953271 8.61888e+06
-0.0501971 -0.271361 1.02517 6.84247e+06
0.724533 -0.348402 1.50668 3.02648e+06
-0.516993 -0.176988 0.696057 1.25665e+07
0.0207449 -0.346547 0.997804 6.05296e+06
-0.0982575 -0.318342 1.00461 8.88206e+06
-0.159307 -0.296654 0.868821 7.23723e+06
-0.432812 -0.0769528 0.790915 8.02675e+06
0.129285 -0.115458 1.03398 6.5793e+06
-0.407897 -0.213742 0.874177 5.98716e+06
-0.252693 0.437955 0.921378 1.55929e+07
-0.512723 -0.107927 0.881495 7.89516e+06
-0.110787 -0.30508 0.899004 8.02675e+06
0.653003 -0.161121 1.48493 3.02648e+06
-0.271153 -0.269181 0.862641 7.43461e+06
0.227008 -0.173032 1.39935 6.25034e+06
-0.0624349 -0.316614 0.929213 7.82937e+06
-0.481951 -0.175588 0.902064 8.75047e+06
-0.275224 -0.270398 0.939874 7.23723e+06
-0.252671 -0.266344 0.841324 9.27681e+06
-0.432725 -0.206187 0.7726 1.55271e+07
-0.0937921 -0.28686 0.754311 6.97406e+06
-0.412985 -0.208368 0.784696 1.46718e+07
0.686778 -0.430001 1.61843 5.92137e+06
-0.376499 -0.194508 0.806785 7.5004e+06
0.680481 -0.488881 1.61531 1.05269e+07
-0.119509 -0.314421 0.969256 8.09254e+06
0.815484 -0.309385 1.41902 3.88179e+06
-0.186394 -0.305152 0.99666 7.89516e+06
-0.527974 -0.146482 0.850801 7.76357e+06
-0.370716 -0.206728 0.797621 5.6582e+06
0.790378 -0.336227 1.45163 2.8291e+06
0.691131 -0.384426 1.63078 9.4084e+06
-0.187815 -0.305019 0.995489 7.43461e+06
-0.542357 -0.141669 0.825912 8.4215e+06
-0.5258 -0.17568 0.722957 1.2698e+07
0.0872699 -0.335316 0.897011 6.77668e+06
-0.209341 -0.290306 0.883176 8.35571e+06
0.041224 -0.129958 1.20687 7.23723e+06
0.742804 -0.275544 1.68452 7.89516e+06
-0.034435 -0.240747 0.977469 7.10564e+06
-0.0526439 -0.336423 1.0805 6.64509e+06
-0.515755 -0.180468 0.730293 1.35534e+07
0.802924 -0.424716 1.19448 1.48692e+07
0.227781 -0.171991 1.38592 6.5793e+06
0.0792098 -0.123268 1.132 7.36882e+06
0.168534 -0.125957 0.939163 7.82937e+06
0.932335 -0.47508 1.47792 3.94758e+06
-0.209565 -0.299529 0.965819 6.97406e+06
-0.42223 -0.232011 0.929156 7.03985e+06
0.773829 -0.197235 1.57221 3.81599e+06
-0.505469 -0.168399 0.759916 1.01321e+07
-0.422221 -0.198466 0.783623 1.01321e+07
0.00225654 -0.345135 1.02526 7.10564e+06
-0.245472 -0.24901 0.859435 8.22412e+06
-0.291514 -0.415401 0.844104 7.17144e+06
0.740777 -0.492642 1.49056 1.07901e+07
-0.219196 0.432366 0.93676 197379
0.911724 -0.515206 1.62751 4.01337e+06
0.792837 -0.43917 1.42072 4.01337e+06
-0.241302 0.469443 0.929015 1.53298e+07
0.70484 -0.498354 1.55699 1.12506e+07
0.170843 -0.125888 0.938617 7.82937e+06
-0.0823669 -0.165443 0.876143 8.15833e+06
-0.234803 0.471024 0.931715 1.57245e+07
-0.273567 0.46368 0.911194 1.48692e+07
0.859127 -0.465684 1.23923 1.39481e+07
0.0894936 -0.123802 1.12671 9.80316e+06
-0.0863757 -0.296097 0.761801 9.27681e+06
-0.454145 -0.203058 0.765525 1.40139e+07
0.868025 -0.465185 1.23514 1.23033e+07
0.176098 -0.10716 0.95415 8.28992e+06
0.742235 -0.433738 1.17827 1.00005e+07
-0.0929559 -0.288893 0.757013 8.22412e+06
-0.254928 0.463526 0.920853 1.42113e+07
-0.291861 0.455627 0.902976 1.48034e+07
-0.412293 -0.233365 0.899666 6.84247e+06
0.846147 -0.451797 1.17574 1.34876e+07
-0.00943299 -0.381605 0.80005 1.00005e+07
-0.253036 0.461213 0.922478 1.59877e+07
0.706312 -0.403885 1.11905 1.01979e+07
-0.280527 0.455926 0.907991 1.4606e+07
-0.393143 -0.239264 0.785201 1.25007e+07
-0.282365 0.449147 0.906402 1.48692e+07
0.887909 -0.459103 1.23673 1.24349e+07
-0.245104 0.469416 0.927121 1.47376e+07
0.100539 -0.12125 1.10196 8.88206e+06
0.0469842 -0.331379 0.813353 9.73736e+06
0.0335827 -0.331671 0.862048 9.21102e+06
-0.0580733 -0.293053 0.771953 9.47419e+06
0.70884 -0.435408 1.22964 9.07943e+06
0.102075 -0.33961 0.848086 7.36882e+06
-0.278088 0.454438 0.909236 1.4935e+07
0.759373 -0.295866 1.54212 3.88179e+06
-0.284026 0.450345 0.906083 1.53298e+07
0.571703 -0.323802 1.56872 1.36192e+07
0.847376 -0.244665 1.3795 1.03953e+07
0.4827 -0.392029 1.51829 1.36192e+07
0.666009 -0.444366 1.25255 5.92137e+06
-0.242258 0.462964 0.928216 1.64482e+07
0.687799 -0.442679 1.27018 1.00663e+07
0.791452 -0.360775 1.40817 3.94758e+06
-0.329595 -0.193952 0.732219 1.17112e+07
0.753793 -0.293248 1.54807 3.28965e+06
-0.541796 -0.317733 0.592077 1.2698e+07
-0.227697 0.443662 0.933195 1.53298e+07
-0.213954 0.431005 0.939822 131586
-0.258697 -0.266971 0.772662 8.94785e+06
-0.527422 -0.277835 0.614136 1.45403e+07
-0.399852 -0.1711 0.870115 7.76357e+06
-0.295164 -0.257007 0.755163 9.27681e+06
-0.134394 -0.294381 0.829644 7.30302e+06
0.696446 -0.36939 1.63395 8.02675e+06
0.809015 -0.305366 1.40701 3.55282e+06
-0.22668 0.471492 0.93652 1.50008e+07
-0.351385 -0.104813 0.759028 1.62509e+07
-0.52409 -0.249455 0.63537 1.45403e+07
-0.229996 0.469852 0.934584 1.48034e+07
0.778462 -0.443724 1.43113 7.63199e+06
-0.475541 -0.255932 0.83505 8.28992e+06
-0.0646707 -0.313812 0.930184 7.63199e+06
0.710974 -0.308344 1.64961 9.14523e+06
-0.507338 -0.173455 0.679631 1.25665e+07
-0.286916 0.443351 0.903787 1.57903e+07
-0.23635 0.461277 0.930865 1.63167e+07
-0.286196 0.442659 0.904199 1.66456e+07
0.488218 -0.380955 1.52395 1.07901e+07
-0.513717 -0.175574 0.692741 1.44745e+07
-0.226767 0.466474 0.936009 1.57245e+07
0.518619 -0.359456 1.54142 1.23033e+07
-0.22627 -0.28087 0.869314 9.4084e+06
0.611684 -0.285523 1.59361 1.17112e+07
0.751144 -0.318603 1.47975 3.35544e+06
0.627043 -0.27707 1.60281 1.18427e+07
-0.515125 -0.175559 0.694339 1.22375e+07
0.713117 -0.244213 1.65662 6.90826e+06
-0.236194 0.461684 0.930696 1.56587e+07
-0.307631 0.411312 0.892365 9.73736e+06
-0.388759 -0.168746 0.77901 1.62509e+07
0.121525 -0.116013 1.0455 7.23723e+06
-0.0129799 -0.348809 1.01219 7.43461e+06
-0.431577 -0.258653 0.891879 6.84247e+06
0.00736612 -0.347699 1.02502 5.6582e+06
-0.218386 0.465199 0.940602 1.55929e+07
-0.219403 0.468075 0.939802 1.37507e+07
0.772344 -0.48734 1.43535 1.02637e+07
-0.270957 0.445228 0.912013 1.61193e+07
-0.210859 0.354661 0.934777 1.15796e+07
-0.579422 -0.133176 0.782544 8.55309e+06
-0.399545 -0.190251 0.788187 1.48034e+07
-0.192974 0.378378 0.947245 1.21717e+07
-0.00618923 -0.342529 1.04377 6.97406e+06
-0.568088 -0.133884 0.798517 8.22412e+06
-0.415832 -0.204729 0.783491 1.36849e+07
-0.557026 -0.137512 0.809803 8.22412e+06
-0.37867 -0.239488 0.813803 8.09254e+06
-0.329152 -0.249057 0.829002 6.44771e+06
-0.181477 0.396377 0.9549 1.23033e+07
0.727576 -0.453214 1.52976 6.64509e+06
-0.46558 -0.148213 0.882638 7.96095e+06
-0.203782 0.473046 0.947912 1.35534e+07
-0.251842 0.431512 0.91912 197379
-0.496126 -0.174165 0.739403 0
-0.194421 0.453818 0.951724 1.53298e+07
-0.204269 0.470404 0.948293 1.51324e+07
-0.495636 -0.174963 0.742342 1.48034e+07
-0.640173 -0.278742 0.80266 7.89516e+06
-0.21395 0.466144 0.942989 1.58561e+07
-0.224682 0.437098 0.935022 1.60535e+07
-0.170805 0.440236 0.965726 1.63167e+07
-0.0506785 -0.347124 1.03494 8.61888e+06
-0.526653 -0.146429 0.852903 7.76357e+06
-0.205775 0.469421 0.946959 1.41455e+07
-0.368816 -0.242481 0.832461 8.22412e+06
-0.230285 0.379043 0.92846 1.61851e+07
-0.273485 0.385544 0.906609 1.38823e+07
-0.291493 -0.261367 0.883331 9.4084e+06
-0.243729 0.382898 0.921099 1.66456e+07
-0.344348 -0.24855 0.854861 8.81626e+06
-0.400874 -0.238108 0.911804 8.22412e+06
-0.279661 0.388611 0.904715 1.4606e+07
0.703134 -0.49781 1.55437 1.07243e+07
-0.214572 0.410983 0.938248 394758
-0.33052 -0.253073 0.870492 8.75047e+06
-0.415712 -0.198569 0.897193 7.03985e+06
-0.5118 -0.167702 0.749733 9.60578e+06
-0.19625 0.42554 0.950314 197379
-0.507197 -0.216367 0.755741 1.00663e+07
-0.262472 0.392912 0.912991 328965
-0.439142 -0.183743 0.798306 8.55309e+06
0.885488 -0.398486 1.20911 1.16454e+07
-0.389982 -0.244554 0.837354 7.10564e+06
0.747406 -0.419755 1.14503 1.11848e+07
-0.346771 -0.0883547 0.752295 1.6514e+07
-0.217256 -0.29479 0.954026 7.69778e+06
0.8517 -0.458645 1.19931 1.2698e+07
-0.357659 -0.244854 0.861753 6.84247e+06
0.855106 -0.393936 1.21631 1.31586e+07
-0.206223 -0.307634 0.969419 8.28992e+06
0.448623 -0.148581 1.08127 1.00005e+07
-0.450848 -0.238454 0.812137 8.61888e+06
0.952173 -0.52915 1.26527 1.26323e+07
-0.356535 -0.12549 0.761071 1.50666e+07
0.890518 -0.463784 1.24855 1.41455e+07
-0.272394 -0.270684 0.940224 8.09254e+06
-0.537136 -0.218151 0.831626 9.07943e+06
0.461036 -0.171209 1.10673 1.06585e+07
-0.467958 -0.144845 0.80043 8.75047e+06
0.856631 -0.465516 1.26316 1.57245e+07
0.677178 -0.501081 1.60662 1.16454e+07
-0.349231 -0.0822543 0.747157 1.44745e+06
-0.21124 0.461256 0.943922 1.55929e+07
0.687523 -0.410467 1.62593 9.67157e+06
-0.00218953 -0.324097 0.895389 9.07943e+06
-0.398058 -0.171283 0.869909 6.71089e+06
-0.313495 -0.254868 0.747124 8.22412e+06
-0.26677 -0.261873 0.770353 8.15833e+06
0.704733 -0.324538 1.64245 8.22412e+06
-0.314838 -0.254274 0.749204 7.76357e+06
-0.225605 -0.278791 0.88851 7.89516e+06
-0.0468078 -0.311906 0.88047 7.5662e+06
-0.510186 -0.168111 0.734415 1.3356e+07
-0.497703 -0.176195 0.741268 1.43429e+07
0.741445 -0.418587 1.14621 8.94785e+06
-0.48875 -0.176445 0.74626 1.44087e+07
-0.0997985 -0.509081 0.837146 8.4215e+06
-0.477322 -0.176428 0.752635 1.32244e+07
-0.0785201 -0.414182 0.863997 8.02675e+06
-0.364506 -0.233182 0.814794 8.15833e+06
0.546377 -0.343021 1.20035 7.76357e+06
-0.254098 -0.354267 0.874725 7.96095e+06
-0.354941 -0.126301 0.759373 1.48034e+07
-0.000494331 -0.35546 1.01619 5.6582e+06
0.665813 -0.440233 1.25989 9.93474e+06
-0.0482189 -0.32058 0.993587 6.64509e+06
0.79993 -0.389076 1.33646 1.31586e+07
0.00783589 -0.34565 1.02468 5.46082e+06
0.809685 -0.358551 1.34517 1.2698e+07
0.685126 -0.215541 1.40463 2.96068e+06
0.820413 -0.340786 1.3529 1.23033e+07
0.874154 -0.271286 1.50978 2.56593e+06
0.834432 -0.311261 1.36373 1.18427e+07
-0.469949 -0.1811 0.761638 7.82937e+06
0.844214 -0.253201 1.37568 1.08558e+07
-0.417043 -0.190861 0.791226 8.61888e+06
0.860566 -0.213349 1.38895 1.04611e+07
0.740812 -0.42129 1.14831 8.4215e+06
0.723426 -0.455249 1.53444 6.5793e+06
0.79226 -0.299591 1.4682 3.15806e+06
0.761377 -0.295541 1.54702 3.35544e+06
-0.452843 -0.182584 0.773728 8.61888e+06
0.811883 -0.383234 1.34793 1.07901e+07
-0.374483 -0.135984 0.817814 7.89516e+06
0.825863 -0.325327 1.36187 9.14523e+06
0.708526 -0.45514 1.55772 6.51351e+06
0.791177 -0.265453 1.58442 3.02648e+06
-0.258951 0.459719 0.919382 1.59877e+07
-0.312655 -0.25533 0.747813 8.02675e+06
0.818551 -0.345313 1.35574 1.01979e+07
0.833619 -0.296757 1.3692 8.55309e+06
-0.000244007 -0.326041 0.896317 7.69778e+06
0.844374 -0.240735 1.38122 7.30302e+06
-0.304472 0.417514 0.894311 1.46718e+07
-0.241281 0.461081 0.928049 1.45403e+07
-0.574895 -0.146524 0.796857 6.77668e+06
-0.503684 -0.107958 0.703361 1.00663e+07
0.862105 -0.482192 1.39795 5.46082e+06
-0.165997 -0.265757 0.878455 6.90826e+06
-0.0683652 -0.315422 0.927603 7.36882e+06
-0.241366 0.460453 0.928106 1.44087e+07
-0.0312196 -0.356156 0.944728 7.69778e+06
-0.209337 0.473586 0.945783 1.3356e+07
0.849467 -0.211311 1.43081 3.35544e+06
-0.281843 0.446057 0.90674 1.62509e+07
-0.271106 0.449895 0.912077 1.63825e+07
0.811956 -0.308193 1.40791 4.21075e+06
0.784196 -0.340465 1.49158 3.09227e+06
-0.449262 -0.143481 0.745613 1.64482e+07
-0.257435 0.452641 0.919433 1.63825e+07
0.824936 -0.383476 1.41447 3.7502e+06
0.737424 -0.452161 1.51937 4.80289e+06
-0.503846 -0.168852 0.762077 9.21102e+06
-0.483542 -0.0532958 0.807831 7.63199e+06
0.768943 -0.329631 1.49208 3.42124e+06
-0.146232 -0.295083 0.896595 7.17144e+06
-0.27902 -0.25993 0.89579 8.75047e+06
0.94393 -0.417404 1.48177 3.35544e+06
-0.203475 0.447186 0.947065 0
-0.187052 0.438076 0.955408 1.65798e+07
0.916218 -0.455322 1.46949 3.81599e+06
-0.109242 -0.315275 0.998054 7.63199e+06
-0.258143 -0.268418 0.773941 8.4215e+06
-0.0473817 -0.344596 1.0345 7.5004e+06
-0.415242 -0.202476 0.782384 1.56587e+07
-0.278719 0.463118 0.909441 1.40797e+07
-0.385192 -0.426518 0.928536 8.02675e+06
-0.508514 -0.174261 0.683237 1.42113e+07
0.100803 0.277306 1.04913 1.47376e+07
-0.213867 0.461265 0.942225 1.61193e+07
-0.226446 0.477452 0.937211 1.50666e+07
-0.509949 -0.174712 0.68463 1.37507e+07
-0.413273 -0.236039 0.896304 7.10564e+06
-0.547722 -0.171046 0.701838 8.35571e+06
0.834978 -0.293271 1.36734 1.1119e+07
-0.410164 -0.168217 0.892442 6.64509e+06
-0.225066 0.476081 0.937722 1.37507e+07
-0.379128 -0.240125 0.814144 7.30302e+06
-0.412174 -0.23406 0.89853 7.89516e+06
-0.196505 0.449049 0.950528 1.51982e+07
-0.514706 -0.176151 0.693012 1.32244e+07
-0.270878 -0.262354 0.863599 8.22412e+06
-0.395387 -0.250772 0.74674 1.55271e+07
-0.278281 0.47441 0.911922 1.44087e+07
-0.142162 -0.270797 0.938321 7.76357e+06
-0.574351 -0.147394 0.797457 7.69778e+06
-0.25767 -0.260395 0.775283 8.4873e+06
-0.206002 -0.303287 0.980074 8.35571e+06
-0.0598734 -0.314145 0.870179 8.15833e+06
-0.240964 0.486397 0.930688 1.38823e+07
-0.253418 -0.279922 0.890792 8.88206e+06
-0.199698 -0.34093 0.912141 8.81626e+06
-0.0182403 0.345857 1.06372 7.03985e+06
-0.490466 -0.230144 0.815769 8.15833e+06
-0.116472 -0.207097 0.90869 8.81626e+06
0.790677 -0.387756 1.33623 1.15138e+07
-0.204139 0.455334 0.947413 1.55929e+07
-0.217728 0.423457 0.937078 1.64482e+07
-0.254406 -0.278612 0.891294 8.22412e+06
0.68087 -0.50038 1.61177 1.15138e+07
-0.479646 -0.246531 0.777935 8.4215e+06
0.812359 -0.371774 1.40942 4.07917e+06
-0.231734 0.481898 0.934839 1.32902e+07
-0.19449 0.376335 0.945045 9.80316e+06
-0.42241 -0.164214 0.810922 7.89516e+06
0.689215 -0.399126 1.628 9.01364e+06
0.744023 -0.419398 1.14558 1.00663e+07
-0.290086 0.415981 0.900409 1.59219e+07
0.756788 -0.447957 1.47027 6.84247e+06
-0.480459 -0.16597 0.637846 1.35534e+07
-0.314834 -0.188196 0.708333 1.25665e+07
-0.207025 -0.295389 0.941365 6.84247e+06
-0.509989 -0.197858 0.61919 1.13822e+07
-0.402897 -0.794867 0.541689 1.63825e+07
-0.511044 -0.17196 0.73362 1.28954e+07
1.15666 -0.726502 1.31859 1.34876e+07
0.677698 -0.161924 1.36861 3.68441e+06
-0.106917 -0.314989 1.00152 7.23723e+06
-0.24732 0.488191 0.927517 1.36192e+07
-0.402875 -0.18154 0.838031 8.22412e+06
-0.335536 -0.267633 0.677931 1.56587e+07
-0.400532 -0.239235 0.857811 8.09254e+06
0.854554 -0.459209 1.18937 1.18427e+07
0.778228 -0.248604 1.51695 3.15806e+06
-0.307359 -0.175981 0.763897 9.01364e+06
0.251348 -0.263899 0.956514 8.61888e+06
-0.234522 0.481452 0.933461 1.25007e+07
-0.334719 -0.223121 0.72692 1.25665e+07
-0.205684 0.391304 0.942823 131586
1.02612 -0.591522 1.25292 8.22412e+06
0.462838 -0.200003 1.07983 6.71089e+06
-0.407582 -0.366424 0.692843 789516
-0.376679 -0.481663 0.811604 9.53998e+06
-0.347281 -0.22077 0.754337 9.4084e+06
1.09449 -0.654285 1.29171 1.03295e+07
-0.183639 0.44186 0.95768 1.57245e+07
-0.324433 -0.190855 0.723863 1.13822e+07
-0.464377 -0.227868 0.698978 723723
-0.515744 -0.141929 0.685649 1.03953e+07
0.105896 -0.411454 0.898434 7.17144e+06
0.772892 -0.251505 1.51329 2.50013e+06
-0.244524 0.477788 0.927308 1.42771e+07
-0.243454 0.488675 0.929336 1.22375e+07
-0.410659 -0.397578 0.68323 65793
1.3785 -0.968761 1.64848 7.5004e+06
-0.275123 0.470292 0.911712 1.43429e+07
0.460494 -0.120228 1.14531 0
-0.275035 0.470027 0.911775 1.43429e+07
-0.307314 -0.181722 0.761551 9.21102e+06
-0.12209 -0.305265 0.894319 8.81626e+06
-0.383876 -0.254016 0.719751 1.61851e+07
-0.283647 -0.256952 0.762058 9.34261e+06
-0.245109 0.487848 0.928104 1.39481e+07
-0.23455 0.481409 0.933496 1.34218e+07
-0.517577 -0.147309 0.684292 1.00663e+07
-0.237338 0.481869 0.931074 1.44745e+07
-0.222551 0.48299 0.939151 1.28954e+07
-0.220785 0.469845 0.939122 1.55929e+07
-0.243717 0.475709 0.928074 1.44745e+07
-0.513651 -0.175878 0.68911 1.23691e+07
-0.25883 0.409707 0.915064 1.67772e+07
-0.350039 -0.162516 0.780179 8.61888e+06
-0.240868 0.419982 0.924724 460551
-0.241304 0.475754 0.929682 1.4606e+07
0.818014 -0.336663 1.35478 1.02637e+07
-0.221326 0.482269 0.939997 1.34876e+07
-0.209586 0.472312 0.945433 1.47376e+07
0.798659 -0.386297 1.34408 8.4215e+06
-0.181738 0.440687 0.958978 65793
-0.469925 -0.204122 0.721941 1.63825e+07
-0.242591 0.47637 0.928633 1.54614e+07
-0.459465 -0.180532 0.731837 1.66456e+07
-0.212965 0.439164 0.941858 394758
-0.337241 -0.173026 0.807257 9.47419e+06
-0.196171 0.448768 0.950569 1.67772e+07
-0.326577 -0.386191 0.827052 7.10564e+06
-0.394296 -0.250809 0.746262 1.5264e+07
-0.243525 0.475806 0.928096 1.51982e+07
0.786211 -0.179284 1.39984 3.35544e+06
-0.263817 0.467028 0.916808 1.48034e+07
-0.228923 -0.228151 0.870445 7.82937e+06
0.0544645 -0.264246 0.841572 8.88206e+06
0.82158 -0.312523 1.41863 3.55282e+06
-0.0954874 -0.311527 0.910414 7.89516e+06
0.131687 -0.408815 0.846217 6.90826e+06
-0.258395 0.481892 0.920915 1.36849e+07
-0.278094 0.432254 0.906832 1.63825e+07
0.885574 -0.576638 1.44855 9.93474e+06
-0.274473 0.43272 0.908969 855309
-0.197918 0.454927 0.950954 1.61193e+07
-0.199951 0.459036 0.948481 1.57245e+07
-0.23625 0.476611 0.932042 1.58561e+07
-0.239529 0.475371 0.930418 1.56587e+07
0.123249 -0.117004 1.04551 7.23723e+06
-0.0835981 -0.287896 0.785482 9.73736e+06
-0.22963 0.474749 0.936155 1.36849e+07
-0.484235 -0.134855 0.638011 1.10532e+07
-0.267116 0.466019 0.915006 1.57903e+07
-0.332447 -0.250442 0.681057 1.5264e+07
-0.230323 0.463479 0.93379 1.67772e+07
-0.264822 0.443793 0.915422 1.57245e+07
-0.26052 0.444999 0.91778 328965
-0.250277 0.451673 0.92237 1.18427e+06
-0.277794 0.460619 0.909792 1.65798e+07
-0.278873 0.44702 0.908052 1.63825e+07
-0.123943 -0.208092 0.796066 7.82937e+06
-0.228502 0.433852 0.93278 592137
-0.291043 0.441242 0.90198 1.57903e+07
0.614655 -0.305948 1.12415 8.68468e+06
-0.209411 -0.254191 0.750372 8.4873e+06
-0.484185 -0.16696 0.64226 1.3027e+07
-0.485882 -0.177896 0.75081 1.07243e+07
-0.219023 0.466372 0.939544 1.59877e+07
-0.464805 -0.184635 0.761677 1.04611e+07
-0.0648656 -0.150711 0.844192 9.14523e+06
-0.260386 0.452485 0.917467 1.5264e+07
-0.403577 -0.478081 0.786042 7.82937e+06
-0.305544 0.412058 0.893012 1.17112e+07
-0.263068 0.462152 0.917215 1.64482e+07
0.0141602 -0.433812 1.0245 6.18454e+06
-0.229244 0.347703 0.928635 1.64482e+07
-0.487873 -0.116147 0.767127 9.07943e+06
-0.294873 0.433062 0.901015 1.63167e+07
0.0255636 -0.420577 1.03874 6.05296e+06
-0.198001 0.457219 0.951079 1.4935e+07
0.1411 -0.477649 0.880394 7.76357e+06
-0.235999 -0.269084 0.903378 8.61888e+06
-0.275783 0.449311 0.90989 1.66456e+07
-0.257004 0.481093 0.921365 1.3356e+07
-0.220268 0.468832 0.939039 1.56587e+07
-0.308927 -0.335164 0.873341 1.02637e+07
-0.221927 0.474118 0.938988 1.4935e+07
-0.333041 -0.22591 0.722189 1.27638e+07
-0.297881 -0.219354 0.895974 9.4084e+06
-0.502735 -0.164332 0.656185 1.13164e+07
-0.261491 0.478629 0.919356 1.45403e+07
-0.326827 -0.158531 0.749076 8.4873e+06
-0.432925 -0.0919224 0.829484 9.07943e+06
-0.209371 0.473571 0.94559 1.38165e+07
-0.239775 0.466885 0.929253 1.57903e+07
-0.471471 -0.158752 0.626529 1.25665e+07
-0.332286 -0.164253 0.749904 1.13822e+07
-0.395886 -0.164184 0.863741 7.17144e+06
0.0704806 0.0114582 0.976361 7.5004e+06
-0.65791 -0.285596 0.727642 8.4873e+06
-0.213353 0.473098 0.943615 1.5264e+07
-0.28077 -0.25211 0.763076 8.4873e+06
-0.452731 -0.162061 0.734748 1.67772e+07
-0.522984 -0.176996 0.699625 1.09216e+07
-0.0968363 -0.391271 0.830576 8.22412e+06
-0.353254 -0.151325 0.788926 7.5662e+06
-0.389018 -0.28445 0.707309 65793
-0.163991 -0.28041 0.874016 6.31613e+06
-0.261467 -0.264682 0.773173 9.01364e+06
-0.545748 -0.209808 0.648795 9.4084e+06
-0.409181 -0.224212 0.873069 5.39503e+06
-0.267426 0.475118 0.915332 1.48692e+07
0.0349398 -0.346729 0.976765 5.5924e+06
-0.555525 -0.0897181 0.792982 8.61888e+06
-0.507677 -0.17434 0.679334 1.2698e+07
0.0431922 -0.530863 0.973813 7.10564e+06
-0.378964 -0.217172 0.739928 1.50008e+07
0.8051 -0.439488 1.37456 5.85558e+06
-0.272599 0.471491 0.913149 1.41455e+07
-0.525831 -0.181139 0.71126 1.25007e+07
0.0579413 -0.33691 0.945132 6.38192e+06
-0.479177 -0.211639 0.733348 1.63167e+07
-0.404947 -0.240755 0.769845 1.57903e+07
0.441489 -0.221189 1.1522 6.18454e+06
-0.448795 -0.16712 0.718434 0
-0.325109 -0.195223 0.814452 9.4084e+06
-0.511514 -0.179304 0.687596 1.59877e+07
-0.249071 -0.271771 0.848584 9.53998e+06
-0.348037 -0.183689 0.769363 9.07943e+06
-0.379966 -0.199451 0.788189 1.12506e+07
0.194564 -0.251949 1.03427 8.09254e+06
0.212447 -0.000786304 1.10941 1.13822e+07
-0.13249 -0.289765 0.868919 7.89516e+06
0.910929 -0.587072 1.43407 9.53998e+06
-0.561518 -0.219948 0.666673 9.47419e+06
-0.540801 -0.124919 0.713545 9.53998e+06
0.784921 -0.291008 1.34284 1.02637e+07
-0.271227 -0.108671 0.855321 7.76357e+06
0.818506 -0.216865 1.36779 9.86895e+06
-0.454883 -0.0947821 0.802168 9.01364e+06
0.201789 -0.307658 1.09081 7.5662e+06
0.115028 -0.118181 1.06212 6.71089e+06
-0.145757 -0.273861 0.974357 7.89516e+06
-0.363345 -0.241547 0.857809 7.10564e+06
-0.499369 -0.184886 0.738702 1.45403e+07
-0.444964 -0.182588 0.767419 1.62509e+07
-0.442047 -0.198754 0.768192 1.60535e+07
0.524821 -0.23105 1.13304 1.3356e+07
-0.508752 -0.172625 0.738939 1.11848e+07
-0.518806 -0.0518821 0.772209 7.36882e+06
-0.455728 -0.169983 0.767049 1.09216e+07
-0.397591 -0.174022 0.842631 8.09254e+06
-0.443423 -0.193958 0.772602 1.13164e+07
-0.215757 -0.357267 0.955344 8.02675e+06
1.105 -0.520902 1.69088 3.15806e+06
-0.329999 -0.351364 0.826302 7.17144e+06
0.809445 -0.22625 1.52045 2.50013e+06
-0.306735 -0.258028 0.84227 6.90826e+06
-0.450062 -0.160542 0.727888 1.62509e+07
0.0804245 -0.064135 1.0544 7.10564e+06
-0.231694 -0.243074 0.951308 8.22412e+06
0.165164 0.0460334 1.1035 1.26323e+07
-0.103367 -0.403054 0.810018 8.4873e+06
0.170223 0.0356047 1.11037 1.21059e+07
-0.392341 -0.198542 0.862456 7.23723e+06
-0.230213 -0.392602 0.891327 9.07943e+06
-0.382888 -0.428832 0.880497 8.61888e+06
-0.119149 -0.369043 0.951073 7.63199e+06
-0.220431 0.344409 0.928799 1.09216e+07
0.983238 -0.7533 1.66613 1.03953e+07
-0.206122 -0.371368 0.908133 8.75047e+06
-0.335964 -0.331432 0.907918 9.67157e+06
0.932447 -0.4562 1.51443 3.35544e+06
-0.268091 -0.230464 0.772361 8.81626e+06
-0.268277 -0.0956763 0.882834 8.28992e+06
-0.335039 -0.194855 0.747142 8.22412e+06
-0.474247 -0.220386 0.775722 8.22412e+06
-0.385428 -0.243956 0.877609 8.81626e+06
-0.368171 -0.216576 0.832776 7.03985e+06
0.0255388 -0.511522 0.881118 8.02675e+06
-0.3859 -0.216432 0.825925 6.64509e+06
-0.209875 0.353535 0.935529 1.24349e+07
-0.206552 0.362635 0.936775 9.14523e+06
0.76334 -0.28062 1.44477 3.02648e+06
1.68335 -1.1625 2.09994 3.48703e+06
-0.46673 -0.0817427 0.785059 8.68468e+06
-0.252679 -0.266208 0.841486 1.01979e+07
0.961516 -0.336403 1.56082 3.35544e+06
-0.209697 0.3492 0.936635 1.48692e+07
-0.207518 0.355242 0.937425 1.37507e+07
0.194833 -0.00714672 1.14745 1.00663e+07
-0.206372 0.35899 0.937799 1.18427e+07
-0.46127 -0.0846027 0.794276 9.14523e+06
