VERSION .7
FIELDS x y z rgb
SIZE 4 4 4 4
TYPE F F F F
COUNT 1 1 1 1
WIDTH 1367
HEIGHT 1
VIEWPOINT 0 0 0 1 0 0 0
POINTS 1367
DATA ascii
0.859049 -0.30321 1.3882 2829099
0.859018 -0.302653 1.38801 1710618
0.858947 -0.301325 1.38756 1381653
0.419204 -0.0979218 1.51099 7237230
0.41924 -0.0983904 1.51116 3289650
0.419157 -0.0973243 1.51078 4737096
0.419201 -0.0979017 1.51099 4079166
0.419155 -0.0973206 1.51078 8355711
0.419197 -0.0978426 1.51097 9539985
0.418876 -0.0938072 1.50953 7631988
0.419 -0.0953658 1.51008 12171705
0.841263 -0.19063 1.44875 1315860
0.841492 -0.194884 1.4502 921102
0.841239 -0.190208 1.4486 2960685
0.841371 -0.192604 1.44942 1315860
0.841231 -0.190057 1.44855 1579032
0.841357 -0.192427 1.44936 3750201
0.841459 -0.194242 1.44998 986895
0.841397 -0.193115 1.44959 2302755
0.0949084 -0.15272 1.31215 6381921
0.0945727 -0.148478 1.31064 6184542
0.0945969 -0.148813 1.31076 5987163
0.0946417 -0.149326 1.31095 6052956
0.0947318 -0.150497 1.31136 5395026
0.0948509 -0.151984 1.31189 4802889
0.0948843 -0.152411 1.31204 4671303
0.0948305 -0.151718 1.3118 3092271
0.533501 -0.484993 1.24686 3947580
0.533446 -0.484007 1.24653 8289918
0.53335 -0.482234 1.24593 2500134
0.533292 -0.48114 1.24555 8355711
0.533375 -0.482642 1.24606 3618615
0.533243 -0.480219 1.24524 2565927
0.533509 -0.485208 1.24694 7895160
0.533287 -0.481088 1.24554 4342338
0.582371 -0.0720636 1.61217 3815994
0.582564 -0.074528 1.61305 5197647
0.582381 -0.072174 1.61221 3881787
0.58267 -0.0757981 1.6135 5592405
0.582464 -0.0733304 1.61262 5131854
0.582384 -0.072222 1.61223 3815994
0.582366 -0.0719998 1.61215 5658198
0.582522 -0.0739359 1.61284 5395026
0.834844 -0.297924 1.38887 1381653
0.834544 -0.292358 1.38698 2302755
0.834821 -0.297362 1.38867 1973790
0.834851 -0.297992 1.38889 1184274
0.83469 -0.295111 1.38792 1842204
0.834738 -0.295699 1.38812 1973790
0.834692 -0.295056 1.38789 1250067
0.834671 -0.294747 1.38779 1184274
0.906166 -0.479546 1.14776 5395026
0.906145 -0.479304 1.14767 5066061
0.906189 -0.479771 1.14783 4079166
0.905834 -0.475443 1.14629 3947580
0.906018 -0.477646 1.14708 3487029
0.90611 -0.478812 1.1475 2829099
0.906294 -0.48129 1.14838 3487029
0.905901 -0.476262 1.14659 3289650
0.905134 -0.166133 1.34368 5921370
0.905156 -0.166542 1.34382 5658198
0.905222 -0.167694 1.34422 7105644
0.90528 -0.168802 1.34459 5000268
0.905209 -0.167576 1.34417 6118749
0.90518 -0.166941 1.34396 6447714
0.905088 -0.165264 1.34339 4934475
0.905239 -0.168021 1.34432 6118749
0.920065 -0.208879 1.33921 11316396
0.919839 -0.204718 1.33779 11250603
0.919896 -0.205797 1.33816 9868950
0.91986 -0.205113 1.33792 11447982
0.919873 -0.205353 1.33801 10658466
0.919919 -0.206208 1.3383 9079434
0.919989 -0.207473 1.33873 11250603
0.919864 -0.205198 1.33795 11053224
0.966077 -0.164574 1.24691 6974058
0.966084 -0.164583 1.24693 8026746
0.965954 -0.162886 1.24632 6579300
0.965879 -0.162082 1.24603 6842472
0.965918 -0.162584 1.24621 7039851
0.966167 -0.165734 1.24733 6513507
0.966082 -0.164673 1.24695 7960953
0.966219 -0.166318 1.24754 7434609
0.565958 -0.477351 1.13978 8224125
0.565905 -0.476345 1.13943 11053224
0.565811 -0.47461 1.13884 6447714
0.566136 -0.480649 1.1409 13619151
0.566141 -0.480711 1.14092 8224125
0.565773 -0.473979 1.13863 5263440
0.565851 -0.475423 1.13912 11184810
0.565863 -0.475615 1.13918 8092539
0.639505 -0.39082 1.0534 14145495
0.639728 -0.39362 1.05439 10790052
0.639328 -0.388592 1.0526 16777215
0.639808 -0.394648 1.05476 8618883
0.639441 -0.390006 1.05311 13816530
0.639394 -0.389451 1.05291 16777215
0.639631 -0.392421 1.05397 9671571
0.639435 -0.389944 1.05309 12763842
0.938334 -0.421325 1.16348 6908265
0.9382 -0.418831 1.16263 5855577
0.938389 -0.422347 1.16382 10132122
0.938468 -0.423785 1.16431 5329233
0.938391 -0.422376 1.16383 7303023
0.938289 -0.420495 1.16319 12105912
0.93821 -0.419046 1.1627 6118749
0.938248 -0.419701 1.16292 7697781
0.508763 -0.412923 1.29105 8355711
0.510593 -0.409588 1.29065 5723991
0.510791 -0.40923 1.2906 13224393
0.511397 -0.408125 1.29047 4605510
0.511177 -0.408526 1.29052 10329501
0.508561 -0.413293 1.2911 13750737
0.511599 -0.407756 1.29043 7105644
0.509436 -0.411697 1.2909 12105912
0.285702 -0.149263 1.25428 6447714
0.286008 -0.148706 1.25421 7105644
0.284714 -0.151066 1.25449 4737096
0.285816 -0.149049 1.25424 7171437
0.285916 -0.148875 1.25422 5987163
0.284048 -0.152279 1.25464 4868682
0.285077 -0.150402 1.25442 6974058
0.284733 -0.151022 1.25448 5658198
0.928154 -0.428494 1.1838 7631988
0.928086 -0.427612 1.18349 3947580
0.928105 -0.427857 1.18357 12369084
0.927729 -0.42307 1.18188 3026478
0.928208 -0.429151 1.18403 8092539
0.927893 -0.425204 1.18263 14277081
0.927888 -0.425177 1.18262 4737096
0.927867 -0.424886 1.18252 8882055
0.514583 -0.407965 1.27951 6250335
0.514772 -0.411472 1.2807 3487029
0.514454 -0.405614 1.27871 11184810
0.514804 -0.412104 1.28092 3355443
0.51451 -0.406691 1.27907 5987163
0.5145 -0.406407 1.27898 11382189
0.514506 -0.406524 1.27902 3487029
0.514494 -0.40627 1.27893 5658198
0.263534 -0.147198 1.29643 5263440
0.263512 -0.147024 1.29636 6052956
0.263467 -0.146085 1.29604 4276545
0.263587 -0.148328 1.29681 6184542
0.26351 -0.147012 1.29637 5592405
0.263492 -0.146674 1.29624 4539717
0.263517 -0.147205 1.29641 5987163
0.263599 -0.148609 1.29691 5658198
0.631049 -0.433799 1.24301 3552822
0.63088 -0.430683 1.24195 4605510
0.630853 -0.430187 1.24178 5066061
0.630771 -0.428635 1.24125 5526612
0.630853 -0.430181 1.24177 7631988
0.631077 -0.434309 1.24318 9605778
0.631037 -0.433607 1.24294 11579568
0.63115 -0.435661 1.24364 11842740
0.753173 -0.0976762 1.7024 8092539
0.753156 -0.097311 1.70227 6316128
0.753051 -0.0953909 1.70162 8158332
0.753129 -0.0968298 1.70211 4079166
0.753254 -0.0991456 1.7029 5723991
0.75315 -0.0972063 1.70224 7960953
0.753216 -0.0984306 1.70266 4013373
0.753078 -0.0958609 1.70178 3815994
-0.345831 -0.24997 1.08279 16579836
-0.347679 -0.253327 1.0832 11119017
-0.345114 -0.248653 1.08263 16777215
-0.346936 -0.251966 1.08303 6974058
-0.348583 -0.254979 1.0834 11250603
-0.3461 -0.250448 1.08285 13290186
-0.347746 -0.253448 1.08321 7039851
-0.346716 -0.251571 1.08299 7039851
0.267099 -0.158065 1.28883 5329233
0.266887 -0.154134 1.28749 5921370
0.266955 -0.155429 1.28793 4210752
0.266992 -0.156093 1.28816 6052956
0.267005 -0.156365 1.28825 5526612
0.267105 -0.158194 1.28887 4276545
0.266973 -0.155742 1.28804 5921370
0.266944 -0.155183 1.28785 5789784
0.72699 -0.432302 1.19916 4737096
0.727143 -0.435095 1.20011 1710618
0.727012 -0.432683 1.19929 11842740
0.727084 -0.433992 1.19973 1644825
0.727069 -0.433749 1.19965 4539717
0.726902 -0.430642 1.19859 12632256
0.727082 -0.433987 1.19973 1644825
0.727248 -0.437005 1.20076 4802889
0.404547 -0.477672 1.23892 16316664
0.404601 -0.47861 1.23924 15658734
0.404468 -0.476221 1.23843 13027014
0.404439 -0.475573 1.23821 16382457
0.404749 -0.481411 1.24019 12763842
0.404706 -0.480668 1.23994 12434877
0.404492 -0.476563 1.23854 12303291
0.404458 -0.476028 1.23836 9868950
0.50777 -0.358752 1.53066 10000536
0.507734 -0.358129 1.53045 8947848
0.50786 -0.360413 1.53122 9803157
0.507713 -0.357717 1.53031 6513507
0.507871 -0.360623 1.5313 6776679
0.507732 -0.358082 1.53043 7368816
0.5079 -0.361161 1.53148 4408131
0.507833 -0.359937 1.53106 4539717
0.765981 -0.0374835 1.71316 9868950
0.765863 -0.0358147 1.71257 7895160
0.76584 -0.035705 1.71252 9868950
0.766227 -0.0404757 1.71422 5131854
0.76582 -0.035452 1.71244 7500402
0.766016 -0.0379276 1.71331 9868950
0.765902 -0.0363991 1.71277 5000268
0.76593 -0.036809 1.71293 4934475
0.675984 -0.486833 1.16216 4276545
0.676137 -0.489756 1.16316 4605510
0.676238 -0.491688 1.16382 3487029
0.676162 -0.490176 1.16331 4539717
0.676136 -0.489829 1.16318 4079166
0.676028 -0.487777 1.16248 3092271
0.676119 -0.489446 1.16305 3289650
0.676307 -0.49284 1.16421 1579032
0.435993 -0.468142 1.3757 2631720
0.435951 -0.467386 1.37545 6710886
0.435682 -0.462416 1.37375 1907997
0.435949 -0.467352 1.37543 4013373
0.435863 -0.465823 1.37491 3026478
0.435789 -0.464405 1.37443 3026478
0.436024 -0.468783 1.37592 6645093
0.436064 -0.469507 1.37617 3487029
0.696253 -0.319246 1.64152 4408131
0.696199 -0.318267 1.64119 10987431
0.696088 -0.316234 1.6405 5658198
0.696141 -0.317193 1.64083 12632256
0.696351 -0.321083 1.64215 11513775
0.696009 -0.314725 1.63999 6579300
0.695992 -0.31445 1.63989 12763842
0.696118 -0.316786 1.64069 12895428
0.920184 -0.424905 1.19051 5066061
0.920145 -0.424469 1.19036 4276545
0.920247 -0.425727 1.1908 9408399
0.920221 -0.425359 1.19067 4408131
0.920451 -0.428285 1.19171 5855577
0.920391 -0.427467 1.19143 13948116
0.920395 -0.427662 1.19149 4671303
0.920534 -0.429313 1.19208 6710886
0.897356 -0.1349 1.37484 4342338
0.897433 -0.136305 1.37531 4737096
0.897432 -0.136383 1.37534 3421236
0.897499 -0.137554 1.37574 4605510
0.897503 -0.137599 1.37576 3815994
0.897565 -0.138782 1.37616 3026478
0.897481 -0.137232 1.37563 4144959
0.897447 -0.136541 1.3754 3289650
0.527773 -0.0829126 1.57254 2565927
0.527798 -0.0832034 1.57264 6316128
0.527578 -0.0804617 1.57167 4342338
0.527554 -0.0801749 1.57157 9737364
0.527929 -0.0848758 1.57324 6118749
0.52795 -0.0851398 1.57333 5131854
0.527967 -0.0853505 1.57341 9737364
0.5278 -0.0832392 1.57266 10592673
0.8438 -0.208182 1.43053 1644825
0.843727 -0.206826 1.43007 3487029
0.843644 -0.205302 1.42955 1052688
0.843782 -0.207854 1.43042 3552822
0.843756 -0.207333 1.43024 1644825
0.843656 -0.205597 1.42964 1381653
0.843896 -0.209969 1.43114 1842204
0.84382 -0.208562 1.43066 986895
0.866131 -0.454835 1.19141 2302755
0.866099 -0.454244 1.19121 2763306
0.866386 -0.459477 1.19299 2565927
0.866394 -0.459676 1.19306 4210752
0.86632 -0.458292 1.19259 4013373
0.866219 -0.456326 1.19191 3881787
0.86631 -0.458126 1.19253 4737096
0.866348 -0.458828 1.19277 5197647
0.392734 -0.111433 1.49494 2236962
0.392421 -0.107524 1.49355 6316128
0.392562 -0.109269 1.49417 1842204
0.392571 -0.109404 1.49422 8684676
0.39278 -0.112029 1.49515 3881787
0.392789 -0.112129 1.49519 1842204
0.392741 -0.11153 1.49497 7631988
0.392589 -0.109624 1.4943 2500134
0.883786 -0.449212 1.20392 1776411
0.883933 -0.451986 1.20487 2105376
0.883774 -0.448938 1.20383 2763306
0.883755 -0.448541 1.2037 3618615
0.883923 -0.451678 1.20476 3684408
0.883771 -0.448918 1.20382 4079166
0.883592 -0.445636 1.20271 3158064
0.883733 -0.448163 1.20357 4144959
0.931588 -0.137332 1.32151 5460819
0.931403 -0.133926 1.32036 5987163
0.931606 -0.137692 1.32164 4473924
0.931426 -0.134334 1.32049 5723991
0.93142 -0.134291 1.32048 5329233
0.931561 -0.136879 1.32136 4210752
0.931577 -0.137157 1.32145 6052956
0.931483 -0.135397 1.32086 4934475
0.954358 -0.137689 1.28665 6513507
0.954299 -0.136589 1.28627 7368816
0.954212 -0.134993 1.28573 5592405
0.954281 -0.136272 1.28617 6908265
0.954156 -0.13392 1.28536 6579300
0.954385 -0.138174 1.28681 4868682
0.954223 -0.135196 1.2858 6447714
0.954354 -0.137624 1.28663 5460819
0.865043 -0.146131 1.43678 6447714
0.864954 -0.144557 1.43625 5789784
0.86483 -0.142168 1.43543 5460819
0.865012 -0.145611 1.43661 5460819
0.864936 -0.144136 1.4361 5131854
0.864771 -0.141156 1.43509 4276545
0.864858 -0.142717 1.43562 5658198
0.864794 -0.141623 1.43525 4934475
0.490246 -0.499943 1.30664 3487029
0.490199 -0.499034 1.30634 2960685
0.490089 -0.496942 1.30562 4802889
0.490193 -0.498776 1.30624 3947580
0.489977 -0.49489 1.30492 3487029
0.490107 -0.497194 1.30571 5066061
0.489927 -0.493818 1.30456 2697513
0.489881 -0.493033 1.30429 3487029
0.336126 -0.12787 1.46184 2565927
0.336275 -0.129767 1.46251 1973790
0.335942 -0.125545 1.46101 5987163
0.336178 -0.128575 1.46208 1776411
0.336138 -0.128031 1.46189 4868682
0.336246 -0.129404 1.46238 7303023
0.335916 -0.125207 1.46089 3618615
0.336067 -0.127092 1.46156 6908265
0.697511 -0.296556 1.64677 9605778
0.697462 -0.295595 1.64644 12303291
0.697707 -0.300149 1.64799 10395294
0.697519 -0.296711 1.64682 13224393
0.697433 -0.295055 1.64626 12763842
0.69743 -0.295021 1.64624 11316396
0.697447 -0.295324 1.64635 13158600
0.697423 -0.294856 1.64619 13355979
0.946616 -0.425835 1.1493 6184542
0.946461 -0.422934 1.14831 5000268
0.946308 -0.420121 1.14735 8553090
0.946459 -0.422977 1.14832 3092271
0.946465 -0.423055 1.14835 6184542
0.946425 -0.42233 1.1481 11842740
0.946502 -0.423723 1.14858 4802889
0.946433 -0.422445 1.14814 6776679
0.972149 -0.16649 1.22733 6645093
0.972132 -0.166183 1.22722 6381921
0.972144 -0.166412 1.2273 5395026
0.972219 -0.16782 1.22778 6118749
0.972279 -0.168913 1.22815 5987163
0.972179 -0.167089 1.22753 5658198
0.972232 -0.168019 1.22785 6184542
0.97218 -0.167095 1.22754 5395026
0.482002 -0.415405 1.34401 6645093
0.482148 -0.418286 1.34499 2829099
0.481907 -0.41377 1.34345 10329501
0.481863 -0.412876 1.34314 2829099
0.482122 -0.41765 1.34477 6250335
0.481956 -0.414642 1.34375 10724259
0.482049 -0.41635 1.34433 2763306
0.481925 -0.414013 1.34353 5921370
0.313978 -0.337376 0.803799 3881787
0.313948 -0.336724 0.803578 7895160
0.313996 -0.337698 0.803902 3684408
0.314046 -0.338768 0.804272 9474192
0.31401 -0.338095 0.804038 4605510
0.313832 -0.334541 0.802836 4210752
0.313866 -0.335308 0.803097 8816262
0.314005 -0.337905 0.803977 6316128
0.851547 -0.461706 1.17949 9013641
0.851449 -0.459924 1.17888 12566463
0.851438 -0.45963 1.17878 4605510
0.851372 -0.458467 1.17838 13027014
0.851635 -0.463295 1.18003 8684676
0.851697 -0.464476 1.18043 3158064
0.851562 -0.46196 1.17957 12566463
0.851337 -0.457795 1.17816 9079434
0.423825 -0.478797 1.24632 16777215
0.424114 -0.484148 1.24813 16316664
0.424002 -0.482084 1.24744 15987699
0.424142 -0.484528 1.24827 15329769
0.423863 -0.479444 1.24654 14803425
0.423835 -0.478842 1.24633 15527148
0.423884 -0.479836 1.24667 12698049
0.424013 -0.482174 1.24747 11513775
0.746608 -0.134979 1.69642 8092539
0.746451 -0.13211 1.69545 6316128
0.746512 -0.133207 1.69582 8092539
0.746502 -0.133028 1.69576 4079166
0.746534 -0.133617 1.69596 5658198
0.746348 -0.130207 1.6948 8092539
0.746558 -0.134028 1.6961 4013373
0.746415 -0.131412 1.69521 4013373
0.744385 -0.142653 1.69304 8289918
0.744334 -0.14179 1.69275 6381921
0.744266 -0.140493 1.69231 8355711
0.744314 -0.141323 1.69259 4079166
0.744346 -0.141937 1.6928 5855577
0.744327 -0.14161 1.69269 8158332
0.74423 -0.139757 1.69206 4013373
0.744208 -0.139363 1.69192 3947580
0.995956 -0.151078 1.24815 5921370
0.995871 -0.149417 1.24759 5460819
0.995818 -0.148358 1.24723 6118749
0.995901 -0.150053 1.2478 5131854
0.995855 -0.149151 1.24749 5789784
0.995975 -0.151214 1.24819 5263440
0.995911 -0.150234 1.24787 5460819
0.995889 -0.149787 1.24772 6645093
0.742524 -0.133387 1.6713 4210752
0.742372 -0.130608 1.67036 5395026
0.742446 -0.131933 1.67081 4210752
0.742592 -0.134665 1.67174 7829367
0.742415 -0.131425 1.67064 5658198
0.742529 -0.133512 1.67135 4276545
0.742461 -0.132232 1.67091 8289918
0.742383 -0.130822 1.67043 8355711
0.752392 -0.429537 1.13548 13948116
0.752753 -0.436224 1.13776 14013909
0.752654 -0.434331 1.13711 13684944
0.752641 -0.434137 1.13705 13487565
0.75241 -0.429887 1.1356 13421772
0.752554 -0.432491 1.13649 12632256
0.752748 -0.436143 1.13773 7829367
0.752624 -0.433846 1.13695 1710618
0.741212 -0.145459 1.67047 4210752
0.740994 -0.141391 1.66908 5197647
0.741249 -0.146152 1.6707 4210752
0.74104 -0.142228 1.66937 8026746
0.741122 -0.143731 1.66988 5789784
0.740958 -0.140765 1.66887 4210752
0.741046 -0.142347 1.66941 7960953
0.741031 -0.142104 1.66932 8224125
0.769337 -0.184818 1.60331 4737096
0.769347 -0.185091 1.60341 4802889
0.769448 -0.187019 1.60406 3552822
0.769434 -0.186748 1.60397 4868682
0.769268 -0.183584 1.60289 4539717
0.769302 -0.184254 1.60312 3684408
0.769258 -0.183407 1.60283 5592405
0.769455 -0.1872 1.60412 5000268
0.352976 -0.324851 1.45399 4408131
0.35301 -0.325452 1.45419 4671303
0.353046 -0.326077 1.4544 3881787
0.353075 -0.326566 1.45457 4934475
0.352874 -0.322863 1.45331 4473924
0.352824 -0.322007 1.45302 4079166
0.353133 -0.327584 1.45492 4868682
0.352878 -0.323022 1.45336 4539717
-0.166062 -0.330469 1.07938 6776679
-0.168666 -0.335241 1.07996 6447714
-0.170002 -0.33777 1.08029 6447714
-0.166405 -0.331101 1.07947 5592405
-0.166059 -0.330542 1.07939 6316128
-0.169915 -0.337568 1.08025 6579300
-0.169412 -0.33665 1.08011 5066061
-0.170219 -0.338037 1.08029 5526612
0.96459 -0.175346 1.23225 10197915
0.964775 -0.178797 1.23343 10987431
0.964642 -0.176327 1.23259 7566195
0.964745 -0.178225 1.23323 11382189
0.964798 -0.179196 1.23356 9474192
0.964735 -0.17805 1.23317 6513507
0.964827 -0.179744 1.23375 10790052
0.964651 -0.176504 1.23265 8750469
0.755188 -0.209686 1.62795 1118481
0.755416 -0.213924 1.62939 855309
0.75517 -0.209418 1.62785 2565927
0.755274 -0.211301 1.6285 1118481
0.755193 -0.209822 1.62799 1447446
0.75525 -0.210845 1.62834 3223857
0.755219 -0.210305 1.62816 855309
0.755358 -0.212879 1.62904 1973790
0.735744 -0.191455 1.66568 4408131
0.735751 -0.19151 1.6657 4408131
0.73557 -0.188187 1.66457 4210752
0.735468 -0.18628 1.66392 7500402
0.735766 -0.191845 1.66581 4802889
0.735529 -0.187449 1.66431 4144959
0.735537 -0.187567 1.66436 7960953
0.735782 -0.192111 1.6659 8158332
0.76462 -0.209502 1.61266 2631720
0.764385 -0.205146 1.61118 1315860
0.764365 -0.204792 1.61106 3223857
0.764639 -0.20981 1.61276 855309
0.764683 -0.210646 1.61305 2894892
0.764627 -0.209613 1.6127 3487029
0.764611 -0.209341 1.6126 1513239
0.76436 -0.204673 1.61101 2960685
0.913837 -0.423595 1.20766 8026746
0.913628 -0.41971 1.20634 5921370
0.913877 -0.424335 1.20791 11184810
0.913774 -0.422432 1.20726 4276545
0.913858 -0.424028 1.20781 8355711
0.913856 -0.423966 1.20779 12369084
0.913886 -0.424511 1.20797 5987163
0.9139 -0.42477 1.20806 8684676
0.872077 -0.439907 1.1944 1907997
0.872212 -0.442622 1.19532 1973790
0.871956 -0.437764 1.19367 1907997
0.872123 -0.440812 1.19471 2565927
0.87193 -0.43744 1.19355 2302755
0.872029 -0.439215 1.19416 2368548
0.871957 -0.437923 1.19372 3947580
0.872273 -0.443593 1.19566 3815994
0.881043 -0.454129 1.12429 9934743
0.881158 -0.45625 1.12501 13158600
0.881343 -0.459698 1.12619 5592405
0.88101 -0.453495 1.12408 13619151
0.88124 -0.457794 1.12554 9671571
0.881046 -0.454202 1.12432 3750201
0.880991 -0.453164 1.12396 13092807
0.881168 -0.456458 1.12509 9211020
0.698165 -0.327903 1.63823 1644825
0.698084 -0.326393 1.63771 5000268
0.698185 -0.328289 1.63836 1842204
0.698164 -0.327862 1.63822 11250603
0.698422 -0.332656 1.63985 6316128
0.6981 -0.326695 1.63782 1907997
0.698183 -0.328246 1.63834 11776947
0.698254 -0.329549 1.63879 11908533
0.827055 -0.145101 1.50125 5000268
0.82701 -0.144305 1.50098 5987163
0.827273 -0.14923 1.50266 4210752
0.827241 -0.148624 1.50245 5329233
0.827197 -0.14778 1.50217 4868682
0.827198 -0.147685 1.50214 4079166
0.827167 -0.147276 1.50199 5526612
0.827023 -0.144537 1.50106 4671303
0.933885 -0.160018 1.29785 5526612
0.933957 -0.161276 1.29829 5855577
0.93393 -0.160863 1.29815 4737096
0.933902 -0.160326 1.29796 5658198
0.933766 -0.157843 1.29712 5263440
0.933965 -0.161506 1.29836 5066061
0.93388 -0.159891 1.29781 5789784
0.933816 -0.158668 1.2974 4868682
0.961822 -0.146961 1.24305 5395026
0.96186 -0.147685 1.2433 5658198
0.961825 -0.147166 1.24312 6776679
0.961994 -0.150131 1.24414 5329233
0.961905 -0.148512 1.24359 5789784
0.961838 -0.147315 1.24318 7105644
0.961862 -0.147747 1.24332 5395026
0.961978 -0.149929 1.24406 5723991
0.392951 -0.455584 1.46984 1315860
0.393102 -0.458348 1.47078 2105376
0.392844 -0.453598 1.46916 1381653
0.392923 -0.455045 1.46965 2894892
0.393164 -0.459487 1.47117 2368548
0.392996 -0.456391 1.47011 1842204
0.393149 -0.459229 1.47108 3158064
0.392809 -0.452941 1.46894 3487029
0.734048 -0.192911 1.68151 8158332
0.73414 -0.194572 1.68208 6645093
0.734174 -0.19525 1.68231 8158332
0.733935 -0.190854 1.68081 4079166
0.734022 -0.192404 1.68134 6052956
0.734032 -0.192599 1.68141 8158332
0.733964 -0.191376 1.68099 4079166
0.73417 -0.195216 1.6823 3947580
0.943707 -0.13579 1.3074 4737096
0.943894 -0.139259 1.30858 5658198
0.943762 -0.13683 1.30775 4276545
0.943705 -0.135795 1.3074 6250335
0.943825 -0.138015 1.30815 4737096
0.943869 -0.138809 1.30842 4013373
0.943749 -0.136595 1.30767 5658198
0.943873 -0.138978 1.30848 4671303
0.731356 -0.2052 1.6767 7171437
0.731508 -0.207977 1.67764 6645093
0.731557 -0.208835 1.67794 7566195
0.73155 -0.208674 1.67788 3684408
0.731611 -0.209785 1.67826 6447714
0.731339 -0.20472 1.67654 7895160
0.731494 -0.207598 1.67752 3815994
0.73139 -0.205733 1.67688 3881787
0.874515 -0.486794 1.24773 9342606
0.874451 -0.48562 1.24733 10066329
0.874411 -0.484793 1.24704 8684676
0.874456 -0.485734 1.24737 10592673
0.87423 -0.481546 1.24594 9934743
0.87434 -0.483479 1.24661 10066329
0.87448 -0.486127 1.2475 10461087
0.874447 -0.485602 1.24732 10461087
0.477961 -0.425281 1.36468 10329501
0.478139 -0.428595 1.36581 5658198
0.478234 -0.430436 1.36644 10855845
0.47814 -0.428562 1.3658 4210752
0.477927 -0.424632 1.36446 10329501
0.477947 -0.425043 1.3646 10790052
0.478087 -0.427655 1.36549 5395026
0.477989 -0.425849 1.36487 10329501
0.823361 -0.266758 1.44389 1447446
0.823651 -0.272148 1.44573 1381653
0.823486 -0.269212 1.44472 1381653
0.823571 -0.270785 1.44526 1118481
0.823576 -0.270831 1.44527 1644825
0.823606 -0.271333 1.44545 921102
0.823519 -0.269691 1.44488 3421236
0.823632 -0.271794 1.4456 3618615
0.962093 -0.162798 1.24212 4408131
0.962061 -0.162196 1.24191 4539717
0.962141 -0.163662 1.24241 5526612
0.962056 -0.162092 1.24187 4868682
0.962083 -0.162568 1.24204 5263440
0.962275 -0.166164 1.24326 5723991
0.962118 -0.163213 1.24226 4934475
0.962031 -0.161602 1.24171 6184542
0.429662 -0.421599 1.48882 10658466
0.42978 -0.4238 1.48957 8224125
0.429691 -0.422139 1.489 9276813
0.429716 -0.422605 1.48916 5131854
0.429519 -0.418955 1.48792 5658198
0.429571 -0.41992 1.48825 7039851
0.429567 -0.419866 1.48823 3947580
0.429583 -0.420157 1.48833 4144959
0.698649 -0.225242 1.65038 5658198
0.698735 -0.226825 1.65092 5263440
0.698656 -0.225415 1.65043 5131854
0.698671 -0.225691 1.65053 3750201
0.698776 -0.227639 1.65119 4210752
0.698826 -0.228539 1.6515 4802889
0.698753 -0.227217 1.65105 3684408
0.69878 -0.227712 1.65122 4013373
0.939024 -0.164605 1.28136 5789784
0.939114 -0.1663 1.28194 5592405
0.938932 -0.162931 1.28079 7039851
0.938928 -0.162854 1.28076 5921370
0.939039 -0.164938 1.28147 6052956
0.939056 -0.165253 1.28158 7368816
0.939139 -0.166801 1.28211 5131854
0.939119 -0.166432 1.28198 5987163
0.776869 -0.185892 1.59316 4737096
0.776742 -0.183566 1.59236 5066061
0.776943 -0.187202 1.5936 4013373
0.776947 -0.187429 1.59368 4868682
0.776747 -0.183555 1.59236 4934475
0.776745 -0.183489 1.59234 3750201
0.776971 -0.187752 1.59379 5658198
0.776954 -0.187484 1.5937 4342338
0.422732 -0.421865 1.48454 8553090
0.422939 -0.425682 1.48584 6184542
0.422945 -0.425803 1.48588 8224125
0.422862 -0.424267 1.48536 3881787
0.4227 -0.421258 1.48434 5131854
0.422704 -0.421324 1.48436 5658198
0.423058 -0.427874 1.48659 3552822
0.422713 -0.421496 1.48442 4408131
0.739169 -0.447545 1.17558 1973790
0.739022 -0.444866 1.17467 1776411
0.739109 -0.446471 1.17522 3026478
0.739323 -0.450365 1.17654 1776411
0.739231 -0.448665 1.17596 2171169
0.739236 -0.448834 1.17602 4539717
0.739091 -0.446078 1.17509 2171169
0.73938 -0.451402 1.17689 2171169
0.374556 -0.475997 1.26091 5460819
0.37453 -0.475522 1.26074 3552822
0.374829 -0.480994 1.26261 5855577
0.374742 -0.479381 1.26206 6250335
0.374739 -0.479383 1.26206 6513507
0.374758 -0.479664 1.26215 5329233
0.37464 -0.477486 1.26141 6118749
0.374613 -0.477027 1.26125 8289918
0.897418 -0.471208 1.14528 3815994
0.897543 -0.473524 1.14607 3750201
0.897535 -0.473348 1.14601 3355443
0.897535 -0.47345 1.14604 4868682
0.89766 -0.475684 1.14681 2894892
0.897532 -0.473309 1.146 2763306
0.89752 -0.473081 1.14592 4013373
0.897749 -0.477337 1.14737 3289650
0.758613 -0.154944 1.63577 3881787
0.758605 -0.154853 1.63574 4473924
0.758729 -0.157086 1.6365 3026478
0.758658 -0.155803 1.63606 4671303
0.758657 -0.155763 1.63605 3684408
0.758729 -0.15705 1.63649 3026478
0.758715 -0.156844 1.63642 3947580
0.758792 -0.158273 1.6369 3223857
0.6926 -0.354482 1.63461 1842204
0.692681 -0.355944 1.6351 6842472
0.692588 -0.35426 1.63453 2105376
0.692424 -0.351218 1.63349 11776947
0.692513 -0.352863 1.63405 7895160
0.69268 -0.355961 1.63511 2302755
0.692407 -0.350907 1.63339 11908533
0.69265 -0.355386 1.63491 12237498
0.711039 -0.229346 1.65004 1315860
0.710712 -0.223227 1.64796 2500134
0.71084 -0.22563 1.64878 1052688
0.710959 -0.227853 1.64954 4802889
0.710999 -0.228578 1.64978 3092271
0.711029 -0.229079 1.64995 1184274
0.710766 -0.224302 1.64833 5395026
0.711042 -0.229333 1.65004 5131854
0.654068 -0.260917 1.62461 6908265
0.654163 -0.262639 1.6252 6184542
0.654078 -0.261112 1.62468 6381921
0.653964 -0.25899 1.62395 4605510
0.65394 -0.258526 1.6238 5526612
0.654214 -0.263618 1.62553 6250335
0.653944 -0.258586 1.62382 4079166
0.653981 -0.259279 1.62405 4342338
0.671128 -0.253184 1.63525 6710886
0.670994 -0.250747 1.63442 5855577
0.67095 -0.249969 1.63416 6250335
0.670853 -0.248102 1.63352 4934475
0.671166 -0.253897 1.63549 5855577
0.671111 -0.252883 1.63515 5987163
0.671097 -0.252646 1.63506 3881787
0.670988 -0.250623 1.63438 4144959
0.934098 -0.122986 1.32106 4802889
0.934037 -0.121805 1.32066 4144959
0.934116 -0.123249 1.32115 5723991
0.93418 -0.124424 1.32155 4079166
0.934214 -0.125114 1.32179 5197647
0.934129 -0.123506 1.32124 5329233
0.934083 -0.122705 1.32097 4276545
0.934208 -0.124969 1.32174 5395026
0.950993 -0.136167 1.29446 5658198
0.951044 -0.137077 1.29477 6250335
0.950996 -0.13623 1.29448 4473924
0.950956 -0.135471 1.29422 6645093
0.951024 -0.13674 1.29465 5000268
0.951049 -0.137195 1.29481 4605510
0.950946 -0.135316 1.29417 5658198
0.950858 -0.133697 1.29361 4408131
0.620771 -0.277316 1.60845 5000268
0.620914 -0.27993 1.60935 4210752
0.620673 -0.275413 1.60781 3947580
0.620776 -0.277351 1.60847 4539717
0.620822 -0.278209 1.60876 4671303
0.620676 -0.275509 1.60784 4539717
0.620821 -0.278148 1.60874 4934475
0.620765 -0.277145 1.6084 4802889
0.4056 -0.441208 1.48237 1381653
0.405716 -0.443324 1.48309 2829099
0.405536 -0.439988 1.48195 2236962
0.405581 -0.440823 1.48224 3487029
0.405631 -0.441754 1.48255 3223857
0.405435 -0.438138 1.48132 3421236
0.405353 -0.436605 1.4808 3684408
0.405419 -0.437842 1.48122 4013373
0.922326 -0.162251 1.32119 5855577
0.922352 -0.162832 1.32139 6645093
0.922192 -0.159843 1.32037 4671303
0.922314 -0.162053 1.32112 6447714
0.922249 -0.160902 1.32073 5460819
0.922317 -0.162094 1.32113 4342338
0.922292 -0.1617 1.321 6579300
0.922429 -0.164226 1.32186 4737096
0.820259 -0.486744 1.36934 2500134
0.820142 -0.484626 1.36862 5658198
0.820293 -0.487427 1.36957 1710618
0.820161 -0.484941 1.36873 8224125
0.82009 -0.483614 1.36827 2763306
0.820506 -0.491368 1.37091 2368548
0.820218 -0.486059 1.3691 5395026
0.820301 -0.487599 1.36963 2894892
0.464532 -0.505761 1.30927 5395026
0.464401 -0.503367 1.30846 4605510
0.464603 -0.507107 1.30973 3092271
0.464364 -0.502674 1.30822 6052956
0.464496 -0.505148 1.30906 4539717
0.464433 -0.503949 1.30865 2631720
0.464565 -0.50635 1.30947 8158332
0.464374 -0.502817 1.30827 10066329
0.852901 -0.459876 1.14667 13355979
0.852848 -0.459002 1.14637 13487565
0.85272 -0.456557 1.14554 13158600
0.852806 -0.458262 1.14612 13553358
0.852974 -0.461328 1.14717 13224393
0.852768 -0.457482 1.14586 13092807
0.852922 -0.460319 1.14682 13355979
0.85281 -0.458242 1.14611 13092807
0.366932 -0.137314 1.09976 5658198
0.366892 -0.136548 1.0995 5789784
0.366922 -0.137126 1.0997 3815994
0.366791 -0.134683 1.09887 5789784
0.366798 -0.134813 1.09891 5592405
0.366813 -0.135095 1.09901 3881787
0.366786 -0.134554 1.09883 5526612
0.36688 -0.136314 1.09943 5460819
0.633525 -0.422888 1.01721 8092539
0.63359 -0.424157 1.01763 6908265
0.633637 -0.425188 1.01798 9605778
0.633524 -0.422987 1.01723 8355711
0.633559 -0.423887 1.01754 7566195
0.633397 -0.420796 1.01648 8224125
0.633688 -0.426174 1.01831 6974058
0.633508 -0.422737 1.01715 7105644
0.798586 -0.137581 1.57211 5066061
0.798675 -0.139303 1.5727 5000268
0.798651 -0.138793 1.57252 3750201
0.798507 -0.13616 1.57163 4276545
0.798557 -0.137048 1.57193 4079166
0.798616 -0.138205 1.57232 3355443
0.798641 -0.138667 1.57248 4605510
0.798427 -0.134659 1.57112 4408131
0.836655 -0.160196 1.46522 5131854
0.836878 -0.164276 1.46661 4079166
0.836736 -0.161612 1.4657 6184542
0.83659 -0.158936 1.46479 4276545
0.836652 -0.16012 1.4652 5197647
0.836626 -0.159591 1.46501 5592405
0.83669 -0.160815 1.46543 4276545
0.836635 -0.159732 1.46506 4802889
0.772894 -0.208603 1.59817 2960685
0.772682 -0.204688 1.59684 1447446
0.772739 -0.205682 1.59718 3487029
0.772647 -0.204023 1.59661 855309
0.772801 -0.206852 1.59757 3158064
0.772805 -0.206953 1.59761 3223857
0.772874 -0.208201 1.59804 1776411
0.772625 -0.203602 1.59647 3158064
0.759875 -0.165365 1.62131 3881787
0.759993 -0.167516 1.62204 4276545
0.759972 -0.167051 1.62188 5263440
0.760081 -0.169176 1.6226 3947580
0.76004 -0.168434 1.62235 4408131
0.759968 -0.167029 1.62187 5000268
0.75991 -0.16594 1.6215 4079166
0.75994 -0.16649 1.62169 4737096
0.948992 -0.149543 1.28333 6842472
0.948922 -0.148221 1.28288 7237230
0.949081 -0.151195 1.28389 5723991
0.948882 -0.147513 1.28264 7237230
0.948864 -0.147195 1.28253 6447714
0.94905 -0.150572 1.28368 5526612
0.94892 -0.148225 1.28288 7303023
0.948927 -0.14833 1.28291 6250335
0.515179 -0.492465 1.28782 4144959
0.515192 -0.492663 1.2879 5658198
0.514989 -0.488994 1.28665 3684408
0.515274 -0.494199 1.28842 4802889
0.515243 -0.49364 1.28823 4013373
0.515136 -0.491729 1.28757 3618615
0.514913 -0.487547 1.28615 5658198
0.515179 -0.492484 1.28783 3947580
0.950814 -0.146018 1.28555 6184542
0.950716 -0.144226 1.28494 5460819
0.95081 -0.145971 1.28554 6513507
0.950704 -0.143979 1.28486 5658198
0.950607 -0.142266 1.28427 6447714
0.950756 -0.144961 1.28519 6710886
0.950721 -0.144243 1.28495 5658198
0.950681 -0.143554 1.28471 6776679
0.681479 -0.40025 1.6216 1973790
0.68138 -0.398389 1.62097 6908265
0.681475 -0.40011 1.62156 2105376
0.681386 -0.398485 1.62101 11776947
0.68162 -0.402864 1.6225 8224125
0.681638 -0.403099 1.62258 2302755
0.681587 -0.402226 1.62228 12040119
0.681417 -0.399058 1.6212 12237498
0.4148 -0.430109 1.46867 6184542
0.414595 -0.426309 1.46737 2039583
0.414531 -0.425123 1.46697 8882055
0.414821 -0.430466 1.46879 1513239
0.414489 -0.424346 1.4667 5131854
0.41464 -0.427143 1.46766 7368816
0.414519 -0.424891 1.46689 1381653
0.414795 -0.430008 1.46863 2236962
0.678905 -0.267285 1.63641 13290186
0.678996 -0.268962 1.63698 11908533
0.679116 -0.271213 1.63775 12171705
0.678859 -0.26645 1.63613 9342606
0.678856 -0.266431 1.63612 10132122
0.679155 -0.271921 1.63799 11053224
0.679134 -0.271534 1.63786 6776679
0.679183 -0.272432 1.63816 6447714
0.720613 -0.436779 1.21451 5000268
0.720734 -0.439012 1.21526 2236962
0.720623 -0.436936 1.21456 11776947
0.720644 -0.437339 1.2147 2039583
0.720594 -0.436437 1.21439 5131854
0.720813 -0.44048 1.21577 12500670
0.720779 -0.439842 1.21555 2302755
0.720703 -0.438398 1.21506 5592405
0.389141 -0.133673 1.06051 4342338
0.388966 -0.130472 1.05942 5855577
0.389084 -0.132662 1.06017 3881787
0.389058 -0.132188 1.06001 6118749
0.38909 -0.132739 1.0602 5000268
0.388987 -0.130893 1.05956 4144959
0.389085 -0.132649 1.06017 5855577
0.389065 -0.132306 1.06005 5592405
0.962267 -0.127547 1.30026 5066061
0.962354 -0.129082 1.30079 6052956
0.962247 -0.127188 1.30014 4408131
0.962302 -0.128192 1.30048 6250335
0.962223 -0.126743 1.29999 5197647
0.9623 -0.128162 1.30047 4342338
0.962269 -0.127577 1.30027 6447714
0.962287 -0.127928 1.30039 5131854
0.745332 -0.211266 1.64562 1118481
0.745402 -0.212552 1.64606 789516
0.745534 -0.21508 1.64691 2500134
0.745375 -0.212114 1.64591 1052688
0.745376 -0.21204 1.64588 1250067
0.745493 -0.214206 1.64662 2631720
0.745374 -0.21208 1.6459 789516
0.745519 -0.214696 1.64679 1776411
0.951307 -0.125129 1.2953 5395026
0.951405 -0.126906 1.29591 4605510
0.951268 -0.124402 1.29505 6250335
0.951397 -0.126805 1.29587 4408131
0.951385 -0.126552 1.29578 5395026
0.951227 -0.123638 1.29479 6447714
0.951306 -0.125113 1.2953 4539717
0.951375 -0.126404 1.29573 5526612
0.595973 -0.299991 1.58662 8224125
0.595943 -0.299418 1.58643 7500402
0.596 -0.300468 1.58678 7960953
0.596246 -0.305018 1.58834 6184542
0.59602 -0.300869 1.58692 6579300
0.596261 -0.305321 1.58844 6381921
0.59609 -0.302144 1.58736 3947580
0.596248 -0.305082 1.58836 4079166
0.793986 -0.138401 1.56243 4473924
0.794026 -0.139195 1.5627 3421236
0.793916 -0.137163 1.56201 5395026
0.793816 -0.135229 1.56135 3552822
0.793944 -0.1377 1.56219 4342338
0.793803 -0.134976 1.56127 5066061
0.794013 -0.13897 1.56262 3487029
0.794014 -0.138935 1.56262 4276545
0.643881 -0.292575 1.61678 14079702
0.643925 -0.293382 1.61706 12698049
0.643747 -0.290103 1.61594 12763842
0.644013 -0.295006 1.61761 9868950
0.643802 -0.291102 1.61628 10592673
0.64388 -0.292577 1.61678 11250603
0.643917 -0.29326 1.61702 7631988
0.643954 -0.293913 1.61724 7697781
0.777336 -0.490897 1.43836 4802889
0.777591 -0.495603 1.43996 7237230
0.777413 -0.492314 1.43884 3158064
0.777201 -0.488398 1.43751 7960953
0.777166 -0.487779 1.4373 4342338
0.777593 -0.495647 1.43998 3421236
0.777509 -0.494089 1.43945 7237230
0.777242 -0.489183 1.43778 4079166
0.633949 -0.289566 1.60776 13684944
0.633935 -0.289316 1.60768 12237498
0.633959 -0.289771 1.60783 12566463
0.634059 -0.291613 1.60846 8750469
0.634287 -0.295812 1.60989 9539985
0.634139 -0.293093 1.60896 10263708
0.634016 -0.290816 1.60819 7763574
0.634226 -0.29473 1.60952 7631988
0.31936 -0.46792 1.42875 1513239
0.319494 -0.470379 1.42959 1710618
0.319153 -0.464034 1.42743 1907997
0.31924 -0.465686 1.42799 1907997
0.319162 -0.464207 1.42749 2302755
0.31913 -0.463635 1.42729 2697513
0.319216 -0.465237 1.42784 2565927
0.31944 -0.46937 1.42925 3026478
0.581022 -0.316075 1.58018 8421504
0.580921 -0.314203 1.57954 7697781
0.581002 -0.315713 1.58006 8421504
0.580805 -0.312077 1.57882 6250335
0.580784 -0.311691 1.57869 6710886
0.580904 -0.313891 1.57944 6908265
0.580742 -0.310914 1.57842 4210752
0.58095 -0.314755 1.57973 4144959
0.937664 -0.175702 1.29036 7105644
0.937714 -0.176689 1.29069 6316128
0.937736 -0.177073 1.29082 5987163
0.937677 -0.176011 1.29046 6250335
0.937716 -0.17664 1.29068 6118749
0.937686 -0.176089 1.29049 4802889
0.937743 -0.177163 1.29086 5723991
0.937736 -0.177023 1.29081 4934475
0.895902 -0.186412 1.36321 5592405
0.895983 -0.187899 1.36371 6710886
0.895759 -0.183766 1.36231 4210752
0.895889 -0.1862 1.36313 8816262
0.895859 -0.185608 1.36293 4868682
0.895834 -0.185128 1.36277 3684408
0.895835 -0.185159 1.36278 5658198
0.895733 -0.183268 1.36214 4737096
0.414499 -0.43005 1.46191 1973790
0.41459 -0.431682 1.46246 1381653
0.414528 -0.430564 1.46208 6184542
0.414543 -0.430829 1.46217 1118481
0.414601 -0.431901 1.46254 2236962
0.414626 -0.432351 1.46269 9605778
0.414437 -0.428865 1.4615 1184274
0.414512 -0.430267 1.46198 1447446
0.596318 -0.422418 1.17175 3618615
0.596604 -0.427683 1.17355 5000268
0.596479 -0.425412 1.17277 3618615
0.596381 -0.423633 1.17216 6645093
0.596411 -0.42413 1.17233 3618615
0.596503 -0.425875 1.17293 3421236
0.596608 -0.427802 1.17359 4934475
0.59659 -0.427366 1.17344 2894892
0.70147 -0.441348 1.25436 6645093
0.701616 -0.443968 1.25525 1973790
0.701504 -0.44196 1.25457 11382189
0.701732 -0.446176 1.25601 1842204
0.701431 -0.440617 1.25411 6974058
0.701409 -0.440167 1.25396 11776947
0.701625 -0.444182 1.25533 1907997
0.701666 -0.444939 1.25558 7237230
-0.223837 0.501855 0.938952 14211288
-0.223861 0.502122 0.938838 14013909
-0.223925 0.502656 0.938614 14869218
-0.22391 0.50253 0.938667 14606046
-0.223951 0.502905 0.938513 14013909
-0.223877 0.502233 0.938792 15000804
-0.223911 0.502526 0.938667 15395562
-0.223921 0.502637 0.93862 16185078
0.493082 -0.415665 1.33442 11053224
0.493325 -0.420127 1.33594 7368816
0.493301 -0.419704 1.33579 10921638
0.493264 -0.419022 1.33556 3092271
0.493133 -0.416606 1.33473 10921638
0.493329 -0.420216 1.33596 11119017
0.493367 -0.420848 1.33618 7039851
0.493154 -0.416935 1.33485 10987431
0.785285 -0.123129 1.60281 4671303
0.785213 -0.121787 1.60236 4737096
0.785271 -0.122923 1.60274 4210752
0.785369 -0.124753 1.60336 4737096
0.785378 -0.124806 1.60338 4408131
0.785224 -0.121966 1.60242 3552822
0.785301 -0.123447 1.60292 4868682
0.78544 -0.12597 1.60378 4144959
0.484868 0.0873868 1.5651 10066329
0.484864 0.0874168 1.56508 9671571
0.48489 0.0871882 1.56518 8882055
0.484969 0.0865006 1.56547 14408667
0.484908 0.0870129 1.56526 10987431
0.484521 0.090396 1.56383 9013641
0.484697 0.0888933 1.56446 14474460
0.484833 0.0877056 1.56496 12566463
0.769398 -0.15492 1.61503 4605510
0.769632 -0.159281 1.61652 4802889
0.769397 -0.154913 1.61503 3881787
0.769409 -0.15514 1.61511 4605510
0.769506 -0.156918 1.61571 4737096
0.769507 -0.156977 1.61573 3552822
0.76949 -0.156664 1.61563 5000268
0.769509 -0.157089 1.61577 4408131
0.875387 -0.479098 1.24003 8684676
0.875341 -0.478229 1.23974 9342606
0.87575 -0.485854 1.24232 8158332
0.875455 -0.480322 1.24045 10132122
0.875614 -0.48331 1.24146 9342606
0.875637 -0.483818 1.24164 9013641
0.875541 -0.481904 1.24098 10066329
0.875385 -0.479121 1.24003 9934743
0.511562 0.0794791 1.57982 5395026
0.511523 0.0798022 1.57969 5658198
0.5115 0.080013 1.5796 4013373
0.511346 0.0813665 1.57903 10987431
0.510838 0.0858368 1.57715 6184542
0.511059 0.0838861 1.57797 4868682
0.511321 0.0815505 1.57895 8684676
0.511583 0.0792494 1.57992 8684676
0.840397 -0.192746 1.45724 2039583
0.840497 -0.194577 1.45787 921102
0.840612 -0.196718 1.4586 3815994
0.840354 -0.191968 1.45698 1250067
0.840631 -0.19709 1.45872 2697513
0.840495 -0.194573 1.45786 4079166
0.840595 -0.196435 1.4585 1184274
0.840358 -0.192074 1.45701 3421236
0.102082 -0.100256 1.33663 7697781
0.102634 -0.105107 1.33868 8487297
0.101945 -0.0990761 1.33614 7237230
0.102531 -0.104173 1.33829 16711422
0.102136 -0.100733 1.33684 12961221
0.102358 -0.102636 1.33764 6842472
0.102048 -0.0999578 1.33652 16777215
0.102239 -0.101724 1.33726 16777215
0.651194 -0.431441 1.12365 1644825
0.651075 -0.429122 1.12286 1776411
0.651254 -0.432528 1.12402 1973790
0.651076 -0.429122 1.12286 2960685
0.650976 -0.427246 1.12223 3421236
0.651067 -0.42898 1.12282 3750201
0.651112 -0.429945 1.12314 4210752
0.650945 -0.426858 1.12209 4408131
0.746963 -0.210679 1.63926 855309
0.747002 -0.211425 1.63951 921102
0.747133 -0.213869 1.64034 2105376
0.747017 -0.211672 1.6396 1118481
0.747144 -0.213983 1.64038 1118481
0.747025 -0.21184 1.63965 2565927
0.747008 -0.211486 1.63953 789516
0.747216 -0.215335 1.64084 1250067
0.641935 -0.294633 1.61172 14408667
0.641675 -0.289817 1.61008 13750737
0.641587 -0.288192 1.60953 14079702
0.641922 -0.294386 1.61164 12369084
0.641876 -0.293537 1.61135 12698049
0.641912 -0.294197 1.61157 12763842
0.641956 -0.295039 1.61186 9868950
0.641646 -0.289289 1.6099 7631988
0.881999 -0.145092 1.40166 4276545
0.881835 -0.142026 1.40062 4276545
0.881776 -0.140974 1.40025 5131854
0.881848 -0.142311 1.40071 4342338
0.882019 -0.145509 1.4018 5460819
0.881872 -0.142826 1.40088 5131854
0.882007 -0.145237 1.40171 5066061
0.881935 -0.14392 1.40126 6513507
-0.251238 0.486727 0.924754 15066597
-0.25124 0.486763 0.924744 15395562
-0.251207 0.48646 0.924872 13816530
-0.251231 0.486637 0.924794 15066597
-0.251344 0.487605 0.924387 15000804
-0.251279 0.487125 0.924589 13553358
-0.25123 0.486617 0.9248 15198183
-0.251309 0.487316 0.924508 14408667
0.626435 -0.493762 1.58608 13027014
0.626341 -0.491835 1.58543 13158600
0.626391 -0.492743 1.58573 13553358
0.626324 -0.491473 1.5853 13158600
0.626539 -0.495466 1.58666 14408667
0.626085 -0.487033 1.58379 15329769
0.626293 -0.491043 1.58515 15198183
0.626509 -0.494913 1.58647 15987699
-0.436235 -0.148914 0.942639 5921370
-0.43606 -0.150427 0.94328 6250335
-0.435818 -0.152569 0.944183 4737096
-0.43641 -0.147436 0.942015 7039851
-0.43616 -0.149584 0.942926 5987163
-0.435823 -0.152537 0.94417 4539717
-0.43626 -0.14866 0.942534 5855577
-0.436275 -0.148585 0.942508 5723991
0.689862 -0.479356 1.1744 2894892
0.689948 -0.481031 1.17496 2829099
0.690053 -0.482911 1.1756 2500134
0.689836 -0.478868 1.17423 2171169
0.690117 -0.484092 1.17601 1710618
0.690005 -0.482024 1.1753 1447446
0.690087 -0.483538 1.17582 1315860
0.690019 -0.482276 1.17539 1315860
-0.478873 -0.155669 0.9097 7368816
-0.478533 -0.158643 0.910956 6776679
-0.47877 -0.156559 0.910077 6908265
-0.478835 -0.156057 0.909862 6579300
-0.478965 -0.154896 0.909377 6579300
-0.47889 -0.155521 0.909638 6645093
-0.47861 -0.157984 0.910675 6250335
-0.478368 -0.160169 0.911596 6118749
0.656161 -0.480815 1.15718 4737096
0.655951 -0.476903 1.15585 4210752
0.656021 -0.478251 1.15631 3947580
0.656151 -0.48066 1.15713 3026478
0.655962 -0.477099 1.15592 2565927
0.656213 -0.481788 1.15751 1973790
0.656114 -0.480045 1.15692 1644825
0.656072 -0.479178 1.15662 1513239
0.631833 -0.409029 1.10561 1579032
0.631861 -0.409545 1.10579 3223857
0.631905 -0.410378 1.10607 1579032
0.631966 -0.411522 1.10646 6052956
0.631793 -0.408333 1.10537 1776411
0.631992 -0.41198 1.10662 1579032
0.632049 -0.413052 1.10698 3552822
0.631819 -0.408774 1.10552 2302755
0.574949 -0.331669 1.57337 14935011
0.575115 -0.334703 1.57441 13355979
0.575038 -0.33329 1.57393 13553358
0.575227 -0.33679 1.57512 9539985
0.575284 -0.337803 1.57546 10395294
0.575287 -0.337869 1.57549 11645361
0.575014 -0.332821 1.57377 8882055
0.574949 -0.331617 1.57336 8355711
0.875494 -0.479857 1.25818 10461087
0.875495 -0.479848 1.25818 9408399
0.875394 -0.477972 1.25754 11250603
0.875511 -0.480161 1.25828 10592673
0.875551 -0.480882 1.25852 11053224
0.875603 -0.48188 1.25886 11842740
0.875436 -0.478798 1.25781 9868950
0.87542 -0.478546 1.25773 11711154
0.589876 -0.428076 1.21398 2105376
0.589797 -0.426594 1.21348 2500134
0.589528 -0.421647 1.2118 2894892
0.589573 -0.42245 1.21207 3158064
0.589732 -0.425424 1.21308 3421236
0.589754 -0.425831 1.21322 3289650
0.589752 -0.425811 1.21321 5000268
0.589862 -0.42779 1.21389 5789784
-0.543074 -0.133343 0.851014 5395026
-0.542985 -0.134114 0.851347 5921370
-0.542657 -0.136961 0.852538 5592405
-0.542908 -0.134782 0.851623 6513507
-0.542426 -0.139027 0.853402 6052956
-0.542688 -0.136661 0.852417 5921370
-0.542708 -0.136642 0.852407 6710886
-0.543075 -0.133293 0.850995 6710886
0.554286 -0.468357 1.54638 14277081
0.55465 -0.475197 1.54872 13816530
0.554627 -0.47469 1.54855 14671839
0.554702 -0.476175 1.54904 14474460
0.55462 -0.474577 1.5485 15263976
0.55428 -0.468192 1.54634 16711422
0.554285 -0.468274 1.54636 16579836
0.554401 -0.470534 1.54713 16777215
0.873046 -0.466582 1.24259 10132122
0.872735 -0.463808 1.24142 11119017
0.873464 -0.470383 1.24417 12040119
0.872573 -0.462442 1.24085 12632256
0.872423 -0.461205 1.24033 11974326
0.87263 -0.463031 1.24109 13750737
0.873065 -0.466746 1.24266 12040119
0.87237 -0.460662 1.24009 13684944
0.789952 -0.183078 1.55802 5460819
0.79015 -0.18668 1.55925 4276545
0.79003 -0.184346 1.55845 5723991
0.790148 -0.186519 1.55919 3684408
0.790037 -0.184498 1.55851 4868682
0.790232 -0.188115 1.55974 4802889
0.79012 -0.186007 1.55902 4144959
0.790056 -0.184805 1.5586 4605510
0.944875 -0.132886 1.34187 5921370
0.944995 -0.133877 1.34229 5987163
0.945496 -0.138168 1.3441 7171437
0.944857 -0.132534 1.34173 5789784
0.945638 -0.139471 1.34465 7763574
0.945034 -0.134158 1.34241 7039851
0.944894 -0.132951 1.3419 7303023
0.945726 -0.140225 1.34497 9934743
-0.223379 0.498521 0.939593 14540253
-0.223263 0.497511 0.940021 14803425
-0.223271 0.497594 0.939989 15724527
-0.223263 0.497518 0.940019 14211288
-0.223256 0.497436 0.94005 14671839
-0.223262 0.497508 0.940023 16053492
-0.223357 0.498344 0.939671 13816530
-0.223316 0.497953 0.939833 14079702
0.536265 -0.40636 1.24393 9474192
0.536217 -0.405473 1.24363 4671303
0.536464 -0.410012 1.24517 13224393
0.536317 -0.40731 1.24425 3552822
0.536323 -0.407472 1.24431 9013641
0.536313 -0.407225 1.24422 11974326
0.53635 -0.407947 1.24447 4605510
0.536338 -0.407693 1.24438 8487297
0.420069 -0.434867 1.45478 2565927
0.419949 -0.432643 1.45402 2236962
0.419666 -0.427428 1.45224 6710886
0.419762 -0.429205 1.45285 2236962
0.419895 -0.431682 1.45369 2236962
0.419886 -0.43148 1.45362 9868950
0.419896 -0.431694 1.4537 1776411
0.419918 -0.43208 1.45383 2105376
0.884041 -0.175045 1.38358 5658198
0.883891 -0.172249 1.38262 4473924
0.884024 -0.174711 1.38346 6710886
0.883968 -0.173654 1.3831 4671303
0.883942 -0.173232 1.38296 6579300
0.884038 -0.175022 1.38357 6447714
0.883914 -0.172682 1.38277 4737096
0.883963 -0.173587 1.38308 6645093
0.86605 -0.283787 1.38693 11119017
0.865875 -0.280573 1.38583 10921638
0.865954 -0.282041 1.38633 10987431
0.866029 -0.28341 1.3868 9145227
0.86618 -0.286205 1.38775 10132122
0.866027 -0.283383 1.38679 10592673
0.865866 -0.280381 1.38577 5329233
0.865915 -0.281347 1.38609 2631720
0.674094 -0.4654 1.61342 7829367
0.674179 -0.467006 1.61397 11053224
0.674066 -0.464927 1.61326 2697513
0.673806 -0.460155 1.61164 12961221
0.673878 -0.46145 1.61208 8158332
0.673815 -0.460279 1.61168 2368548
0.674011 -0.463899 1.61291 12500670
0.673877 -0.461427 1.61207 12171705
0.941499 -0.143969 1.36557 7566195
0.941211 -0.141479 1.36452 5855577
0.941154 -0.140956 1.36428 6513507
0.941034 -0.139964 1.36388 5723991
0.940735 -0.137222 1.36273 5987163
0.940697 -0.136964 1.36262 5723991
0.941747 -0.146143 1.36649 5066061
0.941514 -0.144162 1.36564 5197647
0.880402 -0.170708 1.39751 5066061
0.88052 -0.172903 1.39826 5658198
0.880403 -0.170741 1.39752 4342338
0.880512 -0.172726 1.3982 6381921
0.880441 -0.171355 1.39773 4934475
0.880488 -0.172204 1.39802 4144959
0.880352 -0.169734 1.39718 5526612
0.880614 -0.174533 1.39881 4539717
0.369764 -0.0606354 1.48717 9737364
0.369536 -0.0585979 1.48632 11053224
0.369641 -0.0595634 1.48672 11513775
0.369738 -0.0603865 1.48707 13027014
0.370064 -0.0632754 1.48828 13816530
0.369703 -0.0600728 1.48694 15856113
0.369948 -0.0622374 1.48785 11579568
0.369704 -0.0600764 1.48694 12895428
0.453516 -0.424411 1.40335 9276813
0.453517 -0.424458 1.40336 3750201
0.453603 -0.426029 1.4039 10461087
0.45359 -0.425809 1.40382 1644825
0.453538 -0.42484 1.40349 8816262
0.453384 -0.421991 1.40252 10658466
0.453667 -0.427187 1.40429 3421236
0.453439 -0.423034 1.40288 7895160
0.798317 -0.338568 1.35429 1447446
0.798183 -0.336087 1.35344 2236962
0.798313 -0.338442 1.35425 2171169
0.798342 -0.339008 1.35443 986895
0.7982 -0.336342 1.35353 1381653
0.79831 -0.338344 1.35422 1842204
0.798263 -0.337525 1.35394 1381653
0.798278 -0.337895 1.35406 1315860
0.720299 -0.437828 1.21401 4605510
0.720924 -0.443332 1.21632 2631720
0.720167 -0.436668 1.21352 14079702
0.720759 -0.441882 1.21571 2565927
0.720278 -0.437645 1.21393 6250335
0.720231 -0.437226 1.21375 15921906
0.720683 -0.441217 1.21543 3092271
0.721063 -0.444555 1.21684 7960953
0.686164 -0.567039 1.21359 3092271
0.686386 -0.57085 1.2149 3947580
0.686107 -0.565649 1.21313 3026478
0.68613 -0.566157 1.21329 4144959
0.686172 -0.566928 1.21356 3223857
0.686009 -0.563788 1.21248 2894892
0.686379 -0.570644 1.21482 3947580
0.686337 -0.569924 1.21457 3289650
-0.0990959 -0.293753 0.780985 8947848
-0.0990707 -0.293935 0.781064 7566195
-0.0991714 -0.293039 0.78068 8026746
-0.0987263 -0.296975 0.782342 6776679
-0.0990447 -0.294218 0.781175 7960953
-0.0994162 -0.290872 0.779775 8289918
-0.0994571 -0.290517 0.779626 8421504
-0.0994499 -0.290622 0.77967 7960953
0.376113 -0.1337 1.08311 5197647
0.376175 -0.134835 1.08349 5723991
0.376194 -0.135198 1.08362 3750201
0.376155 -0.134488 1.08338 6052956
0.376076 -0.132991 1.08287 5395026
0.376071 -0.1329 1.08283 4079166
0.376244 -0.136135 1.08394 5921370
0.376105 -0.133538 1.08305 5658198
-0.0554078 -0.292427 0.806593 7434609
-0.055149 -0.294719 0.807556 8355711
-0.0553686 -0.292785 0.806744 7895160
-0.0552888 -0.293455 0.807038 7960953
-0.0559606 -0.287538 0.80454 7697781
-0.0558779 -0.288342 0.804864 7303023
-0.0555346 -0.291297 0.806117 6908265
-0.0555511 -0.291191 0.80607 7171437
0.606573 -0.41476 1.15039 2434341
0.606848 -0.41986 1.15212 4934475
0.606864 -0.420175 1.15223 2829099
0.606743 -0.417786 1.15141 6118749
